x, y, z, intensity, ring
5.1624,-1.24184,-0.0596986,16,32765
5.09996,-1.24475,-0.0591317,17,32765
5.17355,-1.28054,-0.0593957,17,32765
5.22745,-1.31235,-0.0601369,16,32765
5.1844,-1.31945,-0.0593766,15,32765
5.27688,-1.36137,-0.060655,15,32765
5.07888,-1.3282,-0.0579268,16,32765
5.20013,-1.37825,-0.0591,16,32765
5.14727,-1.38245,-0.0581851,15,32765
5.25851,-1.43075,-0.0597445,15,32765
5.28269,-1.45603,-0.0597227,16,32765
5.2297,-1.45999,-0.0592335,14,32765
0,-0,-0,0,32765
5.33546,-1.52701,-0.0602969,15,32765
5.28248,-1.5303,-0.0596633,15,32765
5.3063,-1.55579,-0.0601154,15,32765
5.30127,-1.57285,-0.0602768,15,32765
5.31542,-1.59536,-0.0606312,15,32765
5.45377,-1.65603,-0.0629301,16,32765
5.40069,-1.65867,-0.062363,15,32765
0,-0,-0,0,32765
5.0465,-1.58536,-0.0594363,13,32765
5.4323,-1.72509,-0.0649021,15,32765
5.42688,-1.74204,-0.0657587,16,32765
0,-0,-0,0,32765
5.32059,-1.74553,-0.0668389,14,32765
0.729796,0.0112178,-0.0131112,15,32765
0.759815,0.00915181,-0.0140739,15,32765
0.729841,0.00636878,-0.0138196,15,32765
0.759846,0.00407934,-0.0147215,15,32765
0.809842,0.00164849,-0.0159158,15,32765
0.719854,-0.000965114,-0.0144664,15,32765
0.769833,-0.00362018,-0.0156289,15,32765
0.779808,-0.0062786,-0.016111,16,32765
0.769781,-0.00878209,-0.016141,15,32765
0.759749,-0.0111662,-0.0160418,15,32765
0.779697,-0.0140204,-0.0166379,15,32765
0.789637,-0.0168139,-0.0170331,15,32765
0.859535,-0.0211412,-0.0187917,15,32765
0.819479,-0.0229926,-0.0180418,15,32765
0.829386,-0.0260739,-0.018426,14,32765
0.839281,-0.029244,-0.0187569,15,32765
0.779235,-0.0297399,-0.0175583,15,32765
0.799109,-0.0331197,-0.0181092,15,32765
0.828954,-0.0371255,-0.0188768,15,32765
0.81884,-0.0393762,-0.018735,15,32765
0.848652,-0.0436941,-0.0195324,15,32765
0.838514,-0.0460026,-0.0194252,15,32765
0.868295,-0.0505661,-0.0201556,15,32765
0.858141,-0.0528617,-0.0199772,15,32765
0.85796,-0.0556937,-0.0200923,15,32765
0.827845,-0.0565137,-0.0194525,15,32765
0.907425,-0.0649864,-0.0213556,15,32765
0.887263,-0.0665287,-0.0209445,15,32765
0.887031,-0.069535,-0.0209785,15,32765
0.916682,-0.0749718,-0.0217568,15,32765
0.876578,-0.074685,-0.0208314,15,32765
0.896236,-0.0794252,-0.0212939,14,32765
0.975606,-0.0897371,-0.0232238,14,32765
0.935493,-0.0891865,-0.0223243,14,32765
0.945139,-0.093282,-0.022596,14,32765
0.94482,-0.0964695,-0.0225361,14,32765
0.984255,-0.103871,-0.0235187,15,32765
1.01371,-0.11049,-0.0240972,15,32765
0.973592,-0.10947,-0.0231401,14,32765
1.07253,-0.124206,-0.0254501,14,32765
1.06218,-0.126638,-0.025176,15,32765
1.10145,-0.135045,-0.0260503,14,32765
1.06131,-0.133741,-0.025075,14,32765
1.0906,-0.14118,-0.0257762,13,32765
1.20905,-0.160635,-0.0283688,14,32765
1.17878,-0.160655,-0.0276484,13,32765
1.24754,-0.174248,-0.0295876,13,32765
4.5128,-0.645705,-0.106478,15,32765
4.56004,-0.668245,-0.107434,17,32765
4.5182,-0.677757,-0.106691,17,32765
4.56525,-0.700924,-0.107511,17,32765
4.5332,-0.711987,-0.106319,16,32765
4.64921,-0.746489,-0.108383,17,32765
4.67624,-0.767167,-0.108957,17,32765
4.63421,-0.776125,-0.108401,18,32765
4.602,-0.786638,-0.10796,18,32765
4.68799,-0.817546,-0.109242,17,32765
4.63598,-0.824811,-0.107164,17,32765
4.59386,-0.833552,-0.102886,16,32765
4.61069,-0.852625,-0.103418,16,32765
4.63726,-0.873806,-0.103337,16,32765
4.66374,-0.895176,-0.103451,15,32765
4.6509,-0.908928,-0.102886,16,32765
4.72624,-0.940287,-0.104376,16,32765
4.68388,-0.948176,-0.103166,15,32765
4.65132,-0.957786,-0.101804,15,32765
4.65785,-0.975602,-0.101378,16,32765
4.69369,-0.999449,-0.101966,17,32765
4.83686,-1.04702,-0.104859,17,32765
4.74547,-1.0438,-0.102698,16,32765
4.84928,-1.08371,-0.104893,17,32765
4.79686,-1.08901,-0.10306,17,32765
4.83215,-1.11408,-0.103667,16,32765
4.77969,-1.119,-0.10237,16,32765
4.7662,-1.1327,-0.101744,18,32765
4.78186,-1.15319,-0.101636,17,32765
4.79742,-1.17386,-0.102148,19,32765
4.8324,-1.19911,-0.102377,18,32765
4.80898,-1.21034,-0.10203,17,32765
4.87283,-1.24328,-0.103173,18,32765
4.82033,-1.24673,-0.102299,18,32765
4.82586,-1.26522,-0.102024,18,32765
4.8603,-1.29144,-0.102595,19,32765
4.88497,-1.31532,-0.102857,18,32765
4.94815,-1.34972,-0.104512,17,32765
4.80876,-1.32877,-0.101338,17,32765
4.92951,-1.37968,-0.104028,18,32765
4.94427,-1.40104,-0.104175,18,32765
4.97807,-1.42836,-0.105012,18,32765
4.95423,-1.43886,-0.104519,16,32765
4.94954,-1.45489,-0.104634,15,32765
4.96399,-1.47654,-0.105188,17,32765
4.91141,-1.47787,-0.104296,16,32765
5.03094,-1.53155,-0.107544,17,32765
4.98782,-1.5358,-0.10671,17,32765
4.99237,-1.55486,-0.107368,16,32765
4.95875,-1.56181,-0.107323,16,32765
4.94433,-1.57418,-0.107896,18,32765
4.94888,-1.59271,-0.108882,17,32765
4.99129,-1.62395,-0.110829,16,32765
4.94802,-1.62752,-0.111162,16,32765
0.679534,0.0114196,-0.0224376,16,32765
0.739538,0.00992375,-0.0241856,15,32765
0.689602,0.00696482,-0.0223828,15,32765
0.749592,0.00514957,-0.024203,15,32765
0.709631,0.00248765,-0.0227448,15,32765
0.72963,7.15764e-05,-0.0232493,15,32765
0.76961,-0.00250615,-0.0243622,15,32765
0.78959,-0.00521249,-0.0249016,15,32765
0.789572,-0.00779395,-0.0248,15,32765
0.799542,-0.0105454,-0.0249244,15,32765
0.769523,-0.0126879,-0.023954,16,32765
0.759488,-0.0150466,-0.0234927,14,32765
0.739445,-0.0171636,-0.0229315,15,32765
0.75937,-0.0202206,-0.0234305,15,32765
0.779281,-0.0234461,-0.0238981,15,32765
0.839136,-0.0281136,-0.0256979,15,32765
0.809075,-0.0297936,-0.0247101,15,32765
0.77901,-0.0312852,-0.023751,15,32765
0.848803,-0.0369272,-0.0258763,15,32765
0.788769,-0.0369747,-0.0239966,15,32765
0.828574,-0.0416322,-0.0251297,15,32765
0.848394,-0.0454973,-0.0256381,15,32765
0.868196,-0.0494663,-0.0262503,15,32765
0.887987,-0.0535532,-0.0266621,15,32765
0.907755,-0.0577988,-0.0272226,15,32765
0.837743,-0.0561754,-0.0251039,15,32765
0.867465,-0.0611105,-0.0258857,15,32765
0.897159,-0.0662635,-0.026725,15,32765
0.946759,-0.0731405,-0.0282424,15,32765
0.906654,-0.0731288,-0.0270298,15,32765
0.956207,-0.0803665,-0.0284458,15,32765
0.955931,-0.083608,-0.0283682,15,32765
0.985508,-0.0895742,-0.029153,15,32765
0.955346,-0.0901001,-0.0282155,15,32765
0.935138,-0.0914062,-0.0275939,14,32765
0.974603,-0.0985883,-0.0287866,14,32765
1.01404,-0.105999,-0.0298776,15,32765
0.983863,-0.106184,-0.0289401,14,32765
0.993439,-0.110574,-0.0292037,14,32765
1.05264,-0.120758,-0.030982,14,32765
1.06216,-0.125488,-0.0311515,14,32765
1.10142,-0.133878,-0.0323273,14,32765
1.09104,-0.136413,-0.0319281,13,32765
1.10049,-0.141402,-0.0321339,13,32765
1.15947,-0.152959,-0.0338116,13,32765
1.21838,-0.164928,-0.0354566,13,32765
0,-0,-0,0,32765
0,-0,-0,0,32765
0,-0,-0,0,32765
4.4588,-0.665124,-0.129603,15,32765
4.43676,-0.677336,-0.128433,16,32765
4.41468,-0.689265,-0.127964,16,32765
4.47157,-0.713603,-0.129508,15,32765
4.48887,-0.731957,-0.129524,16,32765
4.48637,-0.747169,-0.129433,16,32765
4.47397,-0.760608,-0.128988,14,32765
4.51081,-0.782441,-0.129527,15,32765
4.49834,-0.795775,-0.128778,14,32765
4.45633,-0.803665,-0.127107,15,32765
4.47329,-0.822159,-0.127436,15,32765
4.51959,-0.84652,-0.12918,16,32765
4.6542,-0.888077,-0.131617,15,32765
4.56283,-0.886861,-0.12857,15,32765
4.5108,-0.892462,-0.12719,15,32765
4.69393,-0.945393,-0.131592,15,32765
4.61239,-0.945173,-0.128774,15,32765
4.5016,-0.937997,-0.12549,14,32765
4.58647,-0.971676,-0.12731,15,32765
4.5344,-0.976283,-0.125264,15,32765
4.64827,-1.01728,-0.127763,16,32765
4.52776,-1.00684,-0.123753,14,32765
4.63168,-1.04606,-0.125866,15,32765
4.67691,-1.0726,-0.126517,15,32765
4.62473,-1.07652,-0.124255,16,32765
4.65035,-1.09871,-0.124316,16,32765
4.68564,-1.12326,-0.124326,14,32765
4.66249,-1.13408,-0.122656,16,32765
4.66843,-1.152,-0.121695,16,32765
4.70343,-1.17707,-0.121526,15,32765
4.64135,-1.17803,-0.11913,17,32765
4.72464,-1.21561,-0.120474,16,32765
4.74969,-1.23863,-0.119861,15,32765
4.81328,-1.27211,-0.120288,16,32765
4.77056,-1.27728,-0.117923,16,32765
4.78565,-1.29825,-0.117164,15,32765
4.76209,-1.30872,-0.115614,16,32765
4.76742,-1.3271,-0.114175,15,32765
5.02288,-1.41598,-0.118778,15,32765
4.75868,-1.35838,-0.110913,14,32765
4.77341,-1.3796,-0.110113,14,32765
4.98963,-1.45969,-0.113573,16,32765
5.05202,-1.49573,-0.113147,15,32765
0,-0,-0,0,32765
4.96585,-1.50496,-0.107186,14,32765
0,-0,-0,0,32765
5.09934,-1.58145,-0.10651,14,32765
0,-0,-0,0,32765
5.04169,-1.59854,-0.100643,13,32765
0,-0,-0,0,32765
5.18354,-1.68041,-0.0982776,15,32765
0,-0,-0,0,32765
0.689281,0.011593,-0.029272,16,32765
0.689326,0.00925402,-0.029056,16,32765
0.669378,0.00675921,-0.0280501,15,32765
0.65941,0.00452359,-0.0275205,15,32765
0.699394,0.00243931,-0.0290234,16,32765
0.689412,4.97304e-05,-0.02848,16,32765
0.739372,-0.0024328,-0.0303891,16,32765
0.729372,-0.00484561,-0.0298922,15,32765
0.76932,-0.00763242,-0.0314311,16,32765
0.78928,-0.0104557,-0.0320603,15,32765
0.789243,-0.0130649,-0.0320237,15,32765
0.779211,-0.0154948,-0.0314641,15,32765
0.769162,-0.0179165,-0.03112,15,32765
0.769101,-0.0205492,-0.0309977,15,32765
0.769031,-0.0232135,-0.0308505,15,32765
0.788922,-0.0265155,-0.0316156,15,32765
0.778847,-0.0287699,-0.0311479,16,32765
0.788732,-0.0317726,-0.0315027,15,32765
0.788621,-0.0344124,-0.0314969,15,32765
0.778522,-0.0366029,-0.0310456,15,32765
0.848253,-0.0427461,-0.0337478,15,32765
0.798219,-0.0429308,-0.0316712,15,32765
0.808047,-0.0461717,-0.0320752,15,32765
0.807895,-0.0488619,-0.0319007,15,32765
0.827672,-0.0528489,-0.0326531,15,32765
0.81752,-0.0549733,-0.0322355,15,32765
0.837268,-0.0591479,-0.0329108,15,32765
0.866959,-0.0642107,-0.0340345,15,32765
0.856774,-0.0663716,-0.0336728,15,32765
0.876464,-0.0708882,-0.034433,15,32765
0.846351,-0.0713282,-0.0331977,15,32765
0.915786,-0.0803152,-0.0358572,15,32765
0.955315,-0.0870658,-0.0373173,15,32765
0.895327,-0.0846682,-0.0349342,15,32765
0.954703,-0.0935706,-0.0372285,14,32765
0.95438,-0.0968027,-0.0372463,15,32765
0.914302,-0.0958302,-0.0356184,14,32765
0.923911,-0.0999812,-0.0359502,14,32765
0.923572,-0.103072,-0.0359232,14,32765
0.98278,-0.113044,-0.0382649,15,32765
1.01217,-0.1199,-0.0393072,15,32765
1.01176,-0.123306,-0.0393173,14,32765
1.03116,-0.129268,-0.0399859,14,32765
1.06045,-0.136618,-0.0410576,14,32765
1.03026,-0.136274,-0.0398536,14,32765
1.07931,-0.146489,-0.0416905,14,32765
1.04911,-0.146002,-0.0406451,14,32765
1.11786,-0.159423,-0.0432528,13,32765
1.16676,-0.170448,-0.0450181,13,32765
4.3089,-0.644457,-0.166365,13,32765
4.31657,-0.660722,-0.166166,18,32765
4.37353,-0.684637,-0.168548,19,32765
4.33173,-0.693106,-0.166857,18,32765
4.36882,-0.714254,-0.167834,17,32765
4.34666,-0.725805,-0.166987,17,32765
4.35404,-0.742163,-0.167208,18,32765
4.36138,-0.758508,-0.167007,17,32765
4.37851,-0.776611,-0.167305,17,32765
4.36608,-0.789456,-0.166394,16,32765
4.41256,-0.813126,-0.168038,16,32765
4.41958,-0.82996,-0.168746,17,32765
4.28919,-0.820575,-0.162491,15,32765
4.40407,-0.858247,-0.166423,17,32765
4.40116,-0.873053,-0.166423,16,32765
4.40796,-0.890125,-0.165993,16,32765
4.46368,-0.917098,-0.167603,17,32765
4.48997,-0.938028,-0.168428,17,32765
4.40863,-0.936448,-0.164879,16,32765
4.40553,-0.951025,-0.164209,16,32765
4.44135,-0.974541,-0.164955,17,32765
4.46733,-0.996006,-0.165262,16,32765
4.44454,-1.00642,-0.16375,16,32765
4.48988,-1.03241,-0.164896,17,32765
4.50598,-1.05163,-0.16469,17,32765
4.58029,-1.08499,-0.16682,18,32765
4.54759,-1.09303,-0.164755,17,32765
4.54397,-1.10815,-0.163628,17,32765
4.54998,-1.12572,-0.162789,17,32765
4.58506,-1.15046,-0.163024,18,32765
4.60058,-1.17075,-0.162826,18,32765
4.55804,-1.17583,-0.160589,16,32765
4.62189,-1.20847,-0.161656,17,32765
4.57928,-1.21345,-0.159081,18,32765
4.60434,-1.23602,-0.158735,18,32765
4.60027,-1.25125,-0.157544,17,32765
4.59614,-1.26644,-0.156501,18,32765
4.60161,-1.28432,-0.155211,18,32765
4.66474,-1.31848,-0.155972,17,32765
4.7373,-1.35583,-0.156829,18,32765
4.54084,-1.31584,-0.149277,16,32765
4.69002,-1.37566,-0.152785,17,32765
4.69517,-1.39374,-0.151277,17,32765
4.71941,-1.41757,-0.150114,17,32765
4.76273,-1.4472,-0.149672,18,32765
4.77712,-1.46867,-0.148838,17,32765
4.75336,-1.47804,-0.146148,16,32765
4.88221,-1.53511,-0.147908,18,32765
4.76309,-1.51419,-0.142127,17,32765
4.86303,-1.56294,-0.142467,19,32765
4.88642,-1.58827,-0.141,19,32765
4.87191,-1.60074,-0.13788,17,32765
0.719357,0.011897,-0.0279871,16,32765
0.739361,0.00973065,-0.029178,15,32765
0.699409,0.00689416,-0.0279109,16,32765
0.689426,0.00449092,-0.027783,16,32765
0.699421,0.00223688,-0.0283875,16,32765
0.709404,-0.000109075,-0.0290943,16,32765
0.699399,-0.0024642,-0.0288868,16,32765
0.749336,-0.00516932,-0.0311288,15,32765
0.769286,-0.00787463,-0.0322092,15,32765
0.719294,-0.00972437,-0.0303486,15,32765
0.739232,-0.0124263,-0.0313328,15,32765
0.749168,-0.0150909,-0.0319247,15,32765
0.749109,-0.0176285,-0.0320151,15,32765
0.759022,-0.0205087,-0.0326414,15,32765
0.75894,-0.0230872,-0.0328141,15,32765
0.768837,-0.0259853,-0.0333919,15,32765
0.808673,-0.0300484,-0.035284,15,32765
0.828532,-0.0335188,-0.0362194,15,32765
0.788487,-0.0345155,-0.0345959,15,32765
0.798343,-0.037605,-0.0351324,15,32765
0.778254,-0.039235,-0.0343596,15,32765
0.788088,-0.0424002,-0.0349292,15,32765
0.807889,-0.0461657,-0.0358399,15,32765
0.79775,-0.0483033,-0.0355236,15,32765
0.857406,-0.0547854,-0.0381289,15,32765
0.857208,-0.0576751,-0.0383079,15,32765
0.866974,-0.0612624,-0.0387683,15,32765
0.84683,-0.0627005,-0.038045,15,32765
0.87649,-0.0679032,-0.0394342,15,32765
0.816514,-0.0660274,-0.0366828,15,32765
0.915831,-0.0771811,-0.0411985,15,32765
0.855852,-0.0750336,-0.0385565,14,32765
0.915289,-0.0833421,-0.0412381,14,32765
0.915002,-0.0864292,-0.0412434,14,32765
0.914707,-0.0895047,-0.0412234,15,32765
0.954153,-0.0966446,-0.0430422,15,32765
0.943882,-0.0988394,-0.0426249,15,32765
0.933613,-0.100954,-0.0421328,14,32765
0.992836,-0.110744,-0.0448665,15,32765
0.962689,-0.110638,-0.0434695,14,32765
1.002,-0.118563,-0.045184,14,32765
0.971846,-0.118287,-0.0438521,14,32765
1.02102,-0.127708,-0.0460295,14,32765
1.01068,-0.129864,-0.0454788,14,32765
1.07957,-0.142364,-0.0485037,14,32765
1.12859,-0.152685,-0.0506786,14,32765
1.0588,-0.146906,-0.047538,13,32765
1.18688,-0.168814,-0.0531326,13,32765
0,-0,-0,0,32765
0,-0,-0,0,32765
0,-0,-0,0,32765
4.2246,-0.660138,-0.188018,16,32765
4.2618,-0.680815,-0.189618,16,32765
4.13131,-0.674325,-0.183465,15,32765
4.1586,-0.693125,-0.184443,15,32765
4.22519,-0.71897,-0.187045,16,32765
4.23259,-0.734995,-0.18707,16,32765
4.16127,-0.737102,-0.182822,15,32765
4.1686,-0.752935,-0.182951,14,32765
4.33309,-0.79764,-0.1902,14,32765
4.35985,-0.817775,-0.19128,15,32765
4.18045,-0.798788,-0.18276,15,32765
4.27584,-0.831804,-0.186878,16,32765
4.20441,-0.832734,-0.183272,15,32765
4.33872,-0.874506,-0.188747,16,32765
4.33576,-0.889147,-0.188362,15,32765
4.2741,-0.891501,-0.185003,16,32765
4.33951,-0.920393,-0.18748,15,32765
4.28756,-0.924491,-0.185108,15,32765
4.33327,-0.949523,-0.186533,16,32765
4.27149,-0.951212,-0.184288,15,32765
4.30729,-0.974377,-0.185087,16,32765
4.29425,-0.986681,-0.184404,15,32765
4.34931,-1.01468,-0.186589,15,32765
4.37511,-1.03599,-0.18743,16,32765
4.34254,-1.04346,-0.185606,16,32765
4.36823,-1.06473,-0.186826,15,32765
4.4714,-1.10555,-0.190777,15,32765
4.49676,-1.12783,-0.191605,14,32765
4.39616,-1.11818,-0.187229,15,32765
4.45043,-1.14794,-0.189408,16,32765
4.40798,-1.15251,-0.18731,16,32765
4.40416,-1.16699,-0.187375,15,32765
4.5065,-1.20985,-0.19124,16,32765
4.47359,-1.21676,-0.189923,16,32765
4.45029,-1.2262,-0.189154,16,32765
4.46547,-1.24636,-0.18918,16,32765
4.4998,-1.27195,-0.190775,17,32765
4.45712,-1.27587,-0.189281,15,32765
4.52975,-1.31249,-0.192781,16,32765
4.41042,-1.29345,-0.187699,15,32765
4.44458,-1.31888,-0.189309,15,32765
4.58392,-1.37612,-0.195042,16,32765
4.47427,-1.35899,-0.190871,15,32765
4.56529,-1.403,-0.195339,16,32765
4.45567,-1.38537,-0.191373,15,32765
4.50839,-1.41766,-0.193818,15,32765
4.58962,-1.45903,-0.197622,15,32765
4.547,-1.46103,-0.196546,15,32765
4.52339,-1.46899,-0.196413,15,32765
4.60417,-1.51122,-0.200892,17,32765
0.709074,0.0117336,-0.0342898,16,32765
0.699104,0.00920141,-0.0341978,16,32765
0.67914,0.0066892,-0.0335219,15,32765
0.699121,0.0045428,-0.0347824,14,32765
0.679147,0.00215539,-0.0339846,16,32765
0.719085,-0.000134372,-0.0362891,16,32765
0.709083,-0.00252786,-0.0359901,16,32765
0.719048,-0.00499648,-0.0366683,16,32765
0.719016,-0.00740227,-0.0369023,16,32765
0.70899,-0.00963264,-0.0366173,16,32765
0.728917,-0.0123079,-0.0377879,16,32765
0.758817,-0.0153489,-0.0395115,16,32765
0.748772,-0.0176898,-0.0390819,16,32765
0.738713,-0.0200349,-0.0387549,16,32765
0.738631,-0.0225507,-0.0389229,15,32765
0.738544,-0.0250491,-0.0390631,15,32765
0.748427,-0.027905,-0.0397366,15,32765
0.77826,-0.0315905,-0.0413863,16,32765
0.778145,-0.0341748,-0.0415066,15,32765
0.787996,-0.0372378,-0.0421359,15,32765
0.827755,-0.0418637,-0.0443815,15,32765
0.747832,-0.0403613,-0.0402262,15,32765
0.807507,-0.0462877,-0.0434705,15,32765
0.807338,-0.0490347,-0.0435981,16,32765
0.827103,-0.0530106,-0.0446175,16,32765
0.836872,-0.0564776,-0.0453297,15,32765
0.816756,-0.0578875,-0.0442643,15,32765
0.836463,-0.0621181,-0.0455097,15,32765
0.836243,-0.0649777,-0.0455538,15,32765
0.855928,-0.0694189,-0.0465725,15,32765
0.865635,-0.0731651,-0.0471538,14,32765
0.895221,-0.0787145,-0.0488265,15,32765
0.855175,-0.078095,-0.0466484,15,32765
0.835025,-0.0791031,-0.0455682,15,32765
0.864567,-0.0848425,-0.0471765,15,32765
0.913942,-0.0928378,-0.0499129,15,32765
0.893758,-0.0938587,-0.048857,15,32765
0.903364,-0.0979618,-0.0493576,15,32765
0.922873,-0.103233,-0.0504834,15,32765
0.892766,-0.102893,-0.0488073,14,32765
0.941997,-0.111778,-0.0514452,14,32765
0.941617,-0.114931,-0.0514548,14,32765
0.961048,-0.120547,-0.0524813,14,32765
0.990353,-0.12761,-0.0540024,15,32765
1.01963,-0.134836,-0.0555312,15,32765
1.03896,-0.140952,-0.0565631,14,32765
1.03847,-0.144489,-0.0565346,15,32765
1.01821,-0.145228,-0.055302,14,32765
1.08687,-0.158855,-0.0589711,14,32765
1.10608,-0.165534,-0.0599114,14,32765
1.1746,-0.179941,-0.0635378,13,32765
4.04481,-0.633797,-0.218703,16,32765
4.08207,-0.653912,-0.220685,17,32765
4.1784,-0.683899,-0.225561,17,32765
4.14654,-0.693027,-0.223629,16,32765
4.21309,-0.718894,-0.22689,17,32765
4.20081,-0.731491,-0.22595,17,32765
4.10988,-0.730007,-0.219998,16,32765
4.12705,-0.747486,-0.220748,16,32765
4.12452,-0.761338,-0.220665,16,32765
4.19063,-0.788201,-0.224135,16,32765
4.16836,-0.798671,-0.22232,17,32765
4.19508,-0.818339,-0.223718,17,32765
4.22168,-0.838455,-0.224676,18,32765
4.14055,-0.836857,-0.220021,18,32765
4.08881,-0.840807,-0.217055,16,32765
4.16419,-0.870963,-0.220421,17,32765
4.21986,-0.897475,-0.22305,18,32765
4.21681,-0.911735,-0.222791,17,32765
4.1845,-0.919443,-0.220581,17,32765
4.15209,-0.927164,-0.219305,16,32765
4.23665,-0.96103,-0.223066,17,32765
4.25284,-0.979853,-0.223828,17,32765
4.31762,-1.01006,-0.227089,18,32765
4.29483,-1.01978,-0.22566,18,32765
4.30116,-1.03636,-0.225599,18,32765
4.34625,-1.06229,-0.228118,17,32765
4.27488,-1.05987,-0.223962,18,32765
4.31006,-1.08398,-0.225595,18,32765
4.34513,-1.10825,-0.227376,17,32765
4.23503,-1.09538,-0.221521,17,32765
4.31835,-1.13219,-0.225629,17,32765
4.30494,-1.14384,-0.225185,17,32765
4.37836,-1.17869,-0.228585,17,32765
4.35519,-1.18783,-0.227489,17,32765
4.38012,-1.2102,-0.229045,18,32765
4.39534,-1.23018,-0.229268,19,32765
4.36242,-1.23653,-0.227726,17,32765
4.31028,-1.23725,-0.225347,17,32765
4.43092,-1.28742,-0.232099,19,32765
4.4363,-1.30465,-0.232418,19,32765
4.37467,-1.30174,-0.22938,17,32765
4.44702,-1.33874,-0.233018,19,32765
4.43309,-1.35023,-0.232819,17,32765
4.39997,-1.35597,-0.231686,17,32765
4.42406,-1.37938,-0.233715,18,32765
4.43864,-1.39963,-0.234706,18,32765
4.44373,-1.41661,-0.235319,18,32765
4.4773,-1.44267,-0.237886,19,32765
4.43476,-1.44425,-0.236539,18,32765
4.41118,-1.45195,-0.236256,17,32765
0.708454,0.0128244,-0.0450447,15,32765
0.698529,0.0102311,-0.0441888,16,32765
0.658656,0.00734341,-0.0414455,16,32765
0.688628,0.00533272,-0.0431585,16,32765
0.688653,0.00301307,-0.0429948,16,32765
0.69865,0.000708451,-0.0434403,16,32765
0.708632,-0.00164183,-0.0440245,16,32765
0.728592,-0.0041342,-0.0451324,16,32765
0.738565,-0.00669367,-0.0455708,16,32765
0.718585,-0.00893836,-0.0442274,16,32765
0.768451,-0.0121451,-0.0472767,17,32765
0.698559,-0.0133678,-0.0428546,16,32765
0.738429,-0.016612,-0.0452323,16,32765
0.738376,-0.0190848,-0.0451338,16,32765
0.768243,-0.0224542,-0.0468941,17,32765
0.768164,-0.0251029,-0.0468397,16,32765
0.778054,-0.0280785,-0.047371,16,32765
0.767981,-0.0303504,-0.0467399,16,32765
0.757909,-0.0324925,-0.0460246,16,32765
0.797681,-0.0368905,-0.0484129,15,32765
0.787588,-0.0390795,-0.0477275,15,32765
0.787457,-0.0417251,-0.0476481,15,32765
0.827179,-0.0466099,-0.0500205,15,32765
0.797125,-0.0475793,-0.0482529,15,32765
0.806926,-0.0508987,-0.0487881,15,32765
0.806753,-0.0536199,-0.0487274,15,32765
0.80657,-0.0563576,-0.0486694,16,32765
0.846199,-0.0619885,-0.0510432,15,32765
0.826084,-0.0633017,-0.0497735,15,32765
0.815915,-0.0653057,-0.0491772,15,32765
0.805746,-0.0672552,-0.0484758,15,32765
0.84529,-0.0734491,-0.0508934,15,32765
0.864922,-0.0781003,-0.0520551,15,32765
0.884533,-0.082872,-0.0532272,15,32765
0.884246,-0.0858812,-0.0532388,15,32765
0.903816,-0.0908786,-0.0543868,15,32765
0.943212,-0.0980945,-0.0568191,15,32765
0.942872,-0.101336,-0.0567809,15,32765
0.962365,-0.106766,-0.0579236,15,32765
0.922331,-0.105478,-0.0555008,14,32765
0.921971,-0.108579,-0.0555019,15,32765
0.951328,-0.115287,-0.0573085,15,32765
0.960843,-0.119723,-0.0578472,14,32765
1.00994,-0.129307,-0.0607633,15,32765
0.989704,-0.130124,-0.0596065,14,32765
0.979358,-0.132212,-0.0589769,14,32765
1.03823,-0.143804,-0.0624765,14,32765
1.0575,-0.150178,-0.0636212,14,32765
1.08662,-0.158052,-0.0654143,13,32765
1.09596,-0.163194,-0.0658938,12,32765
0,-0,-0,0,32765
0,-0,-0,0,32765
3.95305,-0.630197,-0.23744,16,32765
3.99031,-0.650105,-0.239378,15,32765
4.08658,-0.679917,-0.245111,14,32765
3.93666,-0.668629,-0.235889,15,32765
3.95405,-0.685336,-0.23704,15,32765
3.96154,-0.700422,-0.237663,16,32765
3.95918,-0.713872,-0.237058,16,32765
4.00589,-0.736206,-0.239297,16,32765
4.05249,-0.75875,-0.241887,15,32765
4.02057,-0.766514,-0.239772,15,32765
3.96905,-0.770281,-0.236236,15,32765
4.04481,-0.799102,-0.240439,15,32765
4.06168,-0.816853,-0.24082,15,32765
4.07843,-0.834798,-0.241711,16,32765
4.08538,-0.850641,-0.241754,16,32765
4.09229,-0.866541,-0.241633,16,32765
4.03086,-0.867555,-0.23754,15,32765
4.03773,-0.883178,-0.237299,15,32765
4.10295,-0.912111,-0.240664,16,32765
4.04143,-0.912844,-0.236766,15,32765
4.126,-0.946566,-0.240338,15,32765
4.07423,-0.948978,-0.237114,15,32765
4.11972,-0.973807,-0.239186,16,32765
4.03886,-0.968806,-0.2337,15,32765
4.08419,-0.993974,-0.235633,15,32765
4.24571,-1.04822,-0.244064,16,32765
4.18414,-1.04782,-0.239735,17,32765
4.19039,-1.06419,-0.238842,15,32765
4.20625,-1.08303,-0.238805,16,32765
4.15445,-1.08415,-0.234872,15,32765
4.1799,-1.10543,-0.23537,16,32765
4.21491,-1.12946,-0.236079,15,32765
4.17269,-1.13286,-0.23281,17,32765
4.28456,-1.17833,-0.237815,16,32765
4.13641,-1.15232,-0.22864,16,32765
4.2672,-1.20401,-0.234521,16,32765
4.33057,-1.23704,-0.23671,17,32765
4.29781,-1.24288,-0.233428,16,32765
4.27465,-1.25137,-0.230365,16,32765
4.31853,-1.27936,-0.231675,16,32765
4.36228,-1.30771,-0.232403,16,32765
4.31994,-1.31007,-0.228572,16,32765
4.34447,-1.33279,-0.22757,15,32765
4.34024,-1.34682,-0.22559,16,32765
4.36449,-1.37004,-0.224963,16,32765
4.47432,-1.42064,-0.228531,16,32765
4.46982,-1.43515,-0.225974,16,32765
4.44636,-1.44317,-0.222562,16,32765
4.53694,-1.48808,-0.224108,16,32765
0.638195,0.0115512,-0.0466271,16,32765
0.668163,0.00977907,-0.0486008,15,32765
0.63829,0.00710381,-0.0462132,15,32765
0.658269,0.00507904,-0.0474941,16,32765
0.668268,0.00289934,-0.0480547,16,32765
0.648337,0.000628137,-0.0464555,16,32765
0.668287,-0.00158425,-0.0478505,16,32765
0.688236,-0.00394803,-0.0491539,16,32765
0.708179,-0.00646838,-0.0504062,16,32765
0.708161,-0.00886487,-0.0502959,16,32765
0.708128,-0.011254,-0.0502757,16,32765
0.708096,-0.0136185,-0.0501497,16,32765
0.688106,-0.0155521,-0.0486706,16,32765
0.747887,-0.0194155,-0.052803,16,32765
0.717909,-0.0210707,-0.050626,16,32765
0.737775,-0.0242064,-0.0519799,16,32765
0.737693,-0.026725,-0.0519068,16,32765
0.717664,-0.0284684,-0.0504815,15,32765
0.777369,-0.0334489,-0.0545772,16,32765
0.767289,-0.0356121,-0.0538446,16,32765
0.777133,-0.0386963,-0.0544646,15,32765
0.796927,-0.0423728,-0.0557806,16,32765
0.786823,-0.0444868,-0.055045,16,32765
0.77671,-0.0465165,-0.0543874,16,32765
0.80642,-0.0510355,-0.0564112,16,32765
0.756479,-0.0504433,-0.052872,16,32765
0.776209,-0.0544122,-0.0542074,16,32765
0.80587,-0.0592241,-0.0562639,15,32765
0.795725,-0.0611696,-0.055503,15,32765
0.835287,-0.0670678,-0.0582813,15,32765
0.82512,-0.0690885,-0.0574832,15,32765
0.824878,-0.0718991,-0.0575062,15,32765
0.834567,-0.0755929,-0.0581643,15,32765
0.844241,-0.079341,-0.058833,15,32765
0.853894,-0.0831878,-0.0595361,14,32765
0.863535,-0.0870935,-0.060182,15,32765
0.843385,-0.087979,-0.0588355,15,32765
0.872835,-0.0940926,-0.0608765,15,32765
0.85268,-0.0948823,-0.0594459,15,32765
0.872179,-0.100042,-0.0607958,15,32765
0.961001,-0.113514,-0.0670143,15,32765
0.911095,-0.110741,-0.0635753,15,32765
0.940418,-0.117527,-0.065591,15,32765
0.959808,-0.123253,-0.0669091,15,32765
0.890148,-0.117381,-0.0621114,14,32765
0.95894,-0.129838,-0.0669092,14,32765
0.928846,-0.129033,-0.0647726,15,32765
0.948152,-0.135045,-0.0661097,15,32765
1.00692,-0.146889,-0.0702498,14,32765
0.976823,-0.14588,-0.0680806,14,32765
1.05522,-0.161259,-0.0735927,14,32765
1.06451,-0.166428,-0.0742284,14,32765
1.21171,-0.193735,-0.0843968,12,32765
3.91868,-0.640294,-0.272664,18,32765
3.93619,-0.6568,-0.273862,18,32765
3.86513,-0.658386,-0.268712,17,32765
3.9022,-0.67831,-0.271417,18,32765
3.96864,-0.70371,-0.276234,18,32765
3.91717,-0.708343,-0.272215,19,32765
3.95406,-0.728782,-0.274249,18,32765
3.9124,-0.734637,-0.271194,17,32765
3.89037,-0.743833,-0.269486,17,32765
3.97607,-0.773868,-0.274981,18,32765
4.01262,-0.795025,-0.277229,18,32765
3.94146,-0.794958,-0.271733,18,32765
4.03645,-0.828584,-0.278206,19,32765
3.97505,-0.830049,-0.273641,17,32765
4.06986,-0.864268,-0.279665,18,32765
4.05724,-0.875742,-0.278356,18,32765
3.96662,-0.870115,-0.27153,18,32765
4.01236,-0.894531,-0.27423,18,32765
4.0969,-0.928029,-0.279744,18,32765
4.05495,-0.932934,-0.275548,18,32765
3.99354,-0.932851,-0.271199,18,32765
3.96137,-0.939062,-0.268488,17,32765
4.03591,-0.970873,-0.272778,16,32765
3.98426,-0.972432,-0.268642,16,32765
4.10699,-1.01687,-0.276088,17,32765
4.10363,-1.03061,-0.275119,17,32765
4.00356,-1.01965,-0.267244,17,32765
4.09685,-1.05788,-0.272586,17,32765
4.05483,-1.06118,-0.268852,17,32765
4.10927,-1.08986,-0.271569,17,32765
4.13467,-1.11113,-0.272041,17,32765
4.10216,-1.1169,-0.269046,17,32765
4.1178,-1.13571,-0.268916,17,32765
4.15253,-1.16012,-0.270263,17,32765
4.13914,-1.17122,-0.268118,17,32765
4.17378,-1.19566,-0.26915,17,32765
4.14118,-1.20101,-0.265645,16,32765
4.1948,-1.23151,-0.267349,17,32765
4.1813,-1.24224,-0.265503,17,32765
4.26338,-1.28171,-0.269169,18,32765
4.20205,-1.27796,-0.263801,17,32765
4.20759,-1.29449,-0.261957,18,32765
4.38459,-1.36447,-0.27124,18,32765
4.25642,-1.33993,-0.26151,17,32765
4.22358,-1.34486,-0.257555,17,32765
4.23834,-1.36471,-0.256287,17,32765
4.34803,-1.41529,-0.260783,18,32765
4.4007,-1.44751,-0.261082,17,32765
0.628355,0.0112107,-0.0440893,15,32765
0.678241,0.00981337,-0.0478793,15,32765
0.668268,0.00743549,-0.0475723,16,32765
0.668274,0.00519904,-0.0477774,16,32765
0.678247,0.00297564,-0.0487119,16,32765
0.638331,0.000634514,-0.0461859,16,32765
0.658264,-0.00158877,-0.0478058,16,32765
0.688163,-0.00397304,-0.0501627,16,32765
0.658211,-0.00597922,-0.0481926,16,32765
0.747921,-0.00929297,-0.0550288,17,32765
0.70799,-0.0111669,-0.0522095,16,32765
0.717906,-0.0137469,-0.0531271,16,32765
0.697903,-0.0157478,-0.0517955,16,32765
0.727743,-0.0188729,-0.0541687,16,32765
0.747604,-0.0218932,-0.055758,16,32765
0.727589,-0.0237491,-0.0543179,16,32765
0.717521,-0.0258329,-0.0538129,16,32765
0.757288,-0.0298218,-0.056798,16,32765
0.737246,-0.0315415,-0.0554412,16,32765
0.747092,-0.0345147,-0.056234,16,32765
0.737001,-0.0365748,-0.0555972,16,32765
0.72691,-0.0385305,-0.054926,16,32765
0.756635,-0.0426466,-0.0573089,16,32765
0.776395,-0.0463749,-0.0588219,15,32765
0.766273,-0.0483362,-0.0582112,16,32765
0.766102,-0.0509312,-0.0582603,16,32765
0.765923,-0.0535216,-0.0582865,16,32765
0.775686,-0.0568622,-0.0589713,16,32765
0.795367,-0.0610378,-0.0605469,16,32765
0.805093,-0.064544,-0.0613086,15,32765
0.804868,-0.0673011,-0.061308,16,32765
0.8245,-0.0717596,-0.0628512,15,32765
0.854048,-0.0772418,-0.0650852,15,32765
0.824004,-0.077307,-0.0627783,15,32765
0.823738,-0.0801029,-0.0627652,15,32765
0.7937,-0.0799013,-0.0604608,15,32765
0.852932,-0.088778,-0.0650084,15,32765
0.832798,-0.0895593,-0.063453,15,32765
0.842408,-0.0934725,-0.0641157,15,32765
0.901532,-0.103119,-0.0686093,15,32765
0.940798,-0.110821,-0.0715464,15,32765
0.920631,-0.111579,-0.0699227,15,32765
0.860878,-0.107312,-0.0653643,15,32765
0.929748,-0.11913,-0.0705498,15,32765
0.988668,-0.130092,-0.0749151,15,32765
0.958578,-0.129436,-0.0726337,15,32765
1.00754,-0.139494,-0.0762123,15,32765
1.03669,-0.147081,-0.0784001,15,32765
0.996717,-0.144868,-0.075296,14,32765
1.01595,-0.151266,-0.0765782,14,32765
1.06471,-0.16232,-0.0802253,13,32765
3.82307,-0.596506,-0.287551,15,32765
3.78164,-0.603451,-0.284019,16,32765
3.69104,-0.601709,-0.276948,16,32765
3.82674,-0.637188,-0.286624,16,32765
3.81475,-0.648458,-0.285563,16,32765
3.82239,-0.663059,-0.286001,16,32765
3.81035,-0.674376,-0.284357,16,32765
3.82773,-0.69077,-0.285203,16,32765
3.89405,-0.716428,-0.28984,18,32765
3.92104,-0.735103,-0.291669,18,32765
3.8108,-0.727807,-0.283261,18,32765
3.78878,-0.736922,-0.281103,16,32765
3.82546,-0.757487,-0.283151,16,32765
3.80332,-0.766496,-0.281644,16,32765
3.85938,-0.791348,-0.285468,16,32765
3.86644,-0.806543,-0.285948,15,32765
3.93203,-0.834043,-0.290523,17,32765
3.87076,-0.834575,-0.285668,17,32765
3.95564,-0.86686,-0.291705,17,32765
3.95274,-0.880149,-0.291152,16,32765
3.91089,-0.884683,-0.287584,17,32765
3.96617,-0.911482,-0.291738,16,32765
3.90485,-0.911113,-0.28702,16,32765
3.95998,-0.938225,-0.291036,16,32765
3.92775,-0.944464,-0.288603,16,32765
3.88587,-0.948038,-0.285176,16,32765
3.88271,-0.960959,-0.284949,15,32765
3.92797,-0.985741,-0.288017,15,32765
3.94405,-1.0036,-0.289225,16,32765
3.99868,-1.03159,-0.293161,16,32765
3.95667,-1.03472,-0.29001,16,32765
4.02073,-1.06577,-0.294533,17,32765
3.88233,-1.04281,-0.284532,15,32765
3.90771,-1.06362,-0.286603,16,32765
4.04843,-1.11633,-0.296888,17,32765
4.00625,-1.11909,-0.294155,14,32765
3.98336,-1.12689,-0.292353,15,32765
4.03717,-1.15647,-0.29656,16,32765
4.05246,-1.17549,-0.297788,16,32765
4.07728,-1.19721,-0.300079,17,32765
4.05424,-1.20486,-0.298342,17,32765
3.98347,-1.19778,-0.293539,15,32765
4.06553,-1.23654,-0.300084,16,32765
4.05201,-1.2466,-0.299544,17,32765
4.10511,-1.27741,-0.30392,17,32765
4.02483,-1.26666,-0.298634,16,32765
4.04919,-1.28875,-0.301301,16,32765
4.05455,-1.30456,-0.302758,16,32765
4.04087,-1.31427,-0.302768,16,32765
4.04613,-1.33004,-0.304555,16,32765
0.607978,0.0108429,-0.048428,17,32765
0.667793,0.00965149,-0.0534778,16,32765
0.667789,0.00741338,-0.0538746,15,32765
0.637893,0.00494093,-0.051658,16,32765
0.66779,0.00290093,-0.0542975,16,32765
0.6578,0.000619386,-0.0538368,16,32765
0.607952,-0.00150475,-0.0499213,16,32765
0.647794,-0.00378567,-0.0533679,16,32765
0.657727,-0.00602708,-0.0543996,16,32765
0.667648,-0.00835467,-0.05546,16,32765
0.657643,-0.0104369,-0.0547395,16,32765
0.647627,-0.0124701,-0.0540744,16,32765
0.677457,-0.0153648,-0.05671,16,32765
0.697312,-0.0181708,-0.0585248,16,32765
0.727121,-0.0213906,-0.0611353,16,32765
0.707122,-0.0231819,-0.0595058,16,32765
0.70702,-0.0255622,-0.0597412,16,32765
0.70693,-0.0279524,-0.0597369,16,32765
0.716775,-0.0307875,-0.0607122,16,32765
0.706708,-0.0327756,-0.0599101,16,32765
0.716534,-0.035694,-0.0608637,16,32765
0.736303,-0.0391738,-0.0626354,15,32765
0.746105,-0.0422072,-0.0636055,16,32765
0.745959,-0.0447177,-0.06361,16,32765
0.765681,-0.0484709,-0.0654495,16,32765
0.785391,-0.0523973,-0.0671996,16,32765
0.785206,-0.0550599,-0.0672263,16,32765
0.765146,-0.0562825,-0.0654531,16,32765
0.784812,-0.060433,-0.0672156,16,32765
0.804464,-0.0647113,-0.0689219,16,32765
0.814166,-0.0683066,-0.069772,16,32765
0.784149,-0.0684745,-0.0672471,16,32765
0.793838,-0.0720332,-0.068063,15,32765
0.793595,-0.0746981,-0.0680277,16,32765
0.81317,-0.0793329,-0.0697152,15,32765
0.832726,-0.0841015,-0.0713778,15,32765
0.812615,-0.0848542,-0.0696905,16,32765
0.851949,-0.0919125,-0.0730452,15,32765
0.841738,-0.0936961,-0.0721029,16,32765
0.861216,-0.0988206,-0.0737684,15,32765
0.821303,-0.0970508,-0.0703077,15,32765
0.870437,-0.105828,-0.0744318,15,32765
0.889849,-0.111271,-0.0760743,15,32765
0.849936,-0.109244,-0.0726255,15,32765
0.889084,-0.117353,-0.075879,15,32765
0.92818,-0.125721,-0.0792182,14,32765
0.917895,-0.127476,-0.0782245,14,32765
0.976655,-0.138992,-0.0832201,15,32765
0.976186,-0.142321,-0.0831047,15,32765
0.975701,-0.14572,-0.0829038,14,32765
1.01459,-0.155153,-0.0861859,15,32765
0.994368,-0.155624,-0.0843388,14,32765
1.04303,-0.166949,-0.0883571,14,32765
3.69784,-0.604654,-0.313001,14,32765
3.75479,-0.627108,-0.317342,18,32765
3.75267,-0.63984,-0.317022,19,32765
3.7505,-0.65256,-0.316728,18,32765
3.79738,-0.674114,-0.319966,19,32765
3.7461,-0.678081,-0.315223,18,32765
3.734,-0.689055,-0.313934,19,32765
3.72188,-0.699867,-0.312765,17,32765
3.75866,-0.720011,-0.315674,18,32765
3.76603,-0.734701,-0.315796,18,32765
3.78314,-0.751357,-0.316586,18,32765
3.80011,-0.768147,-0.318162,17,32765
3.76824,-0.774979,-0.315198,18,32765
3.81437,-0.798066,-0.31904,18,32765
3.7337,-0.794347,-0.312054,17,32765
3.81874,-0.825823,-0.318862,17,32765
3.84516,-0.845169,-0.320874,18,32765
3.86179,-0.862467,-0.321956,17,32765
3.83946,-0.871122,-0.319645,17,32765
3.84617,-0.886545,-0.320317,17,32765
3.75587,-0.878969,-0.312623,17,32765
3.84014,-0.91255,-0.319631,17,32765
3.92429,-0.946451,-0.3266,17,32765
3.80499,-0.931075,-0.316356,18,32765
3.84057,-0.953368,-0.319349,17,32765
3.86648,-0.973206,-0.321282,17,32765
3.8536,-0.983516,-0.32027,18,32765
3.90824,-1.01127,-0.324773,18,32765
3.8374,-1.00653,-0.318848,17,32765
3.86295,-1.02701,-0.320837,17,32765
3.86917,-1.04238,-0.321522,17,32765
3.92336,-1.07108,-0.326271,18,32765
3.9102,-1.08144,-0.325175,18,32765
3.94495,-1.10526,-0.328454,18,32765
3.93171,-1.11561,-0.327266,17,32765
3.94717,-1.13408,-0.32884,18,32765
3.90508,-1.13614,-0.32547,18,32765
3.87262,-1.14053,-0.323244,18,32765
3.94531,-1.17601,-0.329307,18,32765
3.97966,-1.20023,-0.332615,18,32765
3.92814,-1.19834,-0.328826,18,32765
3.88616,-1.19918,-0.325788,17,32765
3.95838,-1.23546,-0.332315,18,32765
3.93533,-1.24223,-0.331061,18,32765
3.93124,-1.25499,-0.331591,18,32765
3.90822,-1.26129,-0.330708,18,32765
3.87572,-1.26437,-0.328987,17,32765
3.94737,-1.30151,-0.336469,17,32765
0.686759,0.0130961,-0.0655063,16,32765
0.637052,0.00997994,-0.0605432,17,32765
0.657012,0.00808243,-0.0622058,17,32765
0.647094,0.00575238,-0.0611257,16,32765
0.647128,0.00356711,-0.0609326,17,32765
0.637188,0.00136535,-0.0599152,16,32765
0.627251,-0.000787217,-0.0587846,17,32765
0.667079,-0.00306746,-0.0624211,16,32765
0.667077,-0.00528927,-0.0622913,16,32765
0.686985,-0.0077272,-0.0639697,17,32765
0.667054,-0.00977953,-0.0619992,16,32765
0.696889,-0.0125974,-0.0647023,16,32765
0.686898,-0.0147638,-0.0636657,16,32765
0.666944,-0.0166243,-0.0617197,16,32765
0.676846,-0.0191677,-0.0625507,16,32765
0.676782,-0.021474,-0.0624926,16,32765
0.686664,-0.0241302,-0.0633245,16,32765
0.756243,-0.0291395,-0.0696263,17,32765
0.706397,-0.0296108,-0.0650146,17,32765
0.746101,-0.0337911,-0.0684981,17,32765
0.726091,-0.0353459,-0.0666547,16,32765
0.745862,-0.0389156,-0.0683831,16,32765
0.725847,-0.0403667,-0.0664536,16,32765
0.755531,-0.0446198,-0.0691568,16,32765
0.74545,-0.0465349,-0.0681104,16,32765
0.765167,-0.0503435,-0.0698901,16,32765
0.725255,-0.0502154,-0.0662029,16,32765
0.784684,-0.0569868,-0.0715776,16,32765
0.744769,-0.0566894,-0.0678611,16,32765
0.744575,-0.0592461,-0.067812,16,32765
0.803925,-0.0667381,-0.0731504,16,32765
0.783852,-0.0677817,-0.071283,16,32765
0.803462,-0.0722079,-0.0730353,15,32765
0.803213,-0.0749316,-0.073034,16,32765
0.842623,-0.0814981,-0.0764501,16,32765
0.8027,-0.0804176,-0.0728442,15,32765
0.812326,-0.0842174,-0.0737116,15,32765
0.812038,-0.0870114,-0.0736407,15,32765
0.841433,-0.0931213,-0.0762847,15,32765
0.841124,-0.0959586,-0.076174,15,32765
0.870469,-0.102317,-0.0788383,15,32765
0.91956,-0.111262,-0.08325,15,32765
0.849995,-0.105747,-0.076984,15,32765
0.869393,-0.111139,-0.0787633,14,32765
0.918398,-0.120533,-0.0831636,14,32765
0.957461,-0.12901,-0.0867456,15,32765
0.947154,-0.130933,-0.0857658,15,32765
0.966421,-0.137022,-0.0874954,15,32765
0.985662,-0.143234,-0.0891858,15,32765
0.955616,-0.14219,-0.0864829,14,32765
1.00437,-0.152988,-0.0907772,14,32765
1.02352,-0.159506,-0.092549,14,32765
3.48204,-0.554912,-0.314729,14,32765
3.5391,-0.5766,-0.319819,16,32765
3.53714,-0.58853,-0.319747,16,32765
3.67264,-0.623927,-0.331685,17,32765
3.66076,-0.634599,-0.33018,16,32765
3.58994,-0.634737,-0.324136,15,32765
3.58777,-0.646998,-0.323892,15,32765
3.63458,-0.668189,-0.327829,16,32765
3.68121,-0.689937,-0.332036,15,32765
3.64953,-0.696913,-0.328831,17,32765
3.60809,-0.701449,-0.325223,17,32765
3.63505,-0.719378,-0.327551,17,32765
3.69127,-0.74335,-0.332253,16,32765
3.66927,-0.751862,-0.329781,15,32765
3.63745,-0.758276,-0.326903,17,32765
3.80055,-0.805783,-0.341387,16,32765
3.71023,-0.799732,-0.332773,16,32765
3.69786,-0.809936,-0.331379,16,32765
3.62708,-0.807299,-0.324791,16,32765
3.741,-0.84584,-0.334644,16,32765
3.63139,-0.833866,-0.324489,15,32765
3.66744,-0.855044,-0.32743,15,32765
3.67438,-0.869487,-0.327107,15,32765
3.77809,-0.907315,-0.335845,16,32765
3.8041,-0.927129,-0.337878,16,32765
3.64631,-0.901523,-0.323343,16,32765
3.65305,-0.916033,-0.323245,15,32765
3.74666,-0.952663,-0.330736,16,32765
3.79176,-0.977627,-0.334241,17,32765
3.80786,-0.995301,-0.334829,16,32765
3.68906,-0.977252,-0.32361,15,32765
3.81094,-1.02309,-0.334102,16,32765
3.8269,-1.04092,-0.334222,16,32765
3.80427,-1.04839,-0.33168,16,32765
3.81048,-1.06375,-0.331041,16,32765
3.83588,-1.08424,-0.332374,17,32765
3.83243,-1.09676,-0.331007,16,32765
3.71413,-1.0759,-0.319464,16,32765
3.88281,-1.13856,-0.333267,17,32765
3.78354,-1.12324,-0.32368,16,32765
3.95179,-1.18724,-0.336732,16,32765
3.80502,-1.15654,-0.322988,16,32765
3.85867,-1.18607,-0.326129,16,32765
3.893,-1.21042,-0.32787,16,32765
3.91772,-1.2321,-0.328317,17,32765
3.92338,-1.24787,-0.326798,16,32765
3.9765,-1.27878,-0.329059,16,32765
4.02953,-1.30983,-0.33121,16,32765
3.95926,-1.30078,-0.323425,16,32765
0.616505,0.0117444,-0.0646804,17,32765
0.616563,0.00964141,-0.0644711,16,32765
0.62656,0.00768439,-0.0652921,17,32765
0.626597,0.00554101,-0.0651589,17,32765
0.616685,0.00336508,-0.0639406,17,32765
0.616701,0.00128163,-0.0638631,17,32765
0.636616,-0.000845811,-0.0657258,17,32765
0.636619,-0.00297995,-0.0656344,17,32765
0.646565,-0.00518577,-0.066534,17,32765
0.656509,-0.00745024,-0.0673845,17,32765
0.666438,-0.00984343,-0.0682892,17,32765
0.666408,-0.0121255,-0.0682193,17,32765
0.696211,-0.015053,-0.0711602,17,32765
0.66633,-0.0167003,-0.0680098,17,32765
0.656334,-0.0186828,-0.0669072,17,32765
0.656272,-0.0209252,-0.0668507,16,32765
0.67609,-0.0238699,-0.0687906,16,32765
0.695899,-0.0269352,-0.0707012,16,32765
0.675927,-0.0284572,-0.0686513,16,32765
0.695721,-0.0316429,-0.0705031,16,32765
0.695612,-0.0340021,-0.070487,16,32765
0.705433,-0.0369548,-0.0714012,16,32765
0.735115,-0.0410437,-0.0743108,16,32765
0.744904,-0.044163,-0.0752874,16,32765
0.724904,-0.0454251,-0.073147,16,32765
0.714823,-0.0472081,-0.0721106,16,32765
0.754365,-0.0524248,-0.0760577,16,32765
0.744267,-0.0542497,-0.0749936,16,32765
0.763925,-0.0583581,-0.0768985,16,32765
0.733969,-0.0586115,-0.0738538,16,32765
0.773435,-0.0644348,-0.0777625,16,32765
0.773214,-0.0670969,-0.0777019,16,32765
0.772988,-0.0697114,-0.0776512,16,32765
0.782654,-0.0732664,-0.0786453,15,32765
0.802225,-0.0778574,-0.0804547,16,32765
0.801953,-0.0806171,-0.0804462,15,32765
0.821467,-0.0854539,-0.0823999,15,32765
0.821174,-0.088287,-0.082328,16,32765
0.830757,-0.092248,-0.08327,16,32765
0.830451,-0.095057,-0.0831604,16,32765
0.849888,-0.100229,-0.0851165,15,32765
0.819912,-0.0995325,-0.0820866,15,32765
0.83932,-0.104763,-0.0840644,15,32765
0.868572,-0.111398,-0.08702,15,32765
0.8682,-0.114317,-0.0869489,15,32765
0.907246,-0.122642,-0.0909055,15,32765
0.89697,-0.124398,-0.089836,15,32765
0.91624,-0.130327,-0.0917558,14,32765
0.896096,-0.130638,-0.0896956,15,32765
0.944859,-0.141042,-0.0945965,15,32765
0.924706,-0.141306,-0.0924746,15,32765
0.95371,-0.149103,-0.0954179,15,32765
0.982679,-0.157104,-0.0982857,15,32765
0.942848,-0.154101,-0.0942886,14,32765
1.03067,-0.172033,-0.103107,12,32765
3.5023,-0.596876,-0.350088,17,32765
3.51012,-0.610412,-0.350473,18,32765
3.51783,-0.623956,-0.3516,18,32765
3.55487,-0.64309,-0.355274,17,32765
3.62122,-0.667831,-0.361637,17,32765
3.58956,-0.674877,-0.358497,19,32765
3.55795,-0.681561,-0.355022,19,32765
3.61428,-0.704859,-0.360791,18,32765
3.58263,-0.711227,-0.357552,18,32765
3.65832,-0.739023,-0.364767,18,32765
3.62661,-0.745445,-0.361141,18,32765
3.56561,-0.745624,-0.355073,17,32765
3.62149,-0.770218,-0.360496,17,32765
3.61893,-0.782487,-0.359775,18,32765
3.61635,-0.794553,-0.359264,17,32765
3.59426,-0.802487,-0.356851,17,32765
3.59159,-0.814587,-0.356276,17,32765
3.58889,-0.826671,-0.355687,17,32765
3.6443,-0.852293,-0.360926,17,32765
3.6222,-0.8598,-0.357831,18,32765
3.6097,-0.869566,-0.35615,17,32765
3.64547,-0.891225,-0.359439,18,32765
3.58458,-0.889008,-0.35295,16,32765
3.64927,-0.917923,-0.358653,17,32765
3.67525,-0.937402,-0.360456,18,32765
3.64324,-0.942245,-0.356887,17,32765
3.6787,-0.964519,-0.359586,17,32765
3.69483,-0.98181,-0.360417,17,32765
3.68197,-0.991523,-0.359,17,32765
3.71723,-1.01422,-0.361223,18,32765
3.75228,-1.03726,-0.364104,18,32765
3.7777,-1.05786,-0.36543,19,32765
3.74561,-1.062,-0.361504,18,32765
3.77095,-1.0825,-0.362929,18,32765
3.72932,-1.08364,-0.357622,19,32765
3.70672,-1.09029,-0.354814,17,32765
3.84632,-1.1454,-0.367126,18,32765
3.77595,-1.13791,-0.359159,17,32765
3.75333,-1.14435,-0.35582,17,32765
3.84503,-1.18553,-0.363137,19,32765
3.82227,-1.1921,-0.359882,18,32765
3.81853,-1.20461,-0.357971,17,32765
3.88121,-1.23826,-0.36191,19,32765
3.84899,-1.24158,-0.356845,18,32765
3.77896,-1.23217,-0.348287,17,32765
3.90771,-1.2878,-0.358204,19,32765
0.59684,0.0113041,-0.0604464,15,32765
0.606797,0.00941003,-0.0617132,17,32765
0.626694,0.00757844,-0.06401,17,32765
0.626702,0.00544939,-0.0641426,17,32765
0.616746,0.0032555,-0.0633561,17,32765
0.64658,0.00120532,-0.0665817,17,32765
0.646552,-0.00100316,-0.0668535,17,32765
0.626637,-0.0030888,-0.0649331,17,32765
0.656451,-0.00542957,-0.0681333,17,32765
0.666359,-0.00775211,-0.0693187,17,32765
0.626535,-0.00939219,-0.0653154,16,32765
0.646383,-0.0118595,-0.067445,17,32765
0.646321,-0.0140238,-0.0676209,17,32765
0.666142,-0.0167112,-0.0698211,17,32765
0.666071,-0.019005,-0.0699128,16,32765
0.675938,-0.0216208,-0.0709974,16,32765
0.665909,-0.0235865,-0.0700606,17,32765
0.665818,-0.0258602,-0.0701269,16,32765
0.635913,-0.02683,-0.0670481,16,32765
0.685483,-0.0312639,-0.0723557,16,32765
0.725098,-0.0354884,-0.0766343,16,32765
0.724972,-0.0379314,-0.0766589,16,32765
0.68511,-0.0381823,-0.072568,16,32765
0.704835,-0.0416748,-0.0746401,16,32765
0.724526,-0.0453568,-0.0768453,16,32765
0.714444,-0.0471756,-0.0757951,16,32765
0.734111,-0.0509981,-0.077974,16,32765
0.733935,-0.0535071,-0.0779523,16,32765
0.753578,-0.0574786,-0.0801006,16,32765
0.773206,-0.0615855,-0.0822193,16,32765
0.772992,-0.064155,-0.0822691,16,32765
0.762868,-0.0658908,-0.0811806,15,32765
0.752731,-0.0675981,-0.0801685,16,32765
0.772306,-0.0720198,-0.0822008,16,32765
0.791838,-0.0766245,-0.0843905,16,32765
0.771787,-0.07733,-0.0822461,15,32765
0.801199,-0.0830158,-0.0853761,15,32765
0.8108,-0.0867913,-0.0864296,16,32765
0.780861,-0.0862292,-0.083188,15,32765
0.810202,-0.0922679,-0.0863706,15,32765
0.829642,-0.0973494,-0.0884178,15,32765
0.799693,-0.0966113,-0.0851875,15,32765
0.838827,-0.104284,-0.0894109,14,32765
0.838478,-0.107147,-0.0893021,15,32765
0.838111,-0.110007,-0.0892659,15,32765
0.877162,-0.118141,-0.093427,15,32765
0.896466,-0.123833,-0.0954637,15,32765
0.876345,-0.124084,-0.0933936,15,32765
0.91531,-0.13277,-0.0973685,15,32765
0.924677,-0.137373,-0.098494,15,32765
0.924209,-0.140565,-0.0983789,14,32765
0.972867,-0.151389,-0.103492,14,32765
1.00181,-0.159478,-0.106542,14,32765
3.38663,-0.55102,-0.359998,13,32765
3.47302,-0.577411,-0.369206,16,32765
3.43184,-0.582532,-0.364846,17,32765
3.4397,-0.595954,-0.365197,15,32765
3.52578,-0.623367,-0.374513,16,32765
3.55307,-0.640611,-0.377096,17,32765
3.42371,-0.629425,-0.363388,17,32765
3.43139,-0.642736,-0.364096,16,32765
3.49762,-0.667374,-0.371025,17,32765
3.38796,-0.658409,-0.359334,16,32765
3.46381,-0.685269,-0.367315,16,32765
3.45175,-0.695209,-0.365674,16,32765
3.45913,-0.708974,-0.366475,16,32765
3.42752,-0.7146,-0.363142,15,32765
3.52241,-0.746895,-0.373017,16,32765
3.51992,-0.75879,-0.372531,16,32765
3.52708,-0.772877,-0.373163,16,32765
3.45652,-0.769684,-0.365626,16,32765
3.54121,-0.801198,-0.374708,17,32765
3.53848,-0.813307,-0.374413,16,32765
3.55513,-0.829774,-0.376075,16,32765
3.44583,-0.816727,-0.364473,15,32765
3.53014,-0.849267,-0.373342,16,32765
3.5563,-0.868154,-0.376072,16,32765
3.57268,-0.885007,-0.37774,16,32765
3.57938,-0.899291,-0.378675,16,32765
3.53779,-0.90156,-0.374321,16,32765
3.62152,-0.935679,-0.383016,16,32765
3.50292,-0.91752,-0.370513,16,32765
3.58639,-0.952216,-0.379434,17,32765
3.59287,-0.966637,-0.380126,16,32765
3.53205,-0.962986,-0.373783,15,32765
3.57683,-0.987899,-0.378453,16,32765
3.55436,-0.994478,-0.376388,16,32765
3.56064,-1.00896,-0.377171,16,32765
3.63383,-1.04267,-0.38485,15,32765
3.63038,-1.05461,-0.384835,16,32765
3.56963,-1.04973,-0.378675,15,32765
3.59478,-1.07,-0.381514,16,32765
3.57216,-1.07622,-0.379337,15,32765
3.63529,-1.10814,-0.386149,16,32765
3.64111,-1.12294,-0.387593,16,32765
3.57106,-1.11386,-0.380049,16,32765
3.64336,-1.14923,-0.388335,15,32765
3.6396,-1.16096,-0.388658,16,32765
3.65485,-1.1787,-0.390284,17,32765
3.57528,-1.16576,-0.383142,16,32765
3.66607,-1.20817,-0.393266,16,32765
0.606181,0.0114668,-0.0671762,17,32765
0.606189,0.0093805,-0.0674352,17,32765
0.606188,0.0073045,-0.0676997,16,32765
0.636007,0.00549703,-0.0711637,17,32765
0.616121,0.00321401,-0.0691712,17,32765
0.635986,0.00114004,-0.0715599,17,32765
0.626019,-0.00102221,-0.0707048,17,32765
0.61606,-0.00309261,-0.0697168,17,32765
0.635907,-0.00532334,-0.0720705,17,32765
0.625933,-0.00735044,-0.0710881,17,32765
0.62589,-0.00945708,-0.071223,17,32765
0.625848,-0.0115632,-0.0712772,17,32765
0.635719,-0.0138815,-0.0725816,17,32765
0.625723,-0.0157896,-0.0715597,17,32765
0.635586,-0.0182351,-0.072783,17,32765
0.625585,-0.0201146,-0.0716837,17,32765
0.645358,-0.0229726,-0.0740633,17,32765
0.645268,-0.0251822,-0.0741274,16,32765
0.665024,-0.0281884,-0.0764721,16,32765
0.664916,-0.0304625,-0.0765394,17,32765
0.664802,-0.0326802,-0.0766163,16,32765
0.684527,-0.0359689,-0.0789265,16,32765
0.66455,-0.0371921,-0.0767449,16,32765
0.664424,-0.0394473,-0.0767151,16,32765
0.70393,-0.0442459,-0.0813948,16,32765
0.723598,-0.0479706,-0.0836899,16,32765
0.743241,-0.0518353,-0.086057,16,32765
0.703432,-0.0514822,-0.0814462,16,32765
0.72306,-0.0553622,-0.0837801,16,32765
0.742673,-0.0593779,-0.0860856,16,32765
0.732566,-0.0610281,-0.0849848,16,32765
0.752154,-0.0652069,-0.0872482,16,32765
0.742029,-0.0668826,-0.0861414,16,32765
0.761585,-0.0712795,-0.088362,16,32765
0.761322,-0.0739387,-0.0884405,16,32765
0.770954,-0.0775246,-0.0895543,15,32765
0.77069,-0.0801402,-0.089522,15,32765
0.760536,-0.0817,-0.0883735,15,32765
0.799761,-0.0886281,-0.0928826,15,32765
