x, y, z, intensity, ring
1.64892,0.105608,0.159667,12,32765
1.63936,0.0995991,0.158372,12,32765
1.55028,0.0891014,0.149359,12,32765
1.10329,0.0597909,0.106153,13,32765
0.994151,0.0506018,0.0954084,13,32765
0.944607,0.0450266,0.0904958,14,32765
0.904993,0.040165,0.0864536,16,32765
0.915087,0.0375959,0.0871915,17,32765
0.895327,0.0338219,0.0851259,18,32765
0.905401,0.0311925,0.0858815,19,32765
0.88562,0.0276035,0.0837622,20,32765
0.885721,0.0247195,0.0835941,20,32765
0.895761,0.0220695,0.0844091,20,32765
0.8859,0.0189485,0.0831956,19,32765
0.905883,0.0164287,0.0848878,19,32765
0.886042,0.0132338,0.0827882,19,32765
0.896062,0.010503,0.0834411,19,32765
0.906077,0.00775608,0.0840497,19,32765
0.876238,0.00472642,0.0811489,19,32765
0.886238,0.0018517,0.0817196,15,32765
0.916137,-0.0010771,0.0842182,15,32765
0.955993,-0.0042244,0.0875168,14,32765
0.975924,-0.00733534,0.0889843,13,32765
1.00581,-0.0106836,0.0912958,13,32765
0.985894,-0.0136427,0.0890294,13,32765
0,0,0,0,32765
0,0,0,0,32765
0,0,0,0,32765
0,0,0,0,32765
0,0,0,0,32765
0,0,0,0,32765
0,0,0,0,32765
0,0,0,0,32765
0,0,0,0,32765
1.25967,0.371303,0.133326,12,32765
1.15581,0.336528,0.122274,13,32765
1.18562,0.341003,0.124979,13,32765
1.17717,0.334395,0.123919,14,32765
1.21658,0.341313,0.127861,13,32765
1.15059,0.318744,0.1206,13,32765
1.2188,0.333377,0.12761,13,32765
1.04701,0.282721,0.109258,15,32765
1.0095,0.268989,0.105154,18,32765
1.14513,0.301023,0.118961,15,32765
1.28098,0.332162,0.132876,15,32765
1.25319,0.320485,0.129651,15,32765
1.03232,0.260458,0.106623,16,32765
1.08147,0.269114,0.111343,15,32765
1.40125,0.343884,0.143978,12,32765
0,0,0,0,32765
0,0,0,11,32765
1.09467,0.257175,0.111666,13,32765
1.00828,0.233322,0.102585,15,32765
0.979967,0.223335,0.0994256,15,32765
1.00013,0.224445,0.101286,13,32765
1.14667,0.253318,0.115695,11,32765
1.32255,0.287628,0.133155,11,32765
0,0,0,0,32765
0,0,0,11,32765
0,0,0,11,32765
0,0,0,12,32765
0,0,0,12,32765
1.16217,0.228453,0.115211,12,32765
1.02614,0.198138,0.101403,17,32765
1.17349,0.222559,0.115698,12,32765
0,0,0,0,32765
1.66455,0.304352,0.163229,12,32765
1.51863,0.272459,0.148418,12,32765
1.54897,0.272632,0.150917,13,32765
1.47141,0.253956,0.143023,12,32765
1.4821,0.250682,0.143708,12,32765
1.47312,0.244144,0.142547,13,32765
1.49361,0.242413,0.144133,13,32765
1.44527,0.229602,0.139241,14,32765
1.48541,0.230865,0.142684,13,32765
1.48619,0.225884,0.142508,13,32765
1.50665,0.223819,0.144274,13,32765
1.52713,0.221656,0.145703,12,32765
1.58702,0.225049,0.151013,12,32765
1.58779,0.219762,0.150788,12,32765
1.5688,0.211801,0.148698,12,32765
1.60901,0.211741,0.152139,12,32765
1.511,0.193667,0.142394,12,32765
1.56104,0.194863,0.146925,11,32765
1.67041,0.202977,0.156984,11,32765
1.73042,0.20453,0.162224,11,32765
1.70143,0.195477,0.159093,12,32765
1.70209,0.189834,0.158859,12,32765
1.69284,0.183137,0.157672,12,32765
1.71326,0.179594,0.159379,12,32765
1.69406,0.171893,0.157221,11,32765
0,0,0,11,32765
1.6357,0.155013,0.151545,11,32765
1.72546,0.157829,0.159661,12,32765
1.65657,0.145995,0.152883,12,32765
1.65705,0.140547,0.152743,12,32765
1.72699,0.140845,0.158987,11,32765
0,0,0,11,32765
1.44984,0.108672,0.133237,12,32765
1.05289,0.0754451,0.0966383,12,32765
1.03327,0.0706063,0.0946988,13,32765
0.953994,0.0620635,0.0874268,14,32765
0.974075,0.0601619,0.0892139,15,32765
0.974267,0.0569942,0.0891929,16,32765
0.984394,0.0543434,0.0900885,16,32765
0.984567,0.0510969,0.0900915,18,32765
0.98473,0.0478868,0.0900745,18,32765
0.97493,0.0441973,0.0892066,19,32765
0.994974,0.0418561,0.0909681,19,32765
0.985153,0.0382159,0.0900751,20,32765
0.965362,0.0343191,0.0883108,20,32765
0.975413,0.0315239,0.0893118,20,32765
0.985455,0.0286241,0.0903223,20,32765
0.985547,0.0253857,0.0902959,20,32765
0.985613,0.0221497,0.0904201,20,32765
0.985668,0.0189097,0.0905558,20,32765
0.985714,0.0157041,0.0906757,19,32765
0.995715,0.0126165,0.0916068,19,32765
0.995728,0.00938853,0.0918555,19,32765
0.965875,0.00598944,0.0891632,19,32765
0.975827,0.00287648,0.0902922,18,32765
0.995718,-0.000255391,0.0924418,16,32765
0.985744,-0.00346738,0.0916373,16,32765
0.965788,-0.00648878,0.0900618,15,32765
0.995606,-0.00988491,0.0931146,15,32765
0.995532,-0.0131059,0.0935117,15,32765
0,0,0,0,32765
0,0,0,0,32765
0,0,0,0,32765
0,0,0,0,32765
0,0,0,0,32765
0,0,0,0,32765
0,0,0,0,32765
0,0,0,0,32765
0,0,0,0,32765
1.11739,0.329925,0.107203,13,32765
1.08024,0.315057,0.103592,13,32765
1.11956,0.322549,0.10695,14,32765
1.08231,0.307968,0.103246,15,32765
1.12166,0.315214,0.106818,13,32765
1.07473,0.298228,0.102054,13,32765
1.20056,0.328935,0.113875,12,32765
1.14397,0.309418,0.108118,13,32765
1.18349,0.315875,0.111641,12,32765
1.18457,0.311904,0.11142,14,32765
0,0,0,0,32765
0,0,0,11,32765
1.17799,0.297696,0.110123,14,32765
0.995365,0.248092,0.092731,16,32765
0.996174,0.24487,0.0926091,16,32765
1.28737,0.311998,0.119304,13,32765
0,0,0,11,32765
0,0,0,11,32765
1.45543,0.337334,0.133881,12,32765
1.48571,0.339135,0.136255,12,32765
1.45768,0.327647,0.133425,13,32765
1.40046,0.309876,0.127671,12,32765
1.20683,0.262877,0.109767,13,32765
0.983713,0.210842,0.0891912,14,32765
0.935681,0.197315,0.0846586,15,32765
0.965607,0.200293,0.087097,16,32765
0.985809,0.20103,0.0887017,15,32765
1.02556,0.205553,0.092063,15,32765
1.24131,0.244386,0.111033,13,32765
0.987852,0.191038,0.0880566,12,32765
1.39955,0.265838,0.124446,12,32765
1.40044,0.261171,0.124297,14,32765
1.39152,0.254816,0.12301,14,32765
1.36298,0.244901,0.120044,14,32765
1.37362,0.242132,0.120576,14,32765
1.42352,0.246057,0.124638,14,32765
1.44401,0.244603,0.126095,13,32765
1.39569,0.231652,0.121608,13,32765
1.46532,0.238171,0.127294,13,32765
1.43661,0.228558,0.12458,13,32765
1.44724,0.225258,0.125096,13,32765
1.45786,0.221895,0.125775,13,32765
1.46846,0.218456,0.126506,13,32765
1.41992,0.206385,0.121835,13,32765
1.4798,0.210138,0.126604,13,32765
1.43116,0.198359,0.122181,12,32765
1.49108,0.201585,0.12703,12,32765
1.52141,0.200486,0.129271,13,32765
1.48258,0.190281,0.125509,12,32765
1.56231,0.195282,0.132081,12,32765
1.61242,0.196189,0.136096,12,32765
1.2865,0.152258,0.108295,12,32765
0.970212,0.111611,0.081438,13,32765
0.921069,0.102856,0.0771562,14,32765
0.951139,0.103026,0.079497,14,32765
0.951483,0.099863,0.0794207,15,32765
0.902251,0.09166,0.0751161,15,32765
0.892632,0.0876938,0.0742855,17,32765
0.892926,0.0847192,0.0742038,19,32765
0.913054,0.0836124,0.0757733,19,32765
0.903415,0.079707,0.0747559,20,32765
0.903679,0.0767301,0.0746798,20,32765
0.90393,0.0737967,0.0745966,20,32765
0.914115,0.0715774,0.0753069,17,32765
0.954097,0.0715826,0.078586,13,32765
0.894688,0.0641684,0.0735932,19,32765
0.914791,0.062565,0.0751258,19,32765
0.895098,0.0582798,0.0735044,19,32765
0.895287,0.0553381,0.0734728,20,32765
0.905414,0.0530035,0.0742697,21,32765
0.895633,0.0494746,0.0734403,21,32765
0.895791,0.0465151,0.073443,21,32765
0.885985,0.0431046,0.0726116,21,32765
0.876163,0.0397338,0.0718334,21,32765
0.896208,0.03771,0.0734129,21,32765
0.906285,0.0351597,0.0742439,21,32765
0.876509,0.031158,0.0718466,21,32765
0.886559,0.0286444,0.0727454,21,32765
0.896603,0.0260296,0.0736529,21,32765
0.896686,0.0230776,0.0736289,20,32765
0.896748,0.0201277,0.0737419,20,32765
0.896799,0.0171742,0.0738654,19,32765
0.896842,0.014252,0.0739745,19,32765
0.906848,0.0114482,0.0748103,20,32765
0.88693,0.00831578,0.0733876,20,32765
0.886948,0.00544763,0.0734459,21,32765
0.906876,0.00261393,0.0752914,17,32765
0.926788,-0.000304153,0.0772318,13,32765
0.906842,-0.00326052,0.0756813,16,32765
0.986524,-0.00671117,0.0826164,13,32765
0,-0,0,12,32765
0.976441,-0.0129492,0.0824337,12,32765
0,0,0,0,32765
0,0,0,0,32765
0,0,0,0,32765
0,0,0,0,32765
0,0,0,0,32765
0,0,0,0,32765
0,0,0,0,32765
0,0,0,0,32765
1.2409,0.369114,0.118012,13,32765
1.15614,0.33982,0.109345,13,32765
1.19557,0.347106,0.112345,13,32765
1.15845,0.332209,0.108268,14,32765
1.17874,0.333857,0.109555,14,32765
1.15109,0.321985,0.106404,13,32765
1.18096,0.326224,0.108637,12,32765
1.20131,0.32759,0.109709,12,32765
1.2024,0.323675,0.109383,13,32765
1.29016,0.342745,0.116724,13,32765
1.22386,0.32079,0.110229,15,32765
1.29248,0.334216,0.115715,12,32765
0,0,0,0,32765
0,0,0,11,32765
1.14109,0.283127,0.100753,13,32765
1.0259,0.250986,0.0901598,16,32765
1.30764,0.315405,0.114463,14,32765
1.46383,0.347937,0.127427,12,32765
0,0,0,11,32765
1.61178,0.371924,0.139377,12,32765
1.4673,0.333458,0.126231,12,32765
1.50731,0.337326,0.129317,12,32765
1.51821,0.334444,0.129549,13,32765
1.49012,0.323082,0.126674,13,32765
1.47173,0.31398,0.12459,13,32765
1.54107,0.323372,0.130177,13,32765
1.47384,0.304176,0.123938,13,32765
1.2893,0.261566,0.108136,14,32765
1.0947,0.218308,0.0914676,14,32765
1.10522,0.216614,0.0920429,12,32765
1.00808,0.194083,0.0837092,12,32765
0.979349,0.185192,0.081117,14,32765
1.33278,0.2474,0.109998,13,32765
1.5101,0.275181,0.124355,13,32765
1.53065,0.273652,0.125844,12,32765
1.4825,0.259957,0.121326,13,32765
1.49319,0.256744,0.121884,12,32765
1.50389,0.253401,0.122433,12,32765
1.47525,0.243589,0.119567,12,32765
1.5056,0.243458,0.12169,13,32765
1.48671,0.23535,0.12,13,32765
1.51705,0.234995,0.122212,12,32765
1.49815,0.226854,0.120295,12,32765
1.45949,0.21592,0.116937,12,32765
1.54903,0.223822,0.123785,12,32765
1.4708,0.207435,0.117497,12,32765
1.52088,0.209356,0.121173,12,32765
1.36351,0.18305,0.108272,12,32765
1.13676,0.148787,0.0901755,12,32765
1.02848,0.13118,0.0814109,13,32765
0.98934,0.122871,0.0781651,14,32765
0.940273,0.113618,0.074009,15,32765
0.98026,0.11513,0.0770413,15,32765
1.00046,0.114125,0.0784608,18,32765
0.990929,0.109738,0.0775697,18,32765
0.991295,0.10644,0.0774891,19,32765
0.991651,0.103161,0.0773681,20,32765
0.992005,0.099854,0.0771761,20,32765
1.00228,0.0974905,0.0776983,20,32765
0.972825,0.0913314,0.0752938,20,32765
0.993002,0.0898497,0.0766422,19,32765
0.983371,0.0857064,0.0757416,19,32765
0.993596,0.0832879,0.0763562,19,32765
0.974006,0.0784303,0.0745758,19,32765
0.97426,0.075273,0.0745124,20,32765
0.954624,0.070607,0.0728594,19,32765
1.12395,0.0794489,0.0855915,12,32765
0.965051,0.0650002,0.073154,19,32765
0.965273,0.0618082,0.0729856,21,32765
0.965484,0.0586229,0.0728327,20,32765
0.985595,0.0565474,0.0741917,20,32765
0.99575,0.0538657,0.0747093,20,32765
0.995934,0.0506059,0.0745276,20,32765
0.976186,0.0464006,0.0728495,20,32765
0.986306,0.0436728,0.0734445,21,32765
0.986455,0.0404915,0.0732536,22,32765
0.996563,0.037673,0.0737771,23,32765
0.996694,0.0343946,0.0736095,23,32765
0.986859,0.0307968,0.0725384,22,32765
0.986968,0.027554,0.0723503,22,32765
0.997045,0.0245738,0.0727794,22,32765
0.987158,0.0211459,0.0719157,21,32765
0.997213,0.01814,0.0723752,21,32765
0.977338,0.0146285,0.0706868,21,32765
0.997351,0.011703,0.0717954,20,32765
0.997393,0.00848526,0.0716555,19,32765
0.987462,0.00522999,0.0706452,19,32765
0.997475,0.00207616,0.0709846,19,32765
0,-0,0,0,32765
0,-0,0,0,32765
1.10725,-0.00831844,0.0777049,12,32765
0,-0,0,0,32765
0,-0,0,11,32765
0,0,0,0,32765
0,0,0,0,32765
0,0,0,0,32765
0,0,0,0,32765
0,0,0,0,32765
0,0,0,0,32765
0,0,0,0,32765
0,0,0,0,32765
1.12711,0.335866,0.0960428,13,32765
1.08043,0.318132,0.0915087,13,32765
1.11023,0.322904,0.0933672,13,32765
1.04426,0.299995,0.0872978,15,32765
1.08363,0.307464,0.0900392,13,32765
1.05587,0.295873,0.0872087,13,32765
1.04724,0.289798,0.0860371,12,32765
1.15402,0.315252,0.0940524,13,32765
1.13582,0.306292,0.0921764,12,32765
1.31028,0.348705,0.105694,12,32765
1.23432,0.3241,0.0990757,16,32765
1.22578,0.317524,0.0977419,15,32765
1.2172,0.310981,0.0965723,15,32765
1.25691,0.316756,0.0992628,15,32765
1.20958,0.300646,0.0949878,15,32765
1.21059,0.296686,0.0945775,14,32765
0.978955,0.236537,0.0761462,13,32765
1.12528,0.26793,0.0869923,11,32765
0,0,0,11,32765
0,0,0,11,32765
0,0,0,0,32765
1.43046,0.320678,0.108829,13,32765
1.45105,0.320197,0.109733,13,32765
1.4034,0.304798,0.105689,13,32765
1.47271,0.314724,0.110398,13,32765
1.46401,0.307725,0.109487,13,32765
1.45529,0.300855,0.108292,13,32765
1.45631,0.295947,0.108057,11,32765
1.0074,0.201237,0.0744355,11,32765
1.35063,0.265157,0.0994339,13,32765
0.9304,0.179427,0.0682768,17,32765
1.0584,0.200474,0.0774532,14,32765
0.961022,0.178688,0.0700497,14,32765
0.94199,0.171939,0.0684947,15,32765
1.51203,0.270769,0.109752,13,32765
1.35577,0.238125,0.0979057,13,32765
1.22877,0.211624,0.0884803,13,32765
1.08195,0.182602,0.0776802,13,32765
1.04321,0.17253,0.0745265,14,32765
0.925624,0.149917,0.0659247,14,32765
0.945825,0.149966,0.0672638,16,32765
0.916754,0.142234,0.0650573,16,32765
0.92711,0.140607,0.0655526,17,32765
0.907856,0.134522,0.0640382,18,32765
0.91819,0.132879,0.0645784,18,32765
0.898879,0.126971,0.0632013,19,32765
0.889425,0.122622,0.0623507,19,32765
0.909619,0.122303,0.0635283,19,32765
0.910021,0.119291,0.0634871,19,32765
0.890626,0.113769,0.0619864,18,32765
0.900904,0.112056,0.0625706,19,32765
0.881479,0.106672,0.0609629,18,32765
0.901652,0.106053,0.0622557,19,32765
0.892098,0.101912,0.0614494,20,32765
0.882519,0.0978735,0.0606648,20,32765
0.882846,0.0949304,0.0605929,20,32765
0.883163,0.092004,0.060485,20,32765
0.893404,0.090054,0.0609916,20,32765
0.893717,0.0870502,0.0607689,20,32765
0.903944,0.0849792,0.0613544,19,32765
0.8943,0.0810264,0.0605105,19,32765
0.904511,0.0789362,0.0610594,20,32765
0.894835,0.0751053,0.0602529,20,32765
0.895092,0.0721663,0.06002,21,32765
0.905274,0.0700287,0.0606279,22,32765
0.895557,0.0663172,0.0598375,22,32765
0.90573,0.0640978,0.0603652,21,32765
0.975647,0.0657877,0.0646868,14,32765
0.88625,0.0568096,0.0585915,21,32765
0.906363,0.05509,0.0597646,22,32765
0.896588,0.0514913,0.058978,22,32765
0.896766,0.0485561,0.0587692,22,32765
0.916862,0.0466282,0.0599079,21,32765
0.887119,0.0422002,0.0577839,20,32765
0.907199,0.0401983,0.0589459,21,32765
0.887394,0.0364474,0.0574787,20,32765
0.88752,0.0335676,0.0572859,19,32765
0.897609,0.0309865,0.0577786,18,32765
0.907701,0.0283322,0.0581125,17,32765
0.867897,0.0242297,0.0553927,16,32765
0.877965,0.0216334,0.0557637,14,32765
0.878038,0.0187974,0.0556428,13,32765
1.05772,0.0192209,0.0667411,12,32765
1.15759,0.0172977,0.0727521,12,32765
0,0,0,12,32765
0,0,0,0,32765
0,0,0,12,32765
0,0,0,11,32765
0,-0,0,0,32765
0,-0,0,0,32765
0,-0,0,11,32765
1.28759,-0.013949,0.0775801,12,32765
1.27759,-0.0179614,0.0764802,13,32765
0,0,0,0,32765
1.50879,0.488562,0.113782,12,32765
1.48185,0.474621,0.111658,12,32765
1.68304,0.533105,0.126852,12,32765
1.57055,0.491843,0.118194,12,32765
1.54358,0.477807,0.116006,11,32765
1.61192,0.493179,0.120756,12,32765
1.50846,0.456285,0.112924,12,32765
1.61506,0.482844,0.120633,12,32765
1.10006,0.325026,0.0820685,12,32765
1.11072,0.324184,0.0825601,13,32765
1.15013,0.33155,0.0852485,13,32765
1.15123,0.327773,0.0850589,15,32765
1.08507,0.305133,0.0800766,13,32765
1.16296,0.322914,0.0856986,13,32765
1.11593,0.305879,0.0820366,12,32765
1.17473,0.317806,0.0860123,13,32765
1.1758,0.313909,0.0858292,13,32765
1.33117,0.350718,0.0968764,13,32765
1.34196,0.348898,0.0975338,15,32765
1.34313,0.344479,0.0971508,14,32765
1.27656,0.322968,0.0920564,14,32765
1.34538,0.335719,0.0967333,15,32765
1.31742,0.324163,0.0944472,14,32765
1.3185,0.319821,0.094249,15,32765
1.0673,0.255101,0.0760515,16,32765
1.02934,0.242359,0.0730086,15,32765
1.28283,0.297516,0.0907082,13,32765
1.3811,0.315413,0.0974111,11,32765
1.08042,0.242964,0.0758986,12,32765
1.05202,0.23286,0.0736402,11,32765
1.48173,0.322783,0.103389,11,32765
1.56087,0.334545,0.108465,12,32765
1.57177,0.331377,0.108797,12,32765
1.59241,0.330206,0.11002,12,32765
0,0,0,0,32765
1.19353,0.239145,0.0817988,11,32765
1.48803,0.293,0.10157,12,32765
1.36166,0.263435,0.0926071,12,32765
0.990043,0.188166,0.0671514,16,32765
1.02012,0.19032,0.0688561,13,32765
1.02076,0.186924,0.0686046,14,32765
0.962472,0.172895,0.0644636,17,32765
0.982706,0.17315,0.0656366,15,32765
0.993127,0.171566,0.0660552,15,32765
0.983869,0.166556,0.0652811,16,32765
0.984436,0.163264,0.0650373,17,32765
0.984987,0.159984,0.0648532,18,32765
0.965821,0.15353,0.0633831,19,32765
0.986055,0.15341,0.0645088,19,32765
0.986571,0.150115,0.0643601,19,32765
0.977205,0.145401,0.0634808,18,32765
0.99745,0.145004,0.0645611,18,32765
0.978185,0.138857,0.0630255,18,32765
0.988544,0.136923,0.0635088,18,32765
0.969237,0.130908,0.0619846,18,32765
0.969676,0.12769,0.0618421,19,32765
0.950306,0.121942,0.0603974,19,32765
0.970517,0.121325,0.0614502,19,32765
0.970913,0.118132,0.0614261,18,32765
0.97132,0.11486,0.0611914,18,32765
0.981623,0.112754,0.061665,18,32765
0.97209,0.108368,0.0608088,19,32765
0.982371,0.106235,0.0613329,19,32765
0.962862,0.100938,0.060072,19,32765
0.973137,0.0987502,0.0604312,20,32765
0.983393,0.0965324,0.060992,20,32765
0.96384,0.0914042,0.0596456,20,32765
0.98402,0.0900425,0.0608003,22,32765
0.984315,0.0868299,0.0606982,22,32765
0.99455,0.08439,0.0612278,22,32765
0.994825,0.0811042,0.061206,21,32765
0.985139,0.0770424,0.0605423,21,32765
0.985403,0.0737498,0.060349,21,32765
0.985633,0.0705605,0.060402,21,32765
0.995832,0.0679685,0.0608229,19,32765
0,0,0,0,32765
0.976332,0.0602271,0.0595726,19,32765
0.986488,0.0576041,0.0601876,20,32765
0.986673,0.0543714,0.0601684,20,32765
0.976879,0.0506157,0.0595483,19,32765
0.987007,0.0479207,0.0601765,19,32765
0.987159,0.0447161,0.0601411,19,32765
0.987301,0.0414936,0.06012,17,32765
0.97745,0.037918,0.0596142,15,32765
0.957622,0.0339412,0.0583782,15,32765
0.937782,0.0301143,0.0570865,13,32765
0.957815,0.027619,0.0585378,12,32765
0.898033,0.0229706,0.0548531,11,32765
0,0,0,12,32765
0,0,0,11,32765
0,0,0,11,32765
1.43717,0.0179738,0.088402,11,32765
0,0,0,12,32765
0,0,0,0,32765
0,0,0,11,32765
0,-0,0,0,32765
0,-0,0,0,32765
0,-0,0,0,32765
0,-0,0,12,32765
0,-0,0,12,32765
1.37514,0.451008,0.0899435,13,32765
1.27213,0.412741,0.0833031,13,32765
1.30195,0.417823,0.0851876,12,32765
1.40792,0.446838,0.0921633,12,32765
1.40938,0.442235,0.0921107,12,32765
1.44897,0.449396,0.0945629,12,32765
1.46953,0.450491,0.0955673,12,32765
1.06979,0.324223,0.0695223,12,32765
1.06128,0.317899,0.0688012,13,32765
1.02402,0.303145,0.0663036,13,32765
1.06335,0.310958,0.0685693,13,32765
1.01644,0.293574,0.0653401,14,32765
1.00781,0.287491,0.0645573,14,32765
0.989527,0.278799,0.0633086,13,32765
1.00967,0.280888,0.0644965,13,32765
1.12611,0.309257,0.0717453,12,32765
1.05971,0.287233,0.0672111,13,32765
1.14745,0.306923,0.0725311,12,32765
1.28357,0.338819,0.0808621,12,32765
1.55513,0.405085,0.0978335,11,32765
1.46948,0.377596,0.091945,13,32765
1.32558,0.336001,0.0826614,13,32765
1.23953,0.309888,0.0770419,15,32765
1.24055,0.305821,0.0768548,15,32765
1.26097,0.306437,0.0778656,16,32765
1.25229,0.299874,0.0770558,15,32765
1.00071,0.236058,0.0612553,16,32765
1.02095,0.237221,0.0622787,16,32765
1.27476,0.291668,0.0775437,14,32765
1.34391,0.302776,0.08138,13,32765
1.18901,0.263666,0.0717103,13,32765
1.01434,0.221372,0.0609566,13,32765
0.976046,0.209582,0.0583833,15,32765
0.966989,0.204244,0.0575863,14,32765
0.879698,0.18275,0.0522801,13,32765
0.93901,0.191774,0.0555277,16,32765
0.900508,0.18076,0.0530283,17,32765
0.920707,0.18162,0.0539683,16,32765
0.96052,0.186163,0.0560701,15,32765
0.970943,0.184868,0.0565061,15,32765
0.932322,0.174253,0.0539579,16,32765
0.883811,0.162136,0.0509,17,32765
0.904016,0.162685,0.051859,18,32765
0.904562,0.159665,0.0517275,18,32765
0.914941,0.158339,0.0520705,18,32765
0.885945,0.150244,0.0502825,19,32765
0.896306,0.14891,0.050619,19,32765
0.896807,0.145918,0.0504512,19,32765
0.887443,0.141318,0.0497376,19,32765
0.907646,0.141457,0.0506882,19,32765
0.898251,0.136913,0.0500017,17,32765
0.898709,0.133953,0.0497848,17,32765
0.918925,0.133819,0.0506926,18,32765
0.899611,0.127922,0.0493657,19,32765
0.900046,0.124878,0.049226,20,32765
0.890581,0.120489,0.0484515,20,32765
0.890984,0.117526,0.0483204,20,32765
0.891378,0.114573,0.048149,20,32765
0.881849,0.110425,0.0474272,20,32765
0.911946,0.111142,0.049003,20,32765
0.902412,0.106888,0.0482522,20,32765
0.902772,0.103867,0.0481134,19,32765
0.893201,0.0997356,0.0473702,19,32765
0.903459,0.0978598,0.0478077,19,32765
0.883913,0.0928104,0.0467369,19,32765
0.884229,0.0898709,0.0465005,19,32765
0.894461,0.0879409,0.046972,19,32765
0.88481,0.0840404,0.0463451,18,32765
0.914921,0.0838488,0.0478375,17,32765
0.8953,0.0790979,0.0467045,16,32765
0.915465,0.0777962,0.0476655,15,32765
0.925672,0.0755782,0.0481632,15,32765
0.886095,0.0693977,0.0460451,14,32765
1.11538,0.0835974,0.0577255,13,32765
1.01603,0.0728389,0.052626,14,32765
1.11592,0.0762693,0.0575734,13,32765
0,0,0,0,32765
1.02668,0.0634157,0.0529112,12,32765
0,0,0,11,32765
0,0,0,11,32765
0,0,0,12,32765
0,0,0,11,32765
0,0,0,11,32765
0,0,0,12,32765
1.53681,0.0596685,0.0791748,11,32765
0,0,0,12,32765
1.5272,0.0490725,0.0785069,12,32765
0,0,0,0,32765
1.29785,0.0332059,0.0669881,12,32765
1.24802,0.0278849,0.0646036,14,32765
1.22813,0.0234209,0.0636698,14,32765
1.22819,0.0193806,0.0638278,15,32765
1.21826,0.0152112,0.0634059,15,32765
1.21829,0.0112531,0.0636021,16,32765
1.21831,0.00736397,0.063759,16,32765
1.20833,0.00343994,0.0634715,16,32765
1.21832,-0.000505725,0.064043,16,32765
1.21828,-0.00448049,0.0645276,17,32765
1.18829,-0.00824572,0.0632153,16,32765
1.21819,-0.012416,0.0652831,16,32765
1.23809,-0.0166568,0.0667019,16,32765
1.42268,0.465064,0.0984562,11,32765
1.37676,0.445148,0.0941692,12,32765
1.47333,0.471025,0.0996837,12,32765
1.53204,0.484205,0.102462,12,32765
1.50505,0.470396,0.0998288,12,32765
1.56382,0.483255,0.102616,13,32765
1.52725,0.466533,0.0992412,12,32765
1.1657,0.351979,0.0751345,12,32765
1.09994,0.32817,0.0702505,13,32765
1.15847,0.341541,0.0734115,13,32765
1.15963,0.337716,0.0728968,13,32765
1.1224,0.322859,0.0699236,14,32765
1.11387,0.316458,0.0689273,14,32765
1.11494,0.312767,0.0684308,13,32765
1.10638,0.306431,0.067272,13,32765
1.11704,0.305413,0.0674221,12,32765
1.13733,0.306963,0.0681576,14,32765
1.1673,0.310949,0.0694906,12,32765
0,0,0,0,32765
1.62358,0.421073,0.0952824,11,32765
1.5573,0.398369,0.0906818,12,32765
1.54895,0.390819,0.0895208,12,32765
1.32738,0.330358,0.0762409,14,32765
1.28,0.314114,0.0729887,15,32765
1.31987,0.319315,0.0746895,14,32765
1.26268,0.301004,0.0709874,14,32765
1.12761,0.264829,0.0630069,15,32765
1.01176,0.234069,0.0562085,16,32765
1.02228,0.232936,0.0563971,14,32765
0.984082,0.220832,0.0539977,16,32765
0.975074,0.215412,0.0531878,16,32765
0.995315,0.216415,0.0539778,17,32765
0.966743,0.206841,0.0521986,17,32765
1.02608,0.215915,0.0551319,13,32765
1.06592,0.220602,0.0569469,14,32765
0.998166,0.203106,0.0530291,17,32765
0.989062,0.197808,0.0522296,17,32765
0.97013,0.190656,0.0509628,17,32765
0.980584,0.189277,0.0512749,16,32765
0.961604,0.182238,0.0500649,17,32765
0.972036,0.180848,0.0503978,18,32765
0.952982,0.174072,0.0492318,18,32765
0.992887,0.177982,0.0509771,18,32765
0.973804,0.171239,0.0498302,18,32765
0.984229,0.169667,0.0500715,18,32765
0.974953,0.164693,0.0494198,17,32765
0.995206,0.164693,0.0504104,18,32765
0.985911,0.159755,0.049573,18,32765
0.97658,0.154916,0.048907,18,32765
0.986965,0.153213,0.0492602,19,32765
0.997353,0.151396,0.0496691,20,32765
0.987979,0.146608,0.0490296,20,32765
0.998363,0.144681,0.049377,20,32765
0.988963,0.139936,0.0486891,20,32765
0.989434,0.136611,0.0485468,20,32765
0.979998,0.131962,0.0478514,20,32765
0.990342,0.130005,0.0481784,19,32765
0.980872,0.125414,0.0475558,19,32765
0.991199,0.123385,0.0479743,19,32765
0.991614,0.120109,0.0477074,18,32765
0.982092,0.115658,0.0470924,19,32765
0.982476,0.112393,0.0469947,18,32765
0.962985,0.106962,0.0460346,17,32765
0.973283,0.104793,0.0462418,16,32765
0.98357,0.102637,0.0464221,14,32765
1.07335,0.108412,0.0505922,13,32765
1.20295,0.117483,0.0565936,12,32765
1.40225,0.132245,0.0657061,12,32765
1.65141,0.150086,0.0769853,12,32765
1.73152,0.151552,0.0803782,12,32765
1.7619,0.148167,0.0815129,12,32765
1.71261,0.138307,0.0789608,13,32765
1.7031,0.131914,0.0783323,12,32765
1.67366,0.124104,0.0765313,12,32765
1.67407,0.118624,0.076271,13,32765
1.6047,0.108351,0.0728768,12,32765
1.03681,0.0665512,0.0468686,13,32765
0,0,0,0,32765
0,0,0,0,32765
1.23694,0.0672066,0.0552825,12,32765
1.25713,0.0641212,0.0558685,14,32765
1.29726,0.0618625,0.0574161,15,32765
1.26752,0.0563143,0.0557919,15,32765
1.29766,0.0533701,0.0568531,17,32765
1.29784,0.0491628,0.0565974,16,32765
1.31797,0.0456124,0.0571517,15,32765
1.37804,0.0432498,0.059457,13,32765
1.26833,0.0356702,0.0544716,14,32765
1.26846,0.0314125,0.0540653,16,32765
1.26857,0.0272195,0.0537591,16,32765
1.26866,0.0230761,0.053453,17,32765
1.26875,0.0190219,0.0531057,17,32765
1.24883,0.01479,0.0519371,16,32765
1.27886,0.0109979,0.0528572,17,32765
1.25892,0.00670596,0.0516515,17,32765
1.28893,0.00261352,0.0524858,17,32765
1.25897,-0.00143278,0.0508486,17,32765
1.25898,-0.00537007,0.0504111,17,32765
1.25898,-0.00943601,0.0498977,17,32765
1.26895,-0.0137588,0.0498413,17,32765
1.26892,-0.0178764,0.0491407,17,32765
1.37578,0.450644,0.0815486,14,32765
1.45327,0.470837,0.0849861,11,32765
1.30272,0.417325,0.0752316,13,32765
1.43742,0.455219,0.0819051,12,32765
1.42937,0.447648,0.0806745,12,32765
1.43085,0.443059,0.0797556,12,32765
1.29864,0.397502,0.0715696,12,32765
1.04187,0.315224,0.0568805,13,32765
1.01423,0.303209,0.0547862,13,32765
1.00566,0.297085,0.0538312,13,32765
1.00666,0.293757,0.0533839,14,32765
0.99805,0.287669,0.0523741,15,32765
1.04704,0.298069,0.054517,14,32765
1.00958,0.283781,0.0520663,13,32765
1.07791,0.299145,0.0549827,13,32765
1.01148,0.277107,0.0511521,14,32765
1.03169,0.279008,0.0517387,15,32765
1.02296,0.273047,0.0509044,13,32765
0.956261,0.251877,0.0471389,14,32765
0.976438,0.253743,0.0477805,15,32765
0.93859,0.240578,0.0455079,16,32765
0.91034,0.230148,0.0437488,16,32765
0.94017,0.234455,0.0448533,17,32765
0.93125,0.228984,0.0440489,17,32765
0.922304,0.223575,0.0432327,17,32765
0.913346,0.21816,0.0424829,17,32765
0.914083,0.215107,0.0422104,17,32765
0.934271,0.21657,0.0428493,16,32765
0.934999,0.213469,0.0425271,16,32765
0.916213,0.206007,0.0414072,17,32765
0.897396,0.198642,0.0402725,18,32765
0.976156,0.212667,0.0435057,14,32765
0.957329,0.205229,0.0424456,13,32765
0.909148,0.191685,0.0400757,17,32765
0.919575,0.190686,0.0402602,18,32765
0.920218,0.187611,0.0400196,17,32765
0.911056,0.182563,0.0393361,17,32765
0.901868,0.177586,0.0386966,18,32765
0.892661,0.172641,0.0380913,19,32765
0.903065,0.171476,0.0383364,18,32765
0.893819,0.166618,0.0377557,18,32765
0.894368,0.163681,0.0376168,19,32765
0.914582,0.164261,0.0381809,19,32765
0.905287,0.159497,0.0376424,19,32765
0.905828,0.156452,0.037401,19,32765
0.926059,0.156733,0.0380704,19,32765
0.916722,0.151994,0.037658,18,32765
0.897515,0.145708,0.03654,18,32765
0.90787,0.144289,0.036783,18,32765
0.908349,0.141276,0.0366532,17,32765
0.928579,0.141222,0.0373719,16,32765
0.948818,0.141061,0.0380249,16,32765
0.949299,0.137829,0.0378889,15,32765
0.920083,0.130433,0.0365195,14,32765
0.890828,0.123226,0.0352132,13,32765
1.16852,0.15764,0.0459179,13,32765
1.32756,0.174596,0.0519341,13,32765
1.42726,0.182825,0.0556047,13,32765
1.41795,0.176832,0.0551298,13,32765
1.40863,0.170932,0.054365,12,32765
1.43896,0.169772,0.0553112,12,32765
1.40974,0.161563,0.0540264,12,32765
1.12226,0.124877,0.0429802,12,32765
0.884236,0.0953761,0.0336086,12,32765
1.57033,0.16416,0.0591991,12,32765
1.72995,0.17504,0.0651129,12,32765
1.4421,0.141088,0.0541546,13,32765
1.35303,0.127827,0.0505598,14,32765
1.26391,0.115068,0.0469299,14,32765
1.24438,0.109103,0.0459628,16,32765
1.22484,0.103179,0.0450526,16,32765
1.1953,0.0966938,0.0437795,16,32765
1.17569,0.0912162,0.0429329,16,32765
1.22582,0.0910474,0.0444393,17,32765
1.24606,0.0884407,0.044968,18,32765
1.1965,0.0809202,0.043008,17,32765
1.12696,0.0724535,0.0402741,16,32765
0,0,0,0,32765
0,0,0,0,32765
1.16755,0.0635326,0.0411338,15,32765
1.20769,0.0616909,0.0422464,17,32765
1.19791,0.0572074,0.0416884,17,32765
1.20808,0.0537487,0.0417506,16,32765
1.18829,0.0489379,0.0408254,13,32765
1.37821,0.0522744,0.0470721,12,32765
1.16863,0.0404929,0.0396283,16,32765
1.19873,0.0376645,0.04039,17,32765
1.17887,0.0331881,0.039488,17,32765
1.169,0.028975,0.038779,17,32765
1.19907,0.0257465,0.0394838,17,32765
1.15919,0.0210946,0.0378881,17,32765
1.17925,0.0176824,0.0382185,17,32765
1.14933,0.0136064,0.036941,17,32765
1.15937,0.00995736,0.0369663,17,32765
1.1694,0.00620822,0.0369323,17,32765
1.16943,0.00234247,0.0365734,17,32765
1.14945,-0.00134379,0.0355679,17,32765
1.17944,-0.00507486,0.0360859,16,32765
1.15944,-0.00874088,0.0350015,17,32765
1.15942,-0.01263,0.0345882,17,32765
1.16938,-0.016541,0.0342408,18,32765
1.26253,0.414521,0.0555825,17,32765
1.30185,0.422815,0.0575012,16,32765
1.67418,0.537835,0.0739442,12,32765
0,0,0,0,32765
1.3345,0.419124,0.0587787,14,32765
1.43128,0.444399,0.0627847,12,32765
1.46138,0.448531,0.0639696,11,32765
1.12819,0.342287,0.0493,12,32765
1.11974,0.335695,0.0488532,14,32765
1.11126,0.329199,0.0483384,13,32765
1.06441,0.31148,0.0460398,13,32765
1.07503,0.310764,0.0462873,14,32765
1.06644,0.304485,0.0458035,15,32765
1.08666,0.306441,0.0465431,14,32765
1.05879,0.294848,0.0451356,13,32765
1.07903,0.296646,0.045661,13,32765
1.00287,0.27215,0.0423749,15,32765
0.974806,0.261094,0.0410284,17,32765
1.01431,0.268077,0.0424825,17,32765
0.976528,0.254632,0.0406782,17,32765
0.996742,0.256329,0.0412481,16,32765
0.997599,0.252992,0.0411268,16,32765
1.00813,0.252107,0.0413469,16,32765
0.999275,0.246358,0.0407098,16,32765
1.00008,0.243071,0.0405983,15,32765
0.991179,0.237418,0.0399557,15,32765
0.982245,0.231834,0.0393541,15,32765
0.992745,0.230847,0.0395948,15,32765
0.964295,0.220837,0.0382955,15,32765
0.974783,0.219814,0.0384704,16,32765
0.985288,0.218679,0.0385499,17,32765
1.05436,0.230301,0.0410485,14,32765
1.09421,0.235188,0.0423437,13,32765
0.967894,0.204685,0.0372057,16,32765
0.98814,0.205541,0.0378387,18,32765
0.998621,0.204254,0.037895,19,32765
0.999302,0.200935,0.0376803,19,32765
0.980377,0.193689,0.036689,19,32765
0.990841,0.192274,0.0369451,19,32765
1.00131,0.190812,0.0370187,19,32765
0.992134,0.185566,0.0365331,18,32765
1.00258,0.184065,0.0366515,17,32765
1.00319,0.180744,0.0365664,18,32765
0.99395,0.175712,0.0359033,17,32765
0.994536,0.172399,0.0357315,17,32765
0.985266,0.167368,0.0352072,17,32765
1.03512,0.172231,0.0367821,16,32765
1.01599,0.165495,0.0356275,15,32765
1.07576,0.171534,0.0375983,14,32765
1.18495,0.184935,0.0411665,13,32765
1.36341,0.208097,0.0470212,13,32765
1.47285,0.219675,0.0505567,12,32765
1.63185,0.237716,0.05531,12,32765
1.60296,0.22802,0.054108,13,32765
1.63342,0.226774,0.0548083,13,32765
1.64407,0.22272,0.0549562,13,32765
1.56555,0.206748,0.0519213,12,32765
1.60591,0.206568,0.0528251,12,32765
1.55701,0.195007,0.0508369,13,32765
1.58742,0.19342,0.0519647,12,32765
1.63769,0.194029,0.0531236,12,32765
1.59862,0.184,0.0515305,12,32765
1.63896,0.183151,0.0524664,12,32765
0.934057,0.101255,0.0297384,14,32765
0,0,0,0,32765
1.8893,0.192225,0.0599257,11,32765
1.27322,0.125248,0.0401403,15,32765
1.27364,0.121047,0.0399112,16,32765
1.28399,0.117763,0.0400998,16,32765
1.28438,0.1135,0.0399538,16,32765
1.26483,0.107503,0.0393691,17,32765
1.2652,0.103197,0.0390955,17,32765
1.29543,0.101324,0.0399274,17,32765
1.26585,0.094788,0.0391061,17,32765
1.2861,0.0921249,0.0395645,17,32765
1.28639,0.08794,0.0394847,17,32765
1.26673,0.0824233,0.0388348,17,32765
1.26699,0.0782997,0.0387874,17,32765
1.16746,0.068293,0.0356581,13,32765
1.28744,0.0710976,0.0393343,12,32765
1.2677,0.0658177,0.038706,16,32765
1.2779,0.0620909,0.0389836,17,32765
1.26811,0.0574512,0.0387359,17,32765
1.3382,0.0561588,0.0407381,14,32765
1.33838,0.0517766,0.040882,12,32765
1.23865,0.0438097,0.0379284,16,32765
1.25876,0.0404002,0.0385593,17,32765
1.2389,0.0357422,0.0379849,17,32765
1.26898,0.0324775,0.0391078,17,32765
1.2391,0.0276537,0.0382525,17,32765
1.24918,0.0237728,0.0386684,17,32765
1.24924,0.0196051,0.0387835,17,32765
1.25929,0.0156661,0.0392885,17,32765
1.23934,0.0113927,0.0388224,17,32765
1.25935,0.00751571,0.0396555,16,32765
1.25937,0.00337488,0.0397901,17,32765
1.25936,-0.000757394,0.0400644,17,32765
1.25934,-0.00482791,0.0403863,18,32765
1.24932,-0.0087853,0.0403573,17,32765
1.24927,-0.0127877,0.0407344,17,32765
1.23921,-0.0167401,0.0408843,17,32765
1.27219,0.418617,0.0433986,15,32765
1.19749,0.389778,0.0410344,16,32765
1.2463,0.401259,0.0427172,13,32765
0,0,0,0,32765
1.2489,0.393099,0.042678,14,32765
1.42196,0.44247,0.0483502,12,32765
0,0,0,0,32765
1.01363,0.308198,0.0343143,13,32765
0.985923,0.296218,0.0333171,13,32765
1.00605,0.298679,0.0338756,14,32765
0.987866,0.289707,0.0330302,14,32765
0.960017,0.278117,0.0319184,14,32765
0.96093,0.274952,0.0318544,15,32765
0.971441,0.274539,0.0320959,14,32765
0.953086,0.265983,0.0313052,14,32765
0.95397,0.262826,0.0310438,15,32765
0.954835,0.259671,0.0310199,16,32765
0.955689,0.256521,0.0308978,16,32765
0.946879,0.250789,0.0304259,16,32765
0.889688,0.232483,0.0283933,16,32765
0.929189,0.239465,0.0294077,16,32765
0.920303,0.233886,0.0289892,16,32765
0.940471,0.235685,0.0294319,16,32765
0.931556,0.230149,0.0289048,16,32765
0.951735,0.23181,0.0294005,16,32765
0.913632,0.219305,0.0279711,16,32765
1.04082,0.246177,0.0316167,11,32765
1.07084,0.249531,0.0323421,12,32765
1.0327,0.237,0.0310213,12,32765
0.955494,0.215917,0.028472,12,32765
1.0538,0.234377,0.0310505,12,32765
0.927649,0.203049,0.0271603,15,32765
0.947871,0.204161,0.0275367,18,32765
0.928992,0.196869,0.0267545,17,32765
0.91986,0.191738,0.0263621,17,32765
0.940087,0.192683,0.026623,17,32765
0.950529,0.191526,0.0266959,16,32765
0.941372,0.18637,0.0261779,17,32765
0.942002,0.183176,0.0260722,17,32765
0.991716,0.189376,0.0271405,15,32765
1.02184,0.191516,0.02782,13,32765
0,0,0,0,32765
1.45595,0.262857,0.0391125,13,32765
1.4765,0.261556,0.0391881,13,32765
1.44782,0.251492,0.0381539,13,32765
1.5078,0.256658,0.0394498,13,32765
1.48895,0.24825,0.038667,13,32765
1.50954,0.246393,0.0385042,13,32765
1.47087,0.235016,0.0373542,12,32765
1.47165,0.23015,0.037073,13,32765
1.52184,0.232751,0.0379593,13,32765
1.49296,0.223129,0.0370039,13,32765
1.52341,0.22237,0.037108,13,32765
1.42518,0.203143,0.0345235,13,32765
1.56449,0.217643,0.0375907,13,32765
1.52558,0.207085,0.0364676,13,32765
1.556,0.205902,0.0367937,12,32765
1.50712,0.194252,0.0352362,13,32765
1.54745,0.1942,0.0358076,13,32765
1.51832,0.185371,0.0352683,13,32765
1.53879,0.182676,0.0352921,13,32765
1.50961,0.174101,0.0343205,13,32765
1.51018,0.169096,0.0340029,13,32765
0.894517,0.0971609,0.019988,14,32765
1.55105,0.163258,0.0344862,12,32765
1.55158,0.158175,0.0344945,12,32765
1.21382,0.119639,0.0267563,16,32765
1.18436,0.112782,0.0258852,17,32765
1.18473,0.108871,0.0257713,17,32765
1.18509,0.104929,0.0256365,17,32765
1.15555,0.098404,0.0250218,17,32765
1.16585,0.095276,0.0249852,17,32765
1.18609,0.0929495,0.0253283,17,32765
1.16646,0.0875106,0.0249947,17,32765
1.17671,0.084448,0.0250642,17,32765
1.18695,0.0812939,0.0252028,16,32765
1.16726,0.0760922,0.0247443,16,32765
1.26729,0.0784622,0.0268118,12,32765
1.07791,0.0631694,0.022731,14,32765
1.11804,0.0618538,0.0235893,17,32765
1.14819,0.0597187,0.0242043,17,32765
1.16836,0.0568676,0.0246004,15,32765
0,0,0,0,32765
1.13874,0.0478686,0.0239075,16,32765
1.13889,0.0441313,0.0240299,18,32765
1.14902,0.040704,0.0243309,18,32765
1.14915,0.0369382,0.0243483,18,32765
1.15926,0.0334927,0.0245952,18,32765
1.11938,0.0286872,0.023927,18,32765
1.15944,0.0259077,0.0248455,18,32765
1.13953,0.0217091,0.0245151,18,32765
1.1296,0.0177419,0.0244042,18,32765
1.12965,0.0140596,0.0245788,19,32765
1.13968,0.0104749,0.0249412,18,32765
1.11971,0.00667273,0.0246876,17,32765
1.13972,0.00303629,0.0252503,17,32765
1.13971,-0.000711653,0.0254985,17,32765
1.1397,-0.00440363,0.0257899,17,32765
1.12968,-0.00798605,0.0258273,17,32765
1.15963,-0.0119216,0.0268631,17,32765
1.14958,-0.0155887,0.0270729,17,32765
1.26294,0.414243,0.047802,17,32765
1.26432,0.410127,0.0468797,16,32765
0,0,0,11,32765
0,0,0,0,32765
1.33507,0.418818,0.0466115,13,32765
1.44144,0.447092,0.0495819,12,32765
0,0,0,0,32765
1.05218,0.3189,0.0349355,13,32765
1.07242,0.32109,0.0348497,13,32765
1.10227,0.325979,0.0353185,13,32765
1.0458,0.305482,0.0329475,13,32765
1.03719,0.29933,0.0321742,14,32765
1.01893,0.290541,0.0310158,14,32765
1.01988,0.287237,0.0305596,14,32765
0.963049,0.267823,0.0284223,15,32765
0.973586,0.267256,0.0283499,15,32765
1.01308,0.274455,0.0289286,15,32765
0.985019,0.263378,0.0277508,15,32765
0.995556,0.26268,0.027698,15,32765
1.04479,0.272016,0.0284947,13,32765
1.12315,0.288454,0.0303036,13,32765
1.07566,0.272466,0.0285678,13,32765
0.969868,0.242297,0.0254439,15,32765
0.980377,0.241495,0.0253328,15,32765
1.0006,0.242987,0.0255383,15,32765
0.991687,0.237347,0.0249795,16,32765
1.00221,0.236334,0.0248911,12,32765
1.01273,0.235279,0.024798,12,32765
0,0,0,0,32765
0,0,0,0,32765
0.976029,0.216422,0.0230169,13,32765
1.01581,0.221725,0.0236863,15,32765
1.05564,0.226778,0.0242674,15,32765
1.19334,0.252187,0.027074,15,32765
1.32144,0.274593,0.0298503,14,32765
1.21462,0.248131,0.027098,12,32765
1.21546,0.244054,0.0265766,13,32765
1.22608,0.241919,0.0265838,13,32765
0,0,0,0,32765
1.54196,0.293575,0.0326975,12,32765
0,0,0,0,32765
0,0,0,0,32765
1.62357,0.292241,0.0331822,11,32765
1.59501,0.281579,0.0324041,12,32765
1.59596,0.276212,0.0321228,12,32765
1.60673,0.272533,0.0321929,12,32765
1.54846,0.257374,0.0305203,12,32765
1.53947,0.250529,0.0296101,13,32765
1.56006,0.248477,0.0297497,12,32765
1.5115,0.235497,0.0284538,13,32765
1.49252,0.227375,0.0279625,13,32765
1.56251,0.232624,0.0289886,12,32765
1.52372,0.221584,0.0280038,12,32765
1.49475,0.21232,0.0274188,12,32765
1.66381,0.230676,0.0302277,12,32765
1.57541,0.213006,0.0283268,12,32765
1.57612,0.207709,0.0282866,13,32765
1.59666,0.204836,0.0286596,13,32765
1.59734,0.199477,0.0286144,12,32765
1.56823,0.190528,0.0275089,12,32765
1.63836,0.19354,0.0284983,13,32765
1.59927,0.183503,0.0276433,12,32765
1.59987,0.178207,0.0273577,13,32765
0.964252,0.104164,0.0163888,14,32765
1.65075,0.172748,0.0278925,12,32765
1.63143,0.165225,0.0273103,12,32765
1.60213,0.156774,0.0264741,12,32765
1.2642,0.119468,0.0206928,17,32765
1.24468,0.113453,0.0202129,17,32765
1.23509,0.108436,0.0199287,17,32765
1.25537,0.105999,0.0199815,17,32765
1.26569,0.102609,0.0198533,17,32765
1.23612,0.0961057,0.0192985,17,32765
1.23644,0.0919888,0.0190129,16,32765
1.23674,0.0878771,0.0188028,17,32765
1.23703,0.083793,0.0185032,17,32765
1.2373,0.0796628,0.018284,17,32765
0,0,0,0,32765
1.20786,0.0697768,0.0175189,15,32765
1.22806,0.0668595,0.0175295,17,32765
1.18833,0.0607751,0.0166994,16,32765
1.30838,0.0625579,0.0180732,14,32765
1.33855,0.0596436,0.0182245,12,32765
1.21885,0.0503788,0.0164147,18,32765
1.229,0.0468278,0.0161944,18,32765
1.21916,0.0424929,0.0158614,18,32765
1.23928,0.0391111,0.0157553,19,32765
1.22941,0.0347497,0.0154438,18,32765
1.22953,0.0306262,0.0150665,18,32765
1.20963,0.0261181,0.0145818,18,32765
1.21971,0.0223336,0.0144247,18,32765
1.20978,0.0182028,0.0139815,18,32765
1.21984,0.0144046,0.0136465,17,32765
1.20988,0.0103721,0.0132769,17,32765
1.21991,0.00649755,0.012983,17,32765
1.21993,0.00254681,0.0125882,17,32765
1.21994,-0.00142833,0.012241,17,32765
1.19993,-0.00528487,0.0116331,17,32765
1.19991,-0.0091184,0.0112502,17,32765
1.19988,-0.0129476,0.0107177,17,32765
1.21984,-0.0170568,0.0102444,17,32765
1.26303,0.415207,0.035293,15,32765
1.22638,0.398717,0.0333362,15,32765
1.21818,0.391656,0.0322435,14,32765
0,0,0,0,32765
1.22072,0.383808,0.0305745,12,32765
0,0,0,0,32765
1.32832,0.408222,0.0318144,12,32765
0.966155,0.293487,0.0225737,15,32765
0.938428,0.281604,0.0212718,15,32765
0.948968,0.281275,0.0210883,16,32765
0.969104,0.283716,0.0210243,16,32765
0.950819,0.275021,0.0201756,16,32765
0.951704,0.271982,0.0196498,16,32765
0.962213,0.271604,0.0194174,16,32765
0.943846,0.263073,0.0186292,16,32765
0.954367,0.262569,0.0184692,16,32765
0.945602,0.256749,0.0177743,16,32765
0.946449,0.253633,0.0174364,16,32765
0.956954,0.253061,0.0173016,16,32765
0.957787,0.249923,0.0167989,14,32765
0.958615,0.246748,0.0165409,13,32765
0.949742,0.241109,0.015994,14,32765
0.950532,0.237998,0.0157066,15,32765
0.951317,0.234861,0.0153515,15,32765
0.971521,0.236452,0.0153768,14,32765
0.972305,0.233228,0.0150717,13,32765
1.06066,0.250676,0.016075,13,32765
1.04202,0.242622,0.0154351,11,32765
0,0,0,0,32765
1.25821,0.284046,0.0178604,14,32765
1.29821,0.288502,0.0180837,15,32765
1.28939,0.282066,0.0176283,16,32765
1.3001,0.279913,0.017355,16,32765
1.28147,0.271412,0.0167294,15,32765
1.31175,0.273183,0.0170042,15,32765
1.33226,0.272767,0.0169064,15,32765
1.44101,0.289984,0.0176552,14,32765
1.51064,0.298726,0.0182402,13,32765
1.45275,0.282198,0.0171327,13,32765
1.52243,0.290499,0.0176746,12,32765
0,0,0,0,32765
0,0,0,0,32765
1.51545,0.273381,0.0164563,13,32765
1.52621,0.270027,0.0163955,13,32765
1.53697,0.266589,0.0162299,13,32765
1.45899,0.248017,0.0152808,13,32765
1.46967,0.244817,0.0149208,13,32765
1.49024,0.243052,0.0144277,13,32765
1.45156,0.231705,0.0138218,13,32765
1.48198,0.231405,0.0137559,13,32765
1.49264,0.227892,0.0137278,14,32765
1.48352,0.221347,0.01338,14,32765
1.45458,0.211992,0.0128725,13,32765
1.49487,0.212802,0.013183,14,32765
1.49558,0.207804,0.0129327,14,32765
1.49627,0.202747,0.012665,14,32765
1.50686,0.199014,0.01271,13,32765
1.52737,0.196374,0.0128934,12,32765
1.5181,0.189994,0.0127663,13,32765
1.56837,0.190959,0.0126108,13,32765
1.54913,0.183397,0.0122341,13,32765
1.4802,0.170209,0.0115329,13,32765
1.10312,0.12314,0.00839451,13,32765
1.13335,0.122695,0.00851088,13,32765
1.452,0.152277,0.010764,13,32765
1.59178,0.161558,0.0115557,13,32765
1.54256,0.15127,0.0108702,12,32765
1.11498,0.105594,0.00768643,15,32765
1.15516,0.10552,0.00781779,17,32765
1.13559,0.0999144,0.00757017,17,32765
1.14588,0.0969614,0.00739119,17,32765
1.1462,0.0931211,0.00713135,17,32765
1.1465,0.0893285,0.00705162,17,32765
1.13682,0.0847581,0.00672756,18,32765
1.12713,0.0802591,0.00647693,17,32765
1.13737,0.0772059,0.00625867,17,32765
1.18751,0.0766193,0.00632262,15,32765
1.1678,0.0714829,0.00602824,12,32765
1.1281,0.0653065,0.00570217,17,32765
1.13829,0.062103,0.00549398,17,32765
1.0586,0.054254,0.00487668,15,32765
1.25854,0.060301,0.00549835,12,32765
1.12887,0.0504054,0.00470958,17,32765
1.11903,0.0463491,0.0045046,17,32765
1.13916,0.0434945,0.00425608,17,32765
1.1293,0.0394421,0.00403219,18,32765
1.13942,0.0360331,0.00373111,17,32765
1.12954,0.0319915,0.00352891,17,32765
1.12964,0.0281947,0.00318221,17,32765
1.12973,0.0244411,0.00295827,18,32765
1.11981,0.020544,0.00267718,18,32765
1.12987,0.0170324,0.00239757,17,32765
1.11992,0.0132487,0.00196273,17,32765
1.11996,0.00961717,0.00172405,17,32765
1.11998,0.00597343,0.00135351,17,32765
1.11,0.00231755,0.00098217,17,32765
1.14,-0.00134259,0.000684333,17,32765
1.12999,-0.00499253,0.000294839,17,32765
1.11997,-0.00853426,-6.5199e-05,18,32765
1.11993,-0.012116,-0.000562114,18,32765
1.09989,-0.0154176,-0.0011399,18,32765
1.32003,0.435151,0.0164964,14,32765
1.36898,0.446323,0.017214,14,32765
1.43703,0.463367,0.0180509,12,32765
1.43853,0.458687,0.018052,12,32765
0,0,0,0,32765
0,0,0,0,32765
1.44295,0.444607,0.0178348,12,32765
1.37741,0.41957,0.0170882,12,32765
1.41708,0.426599,0.0172884,12,32765
1.41849,0.421884,0.0171564,12,32765
1.04573,0.307218,0.0125843,14,32765
1.01795,0.295356,0.0121619,15,32765
1.02854,0.294714,0.0119448,15,32765
1.00065,0.283143,0.0115852,15,32765
0.982318,0.274457,0.0111344,15,32765
0.983208,0.271253,0.0111399,15,32765
1.02269,0.27853,0.011328,15,32765
0.994624,0.267406,0.010814,15,32765
1.00516,0.266711,0.0107545,15,32765
1.01571,0.265927,0.0107175,15,32765
1.065,0.275061,0.011076,14,32765
1.10469,0.281318,0.0112127,14,32765
1.3578,0.340862,0.0136899,13,32765
1.46573,0.362666,0.0143633,12,32765
1.5058,0.367243,0.0144396,12,32765
1.5459,0.371587,0.0145577,12,32765
0,0,0,0,32765
0,0,0,0,32765
0,0,0,0,32765
1.619,0.366389,0.0138023,12,32765
1.48358,0.3305,0.0123425,14,32765
1.39678,0.306222,0.0111672,15,32765
1.36848,0.29521,0.010783,14,32765
1.38904,0.294721,0.010667,15,32765
1.39981,0.29212,0.0104167,15,32765
1.33222,0.273311,0.00941954,14,32765
1.39195,0.280682,0.00966243,14,32765
1.4223,0.281909,0.00956743,14,32765
1.61954,0.315413,0.0105509,12,32765
1.6206,0.30992,0.0102663,12,32765
1.62165,0.304395,0.00978155,12,32765
1.01295,0.186566,0.00589138,14,32765
0,0,0,0,32765
1.61479,0.286324,0.00882343,12,32765
1.6453,0.286054,0.00823959,12,32765
1.51809,0.258761,0.00729646,12,32765
1.52881,0.255332,0.00717078,13,32765
1.5198,0.248533,0.00621928,13,32765
1.50088,0.240292,0.00573035,14,32765
1.48192,0.232149,0.00563993,14,32765
1.51233,0.231773,0.00523923,14,32765
1.54277,0.231189,0.00498827,14,32765
1.51386,0.221628,0.0046278,14,32765
1.5245,0.217878,0.00428463,13,32765
1.54505,0.215413,0.00397831,14,32765
1.56559,0.212891,0.00389111,13,32765
1.47707,0.195813,0.00345448,13,32765
1.60665,0.20752,0.00342625,13,32765
1.49822,0.188239,0.00328545,13,32765
1.48891,0.182054,0.002916,13,32765
1.53916,0.182947,0.00283108,14,32765
1.59937,0.184682,0.00262478,13,32765
1.45092,0.162601,0.00212955,12,32765
0.944436,0.102664,0.00120407,15,32765
1.56136,0.164476,0.00173534,12,32765
1.71112,0.174579,0.00166397,12,32765
1.57237,0.155101,0.00122037,12,32765
1.59278,0.151781,0.00114602,12,32765
1.24475,0.114437,0.000744913,15,32765
1.23516,0.109425,0.000559956,17,32765
1.20563,0.102721,0.000361955,17,32765
1.23587,0.101127,0.000326033,17,32765
1.22623,0.0962333,0.000185459,17,32765
1.22654,0.0921532,8.26809e-05,18,32765
1.21687,0.0873949,1.34003e-05,17,32765
1.22712,0.0840556,-7.79615e-05,17,32765
1.22739,0.0800191,-0.000166952,17,32765
0,0,-0,12,32765
1.20793,0.0708155,-0.000129202,15,32765
1.20815,0.0668555,-0.000167545,17,32765
1.24831,0.0649901,-0.000183459,16,32765
1.11867,0.0544962,-0.000312121,14,32765
1.18877,0.0540101,-0.000250868,15,32765
1.21892,0.0513687,-0.000230654,18,32765
1.20909,0.0469743,-0.000194354,17,32765
1.21923,0.0433358,-0.000150099,17,32765
1.20937,0.0389603,-4.14013e-05,17,32765
1.2095,0.0349445,-9.52903e-05,17,32765
1.2096,0.030952,-9.86947e-06,17,32765
1.1897,0.0265427,8.3488e-05,16,32765
1.21978,0.0232696,0.000222018,17,32765
1.22985,0.0194538,0.000355107,18,32765
1.2199,0.0153364,0.000460801,17,32765
1.20995,0.0112806,0.000686928,17,32765
1.21998,0.00736227,0.000935317,17,32765
1.18,0.00325838,0.00102799,17,32765
1.2,-0.000655461,0.00132293,17,32765
1.19999,-0.00457221,0.00162645,17,32765
1.19997,-0.00849513,0.00192392,18,32765
1.18993,-0.0122516,0.00230384,17,32765
1.20989,-0.0163513,0.00277568,17,32765
1.39576,0.461238,0.00361997,12,32765
1.41628,0.462867,0.00379681,12,32765
0,0,0,0,32765
0,0,0,0,32765
1.21097,0.382664,0.00329535,12,32765
1.25993,0.393642,0.00334151,13,32765
1.28987,0.398398,0.00324315,12,32765
1.3294,0.405921,0.0034159,12,32765
1.37859,0.416012,0.00327091,13,32765
1.34164,0.399986,0.0030545,12,32765
1.44849,0.426562,0.0032228,12,32765
1.04663,0.304405,0.00224757,12,32765
0.980362,0.28158,0.00178641,15,32765
0.962049,0.272872,0.00172709,16,32765
0.962947,0.269687,0.00150307,16,32765
0.963823,0.266539,0.00150803,16,32765
0.98399,0.268629,0.00129827,14,32765
0.965552,0.260208,0.00108457,14,32765
0.966401,0.257036,0.000925928,13,32765
0.947901,0.248763,0.000775975,15,32765
0.977765,0.25313,0.000659755,15,32765
1.02707,0.262171,0.000444535,14,32765
1.02795,0.258668,0.000383435,15,32765
1.3103,0.324975,0.000128144,13,32765
1.50566,0.368078,-0.00015778,13,32765
1.5166,0.365405,-0.000409191,11,32765
0,0,-0,0,32765
0,0,-0,0,32765
0,0,-0,0,32765
1.50184,0.340676,-0.00170189,13,32765
1.67866,0.374838,-0.00223624,12,32765
1.44551,0.31765,-0.00238478,13,32765
1.29996,0.281088,-0.00228607,15,32765
1.32047,0.28083,-0.00257771,16,32765
1.29203,0.270263,-0.00282131,15,32765
1.31253,0.269905,-0.0033446,15,32765
1.29383,0.261509,-0.00345569,16,32765
1.29469,0.257219,-0.00372848,15,32765
1.37406,0.268232,-0.00424022,14,32765
1.3946,0.267326,-0.00454619,14,32765
1.54292,0.290296,-0.0054882,11,32765
0.963708,0.177914,-0.00363034,15,32765
1.54485,0.279832,-0.00620112,12,32765
0,0,-0,0,32765
1.50727,0.26267,-0.00687168,13,32765
1.4687,0.25093,-0.0069844,13,32765
1.43995,0.241054,-0.00700725,14,32765
1.40128,0.229689,-0.00765036,14,32765
1.44153,0.231332,-0.00825833,14,32765
1.37315,0.215615,-0.00787672,14,32765
1.40351,0.2156,-0.00852368,14,32765
1.43389,0.215377,-0.0090329,14,32765
1.48408,0.217778,-0.00960414,14,32765
1.47491,0.211285,-0.0099018,14,32765
