x, y, z, intensity, ring
3.42835,1.96926,0.537189,27,32765
3.44349,1.96314,0.537068,28,32765
3.44999,1.95202,0.535858,27,32765
3.43054,1.92633,0.530593,27,32765
3.45439,1.92471,0.531792,27,32765
3.46953,1.91815,0.532014,28,32765
3.51959,1.93044,0.537056,29,32765
3.51742,1.91412,0.534316,29,32765
3.51515,1.89785,0.531757,28,32765
3.53041,1.89076,0.531823,28,32765
3.54556,1.88387,0.531511,28,32765
3.54317,1.86752,0.529065,29,32765
3.59341,1.87885,0.534234,30,32765
3.5645,1.84883,0.527911,29,32765
3.58837,1.84621,0.529141,29,32765
3.58575,1.82986,0.526904,28,32765
3.61856,1.83133,0.529461,30,32765
3.61605,1.8147,0.526731,29,32765
3.61345,1.79815,0.523989,28,32765
3.59296,1.7728,0.51907,28,32765
3.63465,1.77824,0.523048,30,32765
3.64964,1.7705,0.523051,30,32765
3.63787,1.7497,0.518988,28,32765
3.67062,1.75037,0.522239,30,32765
3.66762,1.73398,0.519576,30,32765
3.7274,1.7472,0.525628,32,32765
3.71525,1.72664,0.522026,30,32765
3.69407,1.70191,0.517043,29,32765
3.68178,1.68146,0.513392,29,32765
3.72367,1.68561,0.517107,27,32765
3.78373,1.6976,0.523357,28,32765
3.74422,1.66493,0.51551,27,32765
3.74089,1.64832,0.513046,28,32765
3.72827,1.62798,0.50957,29,32765
3.77031,1.63128,0.513161,28,32765
3.8124,1.63431,0.516778,29,32765
3.79971,1.61399,0.512688,28,32765
3.85083,1.62078,0.517943,31,32765
3.83798,1.60057,0.514012,30,32765
3.85256,1.5918,0.513761,30,32765
3.89463,1.59432,0.517273,31,32765
3.89092,1.57758,0.514666,30,32765
3.88714,1.56095,0.511859,29,32765
3.85559,1.53341,0.505416,28,32765
3.87003,1.52435,0.505272,27,32765
3.89362,1.51907,0.506244,29,32765
3.982,1.53868,0.515882,31,32765
3.91301,1.4975,0.504253,29,32765
4.00152,1.51659,0.513688,31,32765
3.94152,1.47924,0.50381,29,32765
3.95578,1.47002,0.503327,29,32765
3.998,1.47088,0.506575,31,32765
3.97503,1.44751,0.501414,30,32765
4.00794,1.44471,0.503345,30,32765
4.04089,1.44176,0.50492,31,32765
4.03637,1.4254,0.502025,30,32765
3.98491,1.39271,0.493336,30,32765
4.04594,1.3992,0.498684,30,32765
4.04121,1.38303,0.49581,30,32765
4.10229,1.3893,0.500641,30,32765
4.06919,1.36386,0.493942,30,32765
4.08304,1.35436,0.493336,30,32765
4.11588,1.35075,0.494597,29,32765
3.92188,1.27336,0.468936,18,32765
0,0,0,19,32765
4.00605,1.27294,0.473404,19,32765
0,0,0,0,32765
3.09971,2.28405,0.55408,28,32765
3.12359,2.28572,0.55388,29,32765
3.09949,2.25223,0.545455,28,32765
3.14757,2.27087,0.549853,29,32765
3.13935,2.24902,0.544399,29,32765
3.15531,2.24439,0.542984,29,32765
3.19527,2.257,0.546563,31,32765
3.17052,2.2239,0.538686,29,32765
3.178,2.2137,0.536574,30,32765
3.22631,2.23142,0.541531,31,32765
3.20144,2.19828,0.533624,30,32765
3.23365,2.20434,0.535644,30,32765
3.25758,2.20492,0.5361,31,32765
3.24058,2.17751,0.529808,30,32765
3.26445,2.17798,0.530442,31,32765
3.25537,2.15632,0.525812,30,32765
3.26271,2.1457,0.523718,31,32765
3.27829,2.14045,0.523237,31,32765
3.29388,2.13514,0.522613,31,32765
3.32612,2.14046,0.524819,33,32765
3.30837,2.11356,0.518773,28,32765
3.25704,2.06546,0.507622,27,32765
3.2137,2.02304,0.498371,16,32765
3.25424,2.03345,0.501884,16,32765
3.26948,2.02804,0.501944,15,32765
3.25947,2.00697,0.49753,18,32765
3.35095,2.048,0.508381,31,32765
3.3917,2.05768,0.512153,32,32765
3.37311,2.0313,0.506827,31,32765
3.41397,2.04073,0.51024,32,32765
3.41241,2.02437,0.507362,32,32765
3.41085,2.00789,0.504559,32,32765
3.44355,2.0114,0.506609,33,32765
3.46772,2.00967,0.507668,33,32765
3.44006,1.97858,0.501188,32,32765
3.45524,1.97241,0.500967,32,32765
3.45314,1.95635,0.498505,31,32765
3.45963,1.94518,0.497247,30,32765
3.50955,1.95796,0.501963,33,32765
3.52481,1.95121,0.502073,34,32765
3.49673,1.92035,0.495527,33,32765
3.53809,1.92782,0.499034,34,32765
3.55332,1.92088,0.499012,34,32765
3.53368,1.89489,0.494078,34,32765
3.57513,1.90197,0.497326,36,32765
3.55524,1.87622,0.492531,34,32765
3.56157,1.86452,0.491162,34,32765
3.60305,1.87114,0.494902,35,32765
3.59172,1.85021,0.491103,34,32765
3.61562,1.84736,0.49257,34,32765
3.6131,1.8308,0.490029,34,32765
3.61944,1.81861,0.488592,33,32765
3.6435,1.8153,0.489523,33,32765
3.63194,1.7942,0.486065,33,32765
3.66483,1.79515,0.488467,34,32765
3.63522,1.76561,0.482438,34,32765
3.68604,1.77497,0.486838,34,32765
3.65618,1.74553,0.481538,33,32765
3.707,1.75466,0.486034,35,32765
3.71295,1.74246,0.484468,35,32765
3.71878,1.73028,0.483398,36,32765
3.72464,1.71798,0.482195,35,32765
3.73948,1.70978,0.482216,35,32765
3.73627,1.69324,0.479727,33,32765
3.77828,1.69708,0.483093,34,32765
3.75687,1.67244,0.478025,32,32765
3.7899,1.6718,0.480255,32,32765
3.79555,1.65922,0.479251,32,32765
3.81949,1.6544,0.48015,32,32765
3.81605,1.63769,0.477661,32,32765
3.82163,1.6251,0.476034,32,32765
3.82706,1.61253,0.475131,32,32765
3.85083,1.60767,0.475927,33,32765
3.87462,1.60265,0.476707,33,32765
3.88918,1.5938,0.476457,34,32765
3.88545,1.57705,0.473944,33,32765
3.90931,1.57152,0.47459,34,32765
3.94239,1.56959,0.476319,35,32765
3.94771,1.55658,0.474938,35,32765
3.92512,1.53296,0.47015,33,32765
3.95801,1.53101,0.472298,34,32765
3.96316,1.51827,0.470239,35,32765
3.97747,1.50903,0.470029,35,32765
3.96391,1.48917,0.466287,33,32765
3.96888,1.47639,0.464611,34,32765
3.99249,1.47034,0.465303,34,32765
4.03487,1.47078,0.468008,35,32765
4.03981,1.45766,0.466394,36,32765
4.02601,1.43788,0.462297,35,32765
4.04959,1.43148,0.462714,35,32765
4.08254,1.42824,0.464185,36,32765
4.08737,1.41491,0.462551,36,32765
4.07326,1.39536,0.458693,36,32765
4.0685,1.37919,0.455562,35,32765
4.11074,1.37912,0.457653,36,32765
4.1152,1.36633,0.455889,35,32765
4.11974,1.35331,0.453729,36,32765
4.13366,1.34339,0.452831,28,32765
3.96771,1.27553,0.431765,18,32765
3.93394,1.25121,0.425543,13,32765
3.90957,1.23036,0.419368,14,32765
3.0744,2.26183,0.504716,24,32765
3.12209,2.28067,0.510977,24,32765
3.14569,2.28202,0.51325,25,32765
3.10477,2.23722,0.504816,24,32765
3.13607,2.2448,0.507982,25,32765
3.14352,2.23457,0.507,24,32765
3.18337,2.24709,0.511544,26,32765
3.17467,2.22519,0.508049,26,32765
3.17396,2.20911,0.505747,24,32765
3.18941,2.20444,0.506147,26,32765
3.20491,2.19964,0.506532,27,32765
3.19579,2.17809,0.502852,25,32765
3.22774,2.18428,0.505505,27,32765
3.22689,2.16805,0.503126,26,32765
3.2507,2.16837,0.504678,26,32765
3.23335,2.14104,0.499456,25,32765
3.26542,2.14672,0.502247,27,32765
3.26422,2.1307,0.499936,28,32765
3.29625,2.13626,0.50273,28,32765
3.28659,2.11491,0.499094,27,32765
3.30204,2.10948,0.499128,28,32765
3.30912,2.09867,0.497797,25,32765
3.31615,2.08784,0.496526,21,32765
3.24744,2.02968,0.483877,15,32765
0,0,0,0,32765
3.27798,2.01866,0.483998,13,32765
3.32725,2.03358,0.488743,18,32765
3.39363,2.05841,0.496235,28,32765
3.39213,2.04208,0.493394,27,32765
3.3734,2.0157,0.4886,27,32765
3.39716,2.01485,0.489974,28,32765
3.38678,1.99379,0.485886,27,32765
3.43637,2.00764,0.490749,29,32765
3.44328,1.99615,0.489157,30,32765
3.41575,1.96475,0.48305,27,32765
3.45696,1.97302,0.486562,28,32765
3.45502,1.95677,0.483605,28,32765
3.48754,1.96002,0.486069,28,32765
3.45942,1.92932,0.479806,29,32765
3.45732,1.91315,0.476692,29,32765
3.46377,1.90168,0.475746,28,32765
3.50516,1.90911,0.479106,29,32765
3.5204,1.90221,0.478824,30,32765
3.54437,1.89988,0.47999,30,32765
3.53328,1.87888,0.47607,29,32765
3.54847,1.87183,0.475597,30,32765
3.58998,1.87861,0.478867,28,32765
3.52585,1.83007,0.468195,28,32765
3.60277,1.85463,0.476249,29,32765
3.61799,1.84707,0.47598,30,32765
3.5978,1.82147,0.470881,29,32765
3.63069,1.82284,0.472689,29,32765
3.58354,1.7843,0.464154,29,32765
3.61625,1.78569,0.466573,30,32765
3.61342,1.7693,0.464012,30,32765
3.6195,1.75723,0.462441,29,32765
3.6524,1.75799,0.464618,29,32765
3.66737,1.75014,0.464218,30,32765
3.65531,1.72964,0.460411,30,32765
3.70604,1.73883,0.464913,29,32765
3.73889,1.73929,0.466972,30,32765
3.69964,1.70617,0.460058,29,32765
3.75064,1.71457,0.464162,29,32765
3.71116,1.68167,0.457497,28,32765
3.79855,1.70581,0.466212,29,32765
3.75901,1.67283,0.459475,29,32765
3.81922,1.68441,0.465114,31,32765
3.79755,1.66003,0.460188,30,32765
3.78482,1.63978,0.4569,28,32765
3.78121,1.62336,0.454693,28,32765
3.80503,1.6185,0.455885,27,32765
3.893,1.64052,0.464492,30,32765
3.86187,1.61218,0.459315,29,32765
3.90397,1.61479,0.462559,32,32765
3.83575,1.57194,0.452723,30,32765
3.89615,1.58197,0.458542,31,32765
3.88298,1.56183,0.455263,29,32765
3.8789,1.54557,0.45316,28,32765
3.9487,1.55854,0.460047,32,32765
3.91683,1.5312,0.454741,29,32765
3.89405,1.50764,0.450956,28,32765
3.92684,1.50578,0.453279,28,32765
3.96902,1.50704,0.456746,31,32765
3.99255,1.50119,0.458365,31,32765
4.00683,1.49164,0.458618,31,32765
4.01177,1.47845,0.458122,31,32765
3.96992,1.44842,0.452045,30,32765
4.0121,1.44901,0.455564,31,32765
4.05422,1.44945,0.459672,31,32765
4.04955,1.43293,0.458493,31,32765
4.00735,1.40333,0.452487,29,32765
4.04007,1.40015,0.455392,31,32765
4.05398,1.39043,0.456153,29,32765
4.05839,1.37757,0.455896,31,32765
4.07218,1.36777,0.457164,30,32765
4.07657,1.35474,0.456807,30,32765
4.06199,1.33558,0.45438,30,32765
4.06607,1.32293,0.454942,26,32765
3.89975,1.25548,0.436036,15,32765
0,0,0,0,32765
4.06888,1.2811,0.455067,12,32765
3.09223,2.27881,0.471255,28,32765
3.10797,2.27419,0.472178,28,32765
3.10749,2.25809,0.470615,28,32765
3.13085,2.25979,0.472462,28,32765
3.17838,2.27886,0.477766,30,32765
3.19404,2.27424,0.477979,31,32765
3.18541,2.25223,0.474886,30,32765
3.19298,2.24168,0.473987,29,32765
3.20861,2.23687,0.474177,31,32765
3.19967,2.21513,0.470869,29,32765
3.21521,2.21028,0.471155,30,32765
3.20612,2.18865,0.467657,29,32765
3.24634,2.20039,0.471216,30,32765
3.23731,2.17852,0.467732,30,32765
3.27768,2.18985,0.471467,31,32765
3.25212,2.15688,0.465327,31,32765
3.27596,2.15704,0.466649,31,32765
3.27479,2.14095,0.464426,31,32765
3.30688,2.14649,0.466934,32,32765
3.32228,2.1412,0.467,31,32765
3.32946,2.13029,0.465755,31,32765
3.31984,2.10872,0.462078,32,32765
3.31011,2.08724,0.458473,27,32765
3.27501,2.05005,0.451306,20,32765
3.23121,2.0079,0.443308,16,32765
3.19579,1.97105,0.436214,16,32765
3.27034,2.00183,0.443977,16,32765
3.24326,1.97018,0.438216,19,32765
3.40311,2.05178,0.457257,32,32765
3.41849,2.0457,0.4573,34,32765
3.44236,2.04471,0.45847,34,32765
3.41495,2.01337,0.452278,33,32765
3.44748,2.01712,0.4544,34,32765
3.41146,1.98063,0.44717,32,32765
3.44412,1.98398,0.44931,32,32765
3.44228,1.96752,0.446835,31,32765
3.49218,1.9807,0.450671,32,32765
3.49882,1.96922,0.449502,32,32765
3.49673,1.95295,0.446934,32,32765
3.50338,1.94144,0.444995,33,32765
3.50122,1.92501,0.442933,33,32765
3.53399,1.92758,0.444803,34,32765
3.5493,1.92057,0.444414,35,32765
3.53831,1.89933,0.441015,34,32765
3.54475,1.88765,0.439459,33,32765
3.57755,1.88984,0.441053,34,32765
3.57511,1.87347,0.438534,32,32765
3.57267,1.85697,0.436154,33,32765
3.5967,1.8541,0.436998,34,32765
3.62964,1.85559,0.438776,35,32765
3.62718,1.83889,0.436084,34,32765
3.63349,1.82678,0.43441,34,32765
3.6486,1.8192,0.433841,34,32765
3.64579,1.80275,0.431736,34,32765
3.6698,1.79936,0.432412,35,32765
3.67598,1.78709,0.430815,34,32765
3.70004,1.78334,0.431645,34,32765
3.68818,1.76245,0.428006,33,32765
3.71209,1.75888,0.428526,33,32765
3.70894,1.74253,0.426332,34,32765
3.72379,1.73458,0.426045,33,32765
3.75673,1.73481,0.42783,34,32765
3.72645,1.70577,0.422219,33,32765
3.76843,1.70988,0.425227,32,32765
3.74711,1.68492,0.420849,34,32765
3.78924,1.68849,0.423741,33,32765
3.78584,1.67187,0.421712,34,32765
3.80057,1.66351,0.42112,34,32765
3.83346,1.66301,0.423054,33,32765
3.82078,1.64246,0.41992,33,32765
3.85384,1.64135,0.421915,33,32765
3.80444,1.60524,0.414674,33,32765
3.8466,1.60784,0.417867,33,32765
3.87953,1.6067,0.419744,34,32765
3.87566,1.59028,0.417608,34,32765
3.90852,1.58896,0.419885,34,32765
3.91381,1.57618,0.418765,34,32765
3.89128,1.55241,0.414775,33,32765
3.96116,1.56538,0.421003,36,32765
3.92001,1.53431,0.415087,34,32765
3.92507,1.52149,0.414521,33,32765
3.95792,1.51953,0.416555,34,32765
3.98157,1.51361,0.417688,35,32765
3.99582,1.50421,0.418141,36,32765
4.01013,1.49463,0.418299,35,32765
4.03376,1.48829,0.419744,36,32765
4.0106,1.46496,0.416071,35,32765
4.05286,1.46542,0.419206,37,32765
4.06696,1.45567,0.420033,37,32765
4.08108,1.44572,0.420882,37,32765
4.05766,1.42255,0.41727,35,32765
4.08108,1.41594,0.418924,37,32765
4.08563,1.40284,0.418623,36,32765
4.10894,1.39626,0.420291,36,32765
4.0945,1.37676,0.418574,35,32765
4.10837,1.36678,0.419177,35,32765
4.13164,1.35993,0.420787,35,32765
4.14527,1.35011,0.422321,36,32765
4.08311,1.31588,0.415715,23,32765
3.92599,1.2515,0.399948,14,32765
3.89206,1.22667,0.396452,13,32765
3.08641,2.26664,0.485802,25,32765
3.11858,2.27377,0.486345,25,32765
3.12669,2.26323,0.483446,26,32765
3.11835,2.24142,0.47838,25,32765
3.16629,2.26023,0.482102,26,32765
3.17398,2.25005,0.479076,27,32765
3.15734,2.2225,0.473062,26,32765
3.18932,2.22925,0.47442,28,32765
3.20501,2.22455,0.473489,27,32765
3.22897,2.22536,0.473265,28,32765
3.22011,2.20357,0.469094,27,32765
3.23587,2.19862,0.467772,27,32765
3.21048,2.16575,0.460782,27,32765
3.27571,2.1938,0.466751,28,32765
3.25019,2.1609,0.46008,27,32765
3.26592,2.15556,0.459233,26,32765
3.2899,2.15562,0.459894,28,32765
3.27222,2.12868,0.454135,28,32765
3.28768,2.12347,0.453469,28,32765
3.31151,2.12365,0.453428,28,32765
3.35208,2.13431,0.456407,29,32765
3.30886,2.09156,0.447671,26,32765
3.29909,2.07022,0.443384,23,32765
3.247,2.02272,0.433651,16,32765
3.29613,2.03818,0.437466,16,32765
3.17599,1.94926,0.419468,14,32765
3.24205,1.97492,0.425653,14,32765
3.30832,2.00022,0.431571,22,32765
3.40878,2.04563,0.442324,29,32765
3.40719,2.02926,0.439572,28,32765
3.39702,2.00792,0.435235,28,32765
3.42099,2.00676,0.435685,28,32765
3.41066,1.98541,0.431764,27,32765
3.44309,1.98923,0.433706,27,32765
3.38946,1.94327,0.424474,26,32765
3.45649,1.96656,0.430498,28,32765
3.43718,1.94053,0.425492,28,32765
3.48717,1.95343,0.429114,29,32765
3.48501,1.93712,0.427059,30,32765
3.50901,1.93528,0.427151,33,32765
3.498,1.91422,0.424055,30,32765
3.5306,1.91704,0.425884,31,32765
3.51957,1.89594,0.422376,30,32765
3.56108,1.90307,0.425005,30,32765
3.6027,1.90979,0.42806,32,32765
3.5828,1.88395,0.423295,30,32765
3.57156,1.86278,0.420136,28,32765
3.56915,1.84623,0.417396,29,32765
3.58431,1.83875,0.417382,29,32765
3.60834,1.83576,0.41805,29,32765
3.61463,1.8237,0.416556,29,32765
3.61203,1.80703,0.414151,29,32765
3.64484,1.80835,0.416097,30,32765
3.64201,1.79187,0.413946,30,32765
3.64808,1.7798,0.412597,30,32765
3.65409,1.76781,0.410934,30,32765
3.67812,1.76414,0.411411,28,32765
3.66608,1.74343,0.408298,29,32765
3.663,1.72698,0.406058,30,32765
3.67788,1.71903,0.405648,29,32765
3.72881,1.72776,0.409502,29,32765
3.74372,1.71963,0.408683,30,32765
3.78574,1.72373,0.411507,31,32765
3.70992,1.6744,0.401236,28,32765
3.77018,1.68641,0.405338,30,32765
3.75766,1.66585,0.402252,31,32765
3.79072,1.66524,0.403742,28,32765
3.80549,1.6566,0.403538,30,32765
3.80199,1.64004,0.400951,29,32765
3.79841,1.62344,0.398765,29,32765
3.80398,1.61077,0.397076,30,32765
3.83701,1.60959,0.398661,29,32765
3.84256,1.59678,0.396796,29,32765
3.8755,1.59554,0.39856,30,32765
3.90851,1.59416,0.399795,29,32765
3.90462,1.57769,0.397146,30,32765
3.87285,1.5502,0.392399,29,32765
3.90582,1.54854,0.393743,29,32765
3.93881,1.54669,0.395037,30,32765
3.93472,1.53027,0.392238,31,32765
3.97702,1.53172,0.394374,33,32765
3.9356,1.50104,0.388339,30,32765
3.96855,1.49884,0.389431,31,32765
3.97355,1.48595,0.387904,30,32765
4.01594,1.4867,0.389814,32,32765
3.99297,1.46311,0.385265,30,32765
4.00729,1.45336,0.384364,31,32765
4.02149,1.44384,0.38348,29,32765
4.0357,1.43408,0.382791,31,32765
4.01228,1.41125,0.37802,30,32765
4.03575,1.4049,0.378305,31,32765
4.03098,1.38871,0.375575,29,32765
4.06382,1.38563,0.376157,30,32765
4.10601,1.38582,0.377734,30,32765
4.08218,1.36341,0.373273,30,32765
4.11508,1.35968,0.374061,31,32765
4.10077,1.34009,0.369829,30,32765
4.09571,1.32403,0.36674,29,32765
4.09989,1.3117,0.364401,26,32765
4.03754,1.27825,0.356217,16,32765
0,0,0,0,32765
3.12005,2.29538,0.45446,29,32765
3.16033,2.30827,0.455843,30,32765
3.13638,2.27424,0.448304,29,32765
3.14418,2.26396,0.445699,29,32765
3.15988,2.2596,0.444385,30,32765
3.17565,2.25518,0.442493,31,32765
3.20773,2.26192,0.443491,32,32765
3.17473,2.22292,0.435595,30,32765
3.21487,2.23528,0.437912,31,32765
3.18161,2.19653,0.429757,29,32765
3.23822,2.21981,0.434599,31,32765
3.22937,2.19801,0.429885,30,32765
3.26161,2.20404,0.430888,32,32765
3.23618,2.17107,0.42426,31,32765
3.26848,2.1768,0.425525,31,32765
3.26768,2.16043,0.422427,32,32765
3.28336,2.15502,0.42183,32,32765
3.29898,2.14975,0.420601,32,32765
3.28947,2.12824,0.416652,32,32765
3.29657,2.11767,0.414317,32,32765
3.36229,2.14444,0.42007,34,32765
3.33588,2.11221,0.413972,31,32765
3.33458,2.09603,0.410892,30,32765
3.29942,2.05884,0.403856,21,32765
3.23875,2.00607,0.393806,16,32765
3.22013,1.97966,0.389531,16,32765
3.3033,2.01559,0.397078,17,32765
3.30166,1.99952,0.394177,25,32765
3.40217,2.04505,0.403902,36,32765
3.4262,2.04397,0.404269,33,32765
3.42462,2.02758,0.401108,33,32765
3.4744,2.04145,0.40435,35,32765
3.44699,2.00985,0.398598,34,32765
3.44506,1.99363,0.396281,33,32765
3.46907,1.99216,0.39658,33,32765
3.47577,1.98076,0.395032,33,32765
3.48248,1.9693,0.39323,33,32765
3.49787,1.9626,0.392463,34,32765
3.49573,1.94622,0.390497,33,32765
3.51976,1.94434,0.390394,33,32765
3.53497,1.93756,0.390372,33,32765
3.55891,1.93551,0.390943,35,32765
3.57421,1.92845,0.390481,35,32765
3.57197,1.91192,0.387943,35,32765
3.56968,1.89528,0.385866,34,32765
3.58494,1.88805,0.385181,34,32765
3.58253,1.87145,0.383151,33,32765
3.59782,1.86398,0.382376,34,32765
3.6219,1.86093,0.383194,34,32765
3.61053,1.83974,0.379925,33,32765
3.64349,1.84111,0.381218,35,32765
3.64984,1.82877,0.37982,35,32765
3.65599,1.81668,0.3787,35,32765
3.65319,1.80013,0.376638,34,32765
3.65928,1.788,0.375283,33,32765
3.68324,1.78463,0.37544,34,32765
3.6804,1.76792,0.372986,33,32765
3.67735,1.75145,0.370966,33,32765
3.71032,1.75193,0.37243,34,32765
3.69822,1.73114,0.369205,33,32765
3.74019,1.73563,0.371685,35,32765
3.72798,1.71496,0.368084,33,32765
3.76094,1.71499,0.369646,34,32765
3.74857,1.69436,0.366438,33,32765
3.78165,1.69405,0.367308,33,32765
3.78736,1.68149,0.366165,35,32765
3.79313,1.66875,0.364731,33,32765
3.80792,1.66008,0.364431,34,32765
3.80441,1.64349,0.361935,33,32765
3.85579,1.65036,0.365043,34,32765
3.85227,1.63359,0.362464,35,32765
3.85785,1.62067,0.36117,34,32765
3.86342,1.60777,0.359293,35,32765
3.86878,1.59506,0.35821,34,32765
3.87412,1.5824,0.356617,33,32765
3.8979,1.57722,0.35661,34,32765
3.9216,1.57195,0.357295,35,32765
3.94538,1.56644,0.357499,35,32765
3.91353,1.53893,0.352646,33,32765
3.93726,1.53342,0.352444,34,32765
3.98889,1.53845,0.355031,36,32765
3.99401,1.52544,0.35358,36,32765
4.00841,1.516,0.352725,36,32765
3.97612,1.48898,0.347914,34,32765
4.00919,1.48625,0.348634,35,32765
4.0049,1.46951,0.345984,35,32765
4.02862,1.46311,0.345787,36,32765
4.03346,1.45013,0.343999,35,32765
4.04769,1.44031,0.34321,35,32765
4.04306,1.42402,0.340296,35,32765
4.11365,1.43397,0.344321,37,32765
4.09011,1.411,0.34008,36,32765
4.09473,1.39806,0.338013,36,32765
4.12752,1.39496,0.338424,36,32765
4.1226,1.37877,0.335774,36,32765
4.13663,1.36863,0.33473,36,32765
4.14127,1.35514,0.332192,37,32765
4.14573,1.342,0.329929,36,32765
4.13096,1.3234,0.326061,34,32765
4.06858,1.28979,0.318516,23,32765
4.01567,1.25927,0.311439,16,32765
3.13318,2.30244,0.41242,27,32765
3.11682,2.27437,0.408745,25,32765
3.09217,2.24078,0.403725,25,32765
3.11581,2.24215,0.405055,25,32765
3.17178,2.26659,0.410813,25,32765
3.16319,2.24453,0.407789,26,32765
3.17065,2.2342,0.40659,26,32765
3.21864,2.25259,0.410751,29,32765
3.18526,2.21369,0.404549,27,32765
3.17626,2.19195,0.401404,26,32765
3.20006,2.19259,0.402686,26,32765
3.23218,2.19875,0.404205,28,32765
3.23949,2.18815,0.403266,28,32765
3.23858,2.17192,0.400947,28,32765
3.31198,2.20559,0.407626,31,32765
3.28607,2.1728,0.40283,29,32765
3.27673,2.15109,0.399286,28,32765
3.28406,2.14016,0.397806,28,32765
3.29138,2.12913,0.396536,26,32765
3.27352,2.102,0.392063,27,32765
3.28895,2.09656,0.391938,28,32765
3.31278,2.09645,0.392438,28,32765
3.3534,2.10694,0.394891,29,32765
3.34345,2.08558,0.391563,28,32765
3.26573,2.02241,0.380082,14,32765
3.28955,2.0219,0.381039,16,32765
3.27092,1.99536,0.377006,16,32765
3.33726,2.02062,0.382384,15,32765
3.36972,2.02486,0.383985,26,32765
3.40218,2.02905,0.38541,29,32765
3.409,2.01787,0.383793,29,32765
3.43305,2.01661,0.383996,29,32765
3.45694,2.01538,0.384937,28,32765
3.45515,1.99898,0.382215,28,32765
3.47046,1.99258,0.382038,31,32765
3.43401,1.95635,0.375751,28,32765
3.46673,1.95954,0.37681,29,32765
3.50823,1.96734,0.378741,30,32765
3.48885,1.94107,0.374465,30,32765
3.48669,1.9247,0.37224,30,32765
3.51063,1.92279,0.372508,29,32765
3.51714,1.91124,0.370584,29,32765
3.55858,1.91866,0.372652,30,32765
3.51238,1.87871,0.365585,29,32765
3.5803,1.89975,0.370542,30,32765
3.56031,1.87391,0.366435,29,32765
3.58432,1.8713,0.366675,30,32765
3.55532,1.841,0.361707,28,32765
3.57938,1.83816,0.361685,28,32765
3.62108,1.84434,0.36416,28,32765
3.63632,1.8366,0.363556,29,32765
3.59805,1.8021,0.357843,29,32765
3.64881,1.81228,0.360483,31,32765
3.69072,1.81774,0.362338,31,32765
3.66991,1.79261,0.35819,29,32765
3.6492,1.76717,0.35408,29,32765
3.6553,1.75481,0.352599,29,32765
3.67923,1.75122,0.35301,28,32765
3.67614,1.73476,0.350772,30,32765
3.72696,1.744,0.353737,29,32765
3.71476,1.72332,0.350484,30,32765
3.70245,1.70271,0.347528,30,32765
3.73535,1.70294,0.348605,32,32765
3.7684,1.70274,0.34978,30,32765
3.79227,1.69852,0.350186,29,32765
3.7616,1.66965,0.345691,29,32765
3.83118,1.68513,0.349851,30,32765
3.79116,1.65253,0.344608,29,32765
3.7967,1.64001,0.343398,29,32765
3.82046,1.63547,0.343867,29,32765
3.84434,1.63057,0.344101,29,32765
3.83146,1.6101,0.341189,29,32765
3.83674,1.59764,0.340409,29,32765
3.87894,1.60021,0.342387,30,32765
3.84729,1.57253,0.338274,27,32765
3.85258,1.5598,0.336926,28,32765
3.93181,1.57677,0.342306,31,32765
3.95555,1.5713,0.342794,31,32765
3.90513,1.5364,0.336954,29,32765
3.91015,1.52372,0.336318,31,32765
3.9152,1.51085,0.335561,31,32765
3.97613,1.51929,0.339183,32,32765
3.95316,1.49566,0.33628,30,32765
3.99543,1.49677,0.338527,31,32765
3.99094,1.48051,0.336799,30,32765
3.9864,1.46408,0.335673,31,32765
3.99122,1.45115,0.334582,30,32765
3.97715,1.43147,0.332862,29,32765
4.01008,1.42836,0.334566,30,32765
4.02408,1.41879,0.33501,30,32765
4.0193,1.40244,0.33359,30,32765
4.05219,1.39901,0.335386,30,32765
4.10388,1.40209,0.338793,32,32765
4.08946,1.38257,0.33721,31,32765
4.08434,1.36653,0.336415,32,32765
4.10768,1.35968,0.337465,31,32765
4.15939,1.362,0.34141,32,32765
4.10678,1.33036,0.336807,32,32765
4.1394,1.32658,0.339371,32,32765
4.04842,1.28362,0.33204,19,32765
3.99527,1.25301,0.328243,14,32765
3.11791,2.29584,0.37399,30,32765
3.12564,2.28538,0.373474,29,32765
3.12519,2.26924,0.371696,29,32765
3.15701,2.27632,0.373784,31,32765
3.16456,2.26591,0.373245,30,32765
3.12352,2.22075,0.366599,28,32765
3.18782,2.25072,0.372055,30,32765
3.21143,2.25195,0.372902,31,32765
3.19439,2.22436,0.369054,29,32765
3.20999,2.21952,0.368912,31,32765
3.23389,2.22006,0.369997,30,32765
3.23321,2.20369,0.367476,31,32765
3.24878,2.19864,0.367466,30,32765
3.26443,2.19345,0.367094,32,32765
3.26338,2.17738,0.36468,32,32765
3.28718,2.17766,0.365808,32,32765
3.26953,2.15043,0.361528,30,32765
3.31021,2.16128,0.363713,32,32765
3.30924,2.14472,0.361518,32,32765
3.34168,2.1498,0.36277,33,32765
3.34888,2.13876,0.361619,33,32765
3.3308,2.11178,0.35739,32,32765
3.33777,2.10102,0.355863,32,32765
3.37847,2.11133,0.358098,33,32765
3.36851,2.08992,0.354661,30,32765
3.34168,2.05773,0.350066,24,32765
3.25517,1.9894,0.339208,18,32765
3.26189,1.97861,0.337763,18,32765
3.31129,1.99339,0.340868,18,32765
3.37786,2.01821,0.345534,28,32765
3.41892,2.02741,0.347409,32,32765
3.443,2.02611,0.347418,33,32765
3.46694,2.02485,0.348166,34,32765
3.45655,2.00339,0.344671,32,32765
3.48914,2.00691,0.34611,34,32765
3.47868,1.98535,0.34284,33,32765
3.50284,1.98349,0.342744,34,32765
3.49231,1.9619,0.339216,33,32765
3.51642,1.95989,0.339426,34,32765
3.50559,1.93856,0.336445,33,32765
3.52085,1.93179,0.335682,33,32765
3.53613,1.92495,0.334579,33,32765
3.5601,1.92285,0.334613,34,32765
3.56659,1.91105,0.333026,34,32765
3.56424,1.89454,0.33077,33,32765
3.57948,1.88729,0.330201,33,32765
3.59472,1.87999,0.329434,34,32765
3.63651,1.8863,0.331283,35,32765
3.61641,1.86039,0.327022,34,32765
3.63156,1.85287,0.326712,34,32765
3.66462,1.85408,0.327598,33,32765
3.65312,1.83282,0.324718,34,32765
3.65045,1.8162,0.322134,35,32765
3.66557,1.80843,0.321261,34,32765
3.66262,1.79209,0.318962,35,32765
3.68674,1.78838,0.319015,34,32765
3.69291,1.77587,0.317517,34,32765
3.69892,1.76356,0.316187,34,32765
3.68685,1.74274,0.313267,34,32765
3.72868,1.74774,0.314995,34,32765
3.72553,1.73121,0.312686,34,32765
3.73135,1.71886,0.311423,35,32765
3.77339,1.72314,0.312958,35,32765
3.77925,1.71048,0.311588,34,32765
3.77586,1.69396,0.309564,34,32765
3.79073,1.68535,0.309163,34,32765
3.77825,1.66458,0.305999,34,32765
3.80211,1.66002,0.306394,34,32765
3.82598,1.65536,0.306646,35,32765
3.80397,1.63106,0.303263,34,32765
3.82784,1.62621,0.303314,33,32765
3.8609,1.6251,0.304215,35,32765
3.89384,1.62404,0.305594,34,32765
3.88084,1.60357,0.30286,35,32765
3.90457,1.59849,0.303424,35,32765
3.89146,1.57806,0.300626,33,32765
3.89673,1.56519,0.29955,33,32765
3.92045,1.55982,0.299859,34,32765
3.92564,1.54692,0.298829,33,32765
3.95858,1.54501,0.300302,35,32765
3.93579,1.52118,0.297425,34,32765
4.0061,1.53313,0.301177,36,32765
3.98317,1.50936,0.29855,35,32765
3.99748,1.49985,0.298321,35,32765
4.02104,1.49397,0.29877,36,32765
4.02591,1.48086,0.298428,36,32765
4.01204,1.46094,0.295942,35,32765
4.02615,1.45131,0.296481,35,32765
4.04978,1.44468,0.297204,35,32765
4.08265,1.44161,0.298927,37,32765
4.1062,1.43491,0.299653,38,32765
4.12036,1.42466,0.299781,37,32765
4.09665,1.40169,0.29723,36,32765
4.12947,1.39815,0.299257,37,32765
4.11494,1.37878,0.29787,36,32765
4.12886,1.36868,0.298043,37,32765
4.14272,1.35851,0.298783,36,32765
4.17548,1.35456,0.300897,38,32765
4.1797,1.34142,0.301128,37,32765
4.14578,1.31635,0.298853,34,32765
4.0261,1.26446,0.290827,17,32765
3.13686,2.30105,0.391665,27,32765
3.12885,2.27882,0.386489,26,32765
3.11255,2.25098,0.380408,26,32765
3.12015,2.24086,0.377908,27,32765
3.14404,2.24221,0.376704,27,32765
3.18424,2.25477,0.37817,27,32765
3.17568,2.23283,0.373489,28,32765
3.20778,2.23946,0.373954,28,32765
3.1662,2.19508,0.365644,25,32765
3.20646,2.20725,0.367056,27,32765
3.18932,2.17985,0.361807,25,32765
3.18028,2.15809,0.357874,25,32765
3.19588,2.15317,0.356494,26,32765
3.25277,2.17601,0.359693,28,32765
3.25179,2.1599,0.356472,28,32765
3.25069,2.14389,0.35339,28,32765
3.30795,2.16591,0.356683,29,32765
3.30697,2.14956,0.353487,28,32765
3.28912,2.12247,0.348934,27,32765
3.29641,2.11148,0.346766,28,32765
3.34551,2.12745,0.349198,28,32765
3.31051,2.08992,0.343007,26,32765
3.33445,2.08965,0.342518,28,32765
3.34135,2.07889,0.34072,28,32765
3.37377,2.08366,0.341278,24,32765
3.2788,2.01019,0.328993,15,32765
3.28556,1.99934,0.327557,16,32765
3.24969,1.96268,0.321659,16,32765
3.22209,1.93156,0.316399,14,32765
3.44275,2.04825,0.335505,28,32765
3.39815,2.00653,0.328636,27,32765
3.40495,1.99526,0.326834,29,32765
3.43761,1.99889,0.327709,30,32765
3.46161,1.99752,0.327576,29,32765
3.45112,1.97606,0.32419,30,32765
3.44045,1.95479,0.320935,29,32765
3.49045,1.96788,0.323418,30,32765
3.46234,1.93674,0.31877,30,32765
3.49497,1.93988,0.319613,28,32765
3.52773,1.94272,0.32027,30,32765
3.54302,1.9358,0.319633,30,32765
3.51444,1.90514,0.315008,29,32765
3.53852,1.90279,0.31488,29,32765
3.56247,1.90057,0.314863,31,32765
3.54248,1.87469,0.311017,29,32765
3.59292,1.88618,0.313291,29,32765
3.59042,1.86976,0.310633,30,32765
3.60562,1.86235,0.309929,30,32765
3.61181,1.85048,0.30893,30,32765
3.6181,1.83837,0.307664,29,32765
3.60659,1.81725,0.304295,30,32765
3.65746,1.82726,0.306809,28,32765
3.67276,1.81911,0.306223,33,32765
3.67891,1.80683,0.305034,31,32765
3.63128,1.76829,0.299017,29,32765
3.65522,1.76491,0.298938,30,32765
3.69708,1.77012,0.300588,30,32765
3.68505,1.7492,0.29805,29,32765
3.70894,1.74562,0.297805,31,32765
3.71487,1.7332,0.296322,32,32765
3.72068,1.72089,0.295291,30,32765
3.74462,1.71686,0.295115,29,32765
3.72324,1.6919,0.291455,30,32765
3.75617,1.69195,0.29227,30,32765
3.75285,1.67526,0.289938,30,32765
3.76763,1.66681,0.289146,29,32765
3.80986,1.67015,0.290557,29,32765
3.80648,1.65325,0.288261,28,32765
3.83039,1.64846,0.288226,30,32765
3.83603,1.63557,0.286691,32,32765
3.8047,1.60753,0.282367,29,32765
3.83763,1.60664,0.28323,29,32765
3.86148,1.60163,0.282629,29,32765
3.89445,1.6004,0.283545,31,32765
3.85364,1.56872,0.278394,29,32765
3.88662,1.56732,0.278769,29,32765
3.91969,1.56554,0.279373,29,32765
3.87861,1.53412,0.27435,29,32765
3.95808,1.55044,0.278157,31,32765
4.0005,1.55187,0.278744,32,32765
3.94048,1.51368,0.272508,30,32765
3.97344,1.51159,0.272894,32,32765
3.98783,1.50208,0.271737,30,32765
4.01141,1.4963,0.271661,32,32765
3.97896,1.46934,0.267218,30,32765
4.00259,1.46322,0.266814,32,32765
4.05439,1.46714,0.26804,32,32765
4.02175,1.44033,0.263343,32,32765
4.04527,1.43406,0.263254,31,32765
4.03119,1.41432,0.260059,31,32765
4.07347,1.41464,0.260823,30,32765
4.12528,1.41791,0.261751,33,32765
4.11105,1.39822,0.258409,32,32765
4.08721,1.37561,0.254622,32,32765
4.10117,1.36568,0.2535,31,32765
4.12458,1.35894,0.25221,31,32765
4.14793,1.35219,0.251308,33,32765
4.11432,1.32685,0.246511,30,32765
4.16612,1.32925,0.246949,32,32765
4.16097,1.31293,0.243848,33,32765
4.06982,1.27039,0.235749,21,32765
3.09728,2.27674,0.350609,28,32765
3.12938,2.28395,0.350157,28,32765
3.14535,2.27942,0.347921,30,32765
3.15303,2.26917,0.345391,29,32765
3.15268,2.25304,0.341331,29,32765
3.19292,2.26559,0.342414,32,32765
3.19253,2.24931,0.338773,31,32765
3.19202,2.23306,0.335509,30,32765
3.22404,2.23978,0.335432,32,32765
3.19884,2.20653,0.329662,31,32765
3.23922,2.2185,0.33057,32,32765
3.25502,2.21334,0.329288,31,32765
3.22951,2.18028,0.32362,30,32765
3.27821,2.19751,0.325409,32,32765
3.28559,2.1868,0.323076,32,32765
3.26794,2.15965,0.318441,31,32765
3.30025,2.16526,0.318744,32,32765
3.31596,2.15978,0.317242,31,32765
3.30651,2.13801,0.313756,31,32765
3.31385,2.12693,0.311573,31,32765
3.32096,2.1161,0.309605,32,32765
3.37017,2.13186,0.311685,34,32765
3.31825,2.08368,0.304004,31,32765
3.35897,2.09404,0.305288,33,32765
3.38296,2.09351,0.304787,32,32765
3.33047,2.04595,0.297411,25,32765
3.38844,2.06605,0.30048,17,32765
3.32719,2.01348,0.292742,19,32765
3.28265,1.97176,0.286317,18,32765
3.3236,1.98127,0.287487,18,32765
3.42467,2.02618,0.293758,32,32765
3.48314,2.0451,0.29633,34,32765
3.46426,2.01835,0.292519,34,32765
3.47969,2.01189,0.291458,35,32765
3.48654,2.00025,0.289686,34,32765
3.48462,1.98376,0.287314,34,32765
3.50867,1.98201,0.287172,34,32765
3.4893,1.95562,0.283597,33,32765
3.51328,1.95382,0.283441,34,32765
3.51989,1.94215,0.281708,34,32765
3.52643,1.93045,0.280283,33,32765
3.55042,1.92834,0.280188,33,32765
3.56579,1.92114,0.279164,35,32765
3.56341,1.90471,0.276894,34,32765
3.5875,1.90214,0.276726,35,32765
3.5674,1.87635,0.273101,34,32765
3.5737,1.8646,0.271219,34,32765
3.59774,1.86181,0.271094,34,32765
3.61281,1.8545,0.27076,36,32765
3.65468,1.86047,0.272139,35,32765
3.65215,1.84367,0.269595,36,32765
3.64958,1.82675,0.267694,35,32765
3.66488,1.81861,0.267015,35,32765
3.68894,1.81514,0.267122,36,32765
3.6772,1.79399,0.26424,35,32765
3.68325,1.78176,0.26267,34,32765
3.69819,1.77394,0.26202,35,32765
3.72221,1.77011,0.262207,35,32765
3.71007,1.74937,0.259232,34,32765
3.7341,1.74538,0.259001,35,32765
3.71277,1.72039,0.256088,34,32765
3.74579,1.72054,0.256347,35,32765
3.76983,1.7162,0.256051,34,32765
3.76645,1.69968,0.25411,35,32765
3.77226,1.68699,0.252475,35,32765
3.78708,1.67846,0.25158,34,32765
3.81109,1.67371,0.2514,35,32765
3.79855,1.65279,0.248596,33,32765
3.83163,1.65197,0.24897,34,32765
3.84646,1.64296,0.248024,34,32765
3.84271,1.62651,0.245834,34,32765
3.82048,1.60233,0.24289,34,32765
3.87197,1.60885,0.24385,35,32765
3.86804,1.59238,0.242167,35,32765
3.88265,1.58334,0.240938,35,32765
3.90643,1.57811,0.240447,35,32765
3.93027,1.57255,0.240194,35,32765
3.95417,1.56677,0.239571,35,32765
3.94082,1.54641,0.237007,35,32765
4.00184,1.55513,0.238334,36,32765
3.93249,1.51327,0.232203,33,32765
4.00277,1.52543,0.234495,36,32765
4.00786,1.51228,0.232686,35,32765
4.03148,1.50642,0.232414,37,32765
4.01777,1.48627,0.229405,35,32765
4.04145,1.48001,0.228795,35,32765
4.04637,1.46679,0.226899,36,32765
4.05131,1.45344,0.224665,36,32765
4.06546,1.44372,0.223859,36,32765
4.06082,1.42719,0.221354,37,32765
4.07485,1.41757,0.220199,36,32765
4.12667,1.42084,0.220655,38,32765
4.12188,1.40433,0.217999,37,32765
4.1359,1.3944,0.216469,37,32765
4.15939,1.38746,0.215721,38,32765
4.13544,1.36486,0.211778,36,32765
4.18729,1.36738,0.212125,36,32765
4.1632,1.34492,0.208154,37,32765
4.177,1.33501,0.206213,37,32765
4.1909,1.32465,0.204125,36,32765
4.18555,1.30877,0.201069,34,32765
3.16577,2.32449,0.313473,27,32765
3.12503,2.27896,0.308114,26,32765
3.17293,2.29794,0.311234,26,32765
3.18866,2.29332,0.31102,28,32765
3.17202,2.26528,0.30803,27,32765
3.17148,2.24899,0.306163,27,32765
3.18712,2.24429,0.305815,25,32765
3.16179,2.21113,0.301458,25,32765
3.20186,2.2235,0.303649,26,32765
3.20093,2.2075,0.301649,26,32765
3.20839,2.1968,0.300518,27,32765
3.24052,2.20294,0.301611,28,32765
3.23964,2.18668,0.2993,28,32765
3.25518,2.18161,0.298804,27,32765
3.29566,2.19301,0.300417,28,32765
3.24477,2.14363,0.29386,28,32765
3.28537,2.1547,0.295383,27,32765
3.25916,2.12206,0.29111,26,32765
3.26626,2.11129,0.289808,26,32765
3.34042,2.14369,0.294294,29,32765
3.33069,2.1221,0.291175,29,32765
3.33769,2.11123,0.290055,28,32765
3.34467,2.10036,0.288602,28,32765
3.38552,2.11052,0.28971,29,32765
3.37564,2.0888,0.287025,30,32765
3.31467,2.03588,0.279595,25,32765
3.3557,2.04552,0.280625,20,32765
3.37967,2.04466,0.280667,15,32765
3.36106,2.01781,0.276821,22,32765
3.29073,1.96065,0.26939,15,32765
3.33174,1.96999,0.270338,18,32765
3.43304,2.01444,0.276354,28,32765
3.45711,2.01299,0.276309,31,32765
3.48121,2.01138,0.276416,30,32765
3.47063,1.98994,0.273733,31,32765
3.47739,1.97836,0.271938,30,32765
3.45804,1.95204,0.268046,28,32765
3.49946,1.96005,0.269033,30,32765
3.51482,1.95321,0.268246,29,32765
3.50379,1.93213,0.265456,29,32765
3.51905,1.92527,0.264583,29,32765
3.49926,1.89929,0.260689,28,32765
3.55851,1.91588,0.262498,29,32765
3.57381,1.90865,0.261863,30,32765
3.58022,1.89677,0.26061,32,32765
3.56896,1.87551,0.257993,30,32765
3.58419,1.86819,0.256805,31,32765
3.60825,1.86543,0.25618,32,32765
3.61469,1.85312,0.254654,31,32765
3.62086,1.84122,0.253352,30,32765
3.61811,1.82477,0.25113,31,32765
3.64215,1.82165,0.250467,30,32765
3.61251,1.79188,0.246116,29,32765
3.65447,1.7973,0.246875,30,32765
3.66055,1.78506,0.2456,30,32765
3.68468,1.78134,0.24489,31,32765
3.66369,1.75607,0.241795,30,32765
3.66955,1.74402,0.24021,28,32765
3.7025,1.74466,0.240112,30,32765
3.74447,1.74938,0.241259,31,32765
3.68698,1.70747,0.235814,29,32765
3.73824,1.71576,0.236959,31,32765
3.75304,1.70758,0.236082,29,32765
3.75882,1.69504,0.234589,30,32765
3.75533,1.67863,0.232527,30,32765
3.77918,1.67436,0.23229,33,32765
3.78481,1.66176,0.231077,33,32765
3.77202,1.64133,0.228767,30,32765
3.82339,1.64854,0.2301,29,32765
3.83802,1.63995,0.229336,31,32765
3.85269,1.63113,0.228575,32,32765
3.86736,1.62219,0.228074,32,32765
3.87281,1.60931,0.226904,31,32765
3.88742,1.60032,0.225958,33,32765
3.88349,1.5837,0.22447,31,32765
3.89797,1.57475,0.223915,30,32765
3.89394,1.55813,0.222351,31,32765
3.96406,1.57116,0.224869,31,32765
3.88562,1.52527,0.218863,28,32765
3.93711,1.53076,0.221002,31,32765
3.95151,1.52133,0.220761,30,32765
3.95652,1.50845,0.219396,30,32765
3.99879,1.50976,0.220775,32,32765
3.94763,1.47574,0.216341,30,32765
3.99924,1.4803,0.218403,33,32765
3.99478,1.46362,0.217192,31,32765
3.99028,1.44693,0.215692,31,32765
4.06077,1.45759,0.219013,33,32765
4.05615,1.44095,0.217675,32,32765
4.04192,1.42137,0.216137,31,32765
4.06534,1.41501,0.216443,32,32765
4.13608,1.42441,0.219852,36,32765
4.05559,1.38207,0.214768,30,32765
4.07896,1.37541,0.21536,32,32765
4.12119,1.37519,0.217069,32,32765
4.10656,1.35591,0.215792,30,32765
4.14885,1.35514,0.218,33,32765
4.14366,1.33884,0.217242,31,32765
4.12887,1.3195,0.216608,32,32765
4.17111,1.31849,0.218619,32,32765
4.15611,1.29946,0.218632,28,32765
3.15737,2.32374,0.275964,31,32765
3.16497,2.31345,0.275368,31,32765
3.15648,2.29132,0.273117,30,32765
3.15601,2.27507,0.271419,29,32765
3.17177,2.27031,0.271489,30,32765
3.18752,2.26554,0.271096,30,32765
3.19506,2.25502,0.269956,31,32765
3.20245,2.24466,0.268708,30,32765
3.20989,2.23413,0.267778,30,32765
3.22541,2.22941,0.267225,31,32765
3.25762,2.23554,0.268113,31,32765
3.2569,2.21906,0.266208,31,32765
3.25608,2.20269,0.263979,32,32765
3.29652,2.21425,0.26538,32,32765
3.29561,2.19785,0.263281,33,32765
3.28633,2.17591,0.260675,32,32765
3.28535,2.15946,0.258521,31,32765
3.28423,2.1431,0.256577,31,32765
3.29978,2.13766,0.255911,31,32765
3.32366,2.13762,0.255757,32,32765
3.34756,2.13752,0.255396,32,32765
3.36304,2.13191,0.254906,33,32765
3.36164,2.11562,0.252803,32,32765
3.39408,2.12046,0.252894,33,32765
3.4012,2.10918,0.251645,33,32765
3.38279,2.08221,0.248064,32,32765
3.40694,2.08124,0.247442,29,32765
3.32008,2.01293,0.239276,20,32765
3.2757,1.97079,0.233907,18,32765
3.31662,1.9803,0.235247,18,32765
3.26323,1.9336,0.229168,16,32765
3.39023,1.99356,0.23598,27,32765
3.47458,2.02747,0.23993,34,32765
3.48146,2.01579,0.238656,33,32765
3.47955,1.99927,0.236747,34,32765
3.48633,1.98763,0.234943,34,32765
3.51046,1.98581,0.234224,35,32765
3.52587,1.97899,0.233081,35,32765
3.52384,1.96233,0.231042,33,32765
3.54779,1.96049,0.230706,35,32765
3.53689,1.93907,0.228024,33,32765
3.57854,1.94637,0.228316,34,32765
3.5325,1.90583,0.222859,33,32765
3.57417,1.9128,0.223791,34,32765
3.5806,1.9009,0.222536,34,32765
3.58702,1.8889,0.221193,34,32765
3.59344,1.87688,0.219358,34,32765
3.59979,1.86489,0.217467,35,32765
3.63288,1.86627,0.217537,35,32765
3.63909,1.85429,0.216226,35,32765
3.6453,1.84224,0.214612,35,32765
3.65153,1.83007,0.212705,35,32765
3.65768,1.81798,0.210782,35,32765
3.6639,1.80561,0.209098,35,32765
3.68795,1.80208,0.208833,36,32765
3.71213,1.79826,0.207918,36,32765
3.6912,1.77284,0.205093,36,32765
3.71515,1.76926,0.204486,35,32765
3.71205,1.75268,0.202114,35,32765
3.72692,1.74468,0.201413,35,32765
3.76907,1.74898,0.20197,36,32765
3.76601,1.73198,0.199717,35,32765
3.7627,1.7154,0.197777,36,32765
3.7867,1.71102,0.197226,35,32765
3.79238,1.69857,0.195715,34,32765
3.81629,1.69416,0.195275,34,32765
3.81284,1.67739,0.193583,35,32765
3.82757,1.6688,0.192833,35,32765
3.82402,1.65207,0.190926,34,32765
3.84784,1.64739,0.190521,36,32765
3.86255,1.63852,0.18966,35,32765
3.87724,1.62953,0.18906,35,32765
3.90116,1.62426,0.188777,36,32765
3.88811,1.60373,0.186396,36,32765
3.92119,1.60219,0.186762,34,32765
3.90794,1.58185,0.184786,35,32765
3.91322,1.56888,0.183747,34,32765
3.94624,1.56712,0.183868,36,32765
3.93285,1.5468,0.18172,34,32765
3.9658,1.54489,0.182524,36,32765
3.98026,1.53534,0.18218,36,32765
3.97598,1.51877,0.180381,35,32765
4.01829,1.52002,0.181378,36,32765
4.00458,1.49988,0.179174,37,32765
4.01881,1.49037,0.179087,36,32765
4.06128,1.4908,0.180043,38,32765
4.04748,1.47045,0.178206,36,32765
4.07106,1.46404,0.178799,37,32765
4.08529,1.45403,0.178373,37,32765
4.08052,1.43763,0.177427,37,32765
4.0757,1.42126,0.176312,36,32765
4.1087,1.41762,0.177428,38,32765
4.14165,1.41402,0.178072,38,32765
4.12727,1.39427,0.176843,36,32765
4.15062,1.38756,0.17736,38,32765
4.14551,1.37128,0.176672,37,32765
4.15938,1.36107,0.17729,37,32765
4.16372,1.34777,0.177027,38,32765
4.168,1.33442,0.177392,38,32765
4.19126,1.32725,0.178215,38,32765
4.2049,1.31707,0.179641,37,32765
3.15236,2.31179,0.290908,29,32765
3.14406,2.28975,0.286234,27,32765
3.15205,2.27913,0.283111,27,32765
3.16805,2.27435,0.280935,27,32765
3.15944,2.25243,0.27676,26,32765
3.19134,2.25955,0.275995,26,32765
3.19075,2.24341,0.272684,26,32765
3.14104,2.19298,0.265189,25,32765
3.22229,2.23371,0.268883,27,32765
3.23809,2.22873,0.266805,28,32765
3.21262,2.19559,0.261618,27,32765
3.22829,2.19053,0.260374,27,32765
3.26885,2.20211,0.260411,30,32765
3.25972,2.18017,0.256878,28,32765
3.25049,2.15831,0.253197,27,32765
3.27442,2.15861,0.251986,28,32765
3.28995,2.15339,0.250485,28,32765
3.2972,2.14252,0.248395,26,32765
3.33788,2.15341,0.248638,31,32765
3.32837,2.13154,0.245207,28,32765
3.32706,2.11529,0.242333,29,32765
3.31724,2.09373,0.239,27,32765
3.33264,2.08817,0.237958,29,32765
3.38189,2.10379,0.238654,30,32765
3.38898,2.09259,0.236659,30,32765
3.379,2.07093,0.233394,28,32765
3.30926,2.01297,0.226123,20,32765
3.35024,2.02263,0.226382,16,32765
3.31419,1.98592,0.221697,15,32765
3.30367,1.96478,0.218775,14,32765
3.28442,1.93872,0.215311,15,32765
3.39431,1.98838,0.220442,26,32765
3.4356,1.9971,0.220631,30,32765
3.46828,2.00059,0.220753,32,32765
3.47505,1.98903,0.218942,30,32765
3.49042,1.98244,0.217392,30,32765
3.46221,1.95135,0.213904,29,32765
3.49501,1.95432,0.21365,30,32765
3.49293,1.93771,0.21136,29,32765
3.53458,1.94515,0.211504,31,32765
3.50604,1.91428,0.207906,30,32765
3.55627,1.92662,0.208731,32,32765
3.50989,1.88651,0.204473,29,32765
3.52505,1.87959,0.202833,29,32765
3.5667,1.88648,0.203476,29,32765
3.57315,1.87443,0.201785,31,32765
3.57055,1.85792,0.200513,31,32765
3.59455,1.85528,0.199177,30,32765
3.6097,1.84781,0.198059,32,32765
3.65152,1.85387,0.198829,33,32765
3.61322,1.81911,0.194862,30,32765
3.64618,1.82041,0.194604,30,32765
3.67914,1.82156,0.194865,31,32765
3.6943,1.81357,0.193634,33,32765
3.65558,1.77924,0.189654,32,32765
3.71562,1.79296,0.190601,30,32765
3.68561,1.76332,0.187296,30,32765
3.70959,1.75957,0.187054,33,32765
3.71552,1.74718,0.185355,30,32765
3.74852,1.74755,0.185084,32,32765
3.76345,1.73926,0.184236,30,32765
3.76924,1.72678,0.18311,32,32765
3.73862,1.69779,0.179733,31,32765
3.73524,1.6812,0.177601,28,32765
3.76828,1.68097,0.177011,29,32765
3.80125,1.68068,0.177157,29,32765
3.79779,1.66396,0.174835,31,32765
3.81252,1.65529,0.174056,30,32765
3.82736,1.64632,0.172773,32,32765
3.83298,1.63336,0.171079,33,32765
3.82932,1.61655,0.169384,30,32765
3.8071,1.59226,0.166183,29,32765
3.84933,1.59495,0.166335,30,32765
3.81764,1.56712,0.163302,29,32765
3.86915,1.57331,0.163489,30,32765
3.88366,1.56429,0.162118,30,32765
3.88885,1.55149,0.160616,30,32765
3.92193,1.54959,0.160105,31,32765
3.92705,1.53672,0.158582,30,32765
3.93213,1.52385,0.15693,30,32765
3.94651,1.51453,0.155491,30,32765
3.95151,1.5016,0.15376,31,32765
3.96586,1.49209,0.15249,30,32765
4.00825,1.49308,0.151826,32,32765
4.0319,1.48696,0.150701,31,32765
4.01796,1.46709,0.148378,33,32765
4.06033,1.46773,0.147928,33,32765
4.00869,1.4343,0.144175,30,32765
4.02291,1.42437,0.142203,31,32765
4.04655,1.41762,0.140889,32,32765
4.05115,1.4046,0.139092,31,32765
4.1218,1.41452,0.139624,34,32765
4.06951,1.38232,0.135252,31,32765
4.09291,1.37571,0.133913,32,32765
4.09744,1.36236,0.131768,32,32765
4.09238,1.34604,0.129353,32,32765
4.1061,1.33643,0.127722,29,32765
4.17693,1.34503,0.127578,32,32765
4.12405,1.31377,0.123062,31,32765
4.18562,1.31829,0.121565,32,32765
4.18024,1.30222,0.119142,32,32765
3.15177,2.31691,0.254289,31,32765
3.14348,2.29481,0.249798,30,32765
3.14339,2.27831,0.246039,29,32765
3.16747,2.27937,0.244398,31,32765
3.20759,2.29222,0.244115,32,32765
3.18263,2.25876,0.238747,31,32765
3.19834,2.2541,0.236741,31,32765
3.21409,2.24932,0.234667,31,32765
3.22173,2.23863,0.232142,31,32765
3.2211,2.22229,0.228799,31,32765
3.24502,2.22299,0.22746,31,32765
3.26078,2.21781,0.226099,31,32765
3.26832,2.20695,0.223469,32,32765
3.2592,2.18496,0.22012,31,32765
3.28323,2.18518,0.218838,31,32765
3.31556,2.19088,0.217959,33,32765
3.32285,2.18003,0.215791,33,32765
3.28834,2.14177,0.210992,31,32765
3.34578,2.16355,0.211925,34,32765
3.32789,2.13621,0.208148,32,32765
3.35186,2.13603,0.206923,34,32765
3.36742,2.13035,0.205301,33,32765
3.3914,2.12993,0.204648,34,32765
3.38993,2.11369,0.201805,32,32765
3.38855,2.09717,0.199302,33,32765
3.41263,2.09638,0.198198,34,32765
3.42826,2.09017,0.196637,34,32765
3.37548,2.04257,0.191123,24,32765
3.29669,1.97997,0.184493,17,32765
3.32047,1.97931,0.183662,17,32765
3.37864,1.9989,0.184696,17,32765
3.36812,1.97756,0.182133,17,32765
3.40936,1.98637,0.18196,31,32765
3.4766,2.00996,0.183636,34,32765
3.51805,2.01822,0.183627,35,32765
3.49879,1.99171,0.180166,34,32765
3.5228,1.99,0.179708,35,32765
3.52958,1.97812,0.177819,35,32765
3.53631,1.96621,0.176037,36,32765
3.55181,1.95904,0.17449,36,32765
3.5759,1.95682,0.173812,35,32765
3.59114,1.94988,0.172444,36,32765
3.56244,1.91905,0.169571,35,32765
3.56889,1.90723,0.167388,35,32765
3.55766,1.88591,0.165177,34,32765
3.59948,1.89246,0.16511,35,32765
3.60581,1.88044,0.164327,35,32765
3.62987,1.87767,0.162777,35,32765
3.6451,1.87007,0.161547,36,32765
3.66028,1.86243,0.160754,37,32765
3.63984,1.83656,0.158023,34,32765
3.66392,1.8333,0.157085,36,32765
3.68797,1.82995,0.156675,36,32765
3.67626,1.80868,0.154215,36,32765
3.69141,1.80062,0.152943,36,32765
3.69754,1.78814,0.151099,35,32765
3.7396,1.79306,0.151087,36,32765
3.7366,1.77625,0.149554,36,32765
3.74259,1.76374,0.14784,37,32765
3.74847,1.75133,0.146213,37,32765
3.75434,1.73882,0.144918,35,32765
3.75106,1.72217,0.143445,35,32765
3.78409,1.72216,0.142852,36,32765
3.78079,1.70538,0.140791,35,32765
3.78653,1.69276,0.138889,36,32765
3.79213,1.68026,0.13775,36,32765
3.82526,1.6796,0.136833,35,32765
3.81255,1.65886,0.134976,35,32765
3.83658,1.65383,0.133916,35,32765
3.84222,1.64081,0.132215,35,32765
3.84779,1.62782,0.130921,35,32765
3.87169,1.62273,0.129533,35,32765
3.90479,1.62138,0.128976,36,32765
3.91015,1.60852,0.127502,36,32765
3.91552,1.59556,0.125688,35,32765
3.91156,1.57887,0.123614,36,32765
3.92607,1.56967,0.122388,36,32765
3.93133,1.5566,0.12072,36,32765
3.95508,1.55096,0.119755,36,32765
3.97884,1.54521,0.118644,36,32765
3.98394,1.53213,0.116814,36,32765
3.97966,1.51549,0.114795,36,32765
3.99405,1.50586,0.113418,36,32765
4.03648,1.50677,0.11236,38,32765
4.00391,1.47975,0.109493,36,32765
4.06504,1.48741,0.109388,37,32765
4.05107,1.46746,0.107048,37,32765
4.05588,1.45424,0.105328,37,32765
4.06074,1.44079,0.102994,37,32765
4.10329,1.44052,0.101939,38,32765
4.10796,1.42729,0.100115,37,32765
4.14086,1.42404,0.0990574,39,32765
4.15483,1.41426,0.0967801,38,32765
4.14042,1.3946,0.0943461,38,32765
4.16397,1.38739,0.0925964,39,32765
4.17797,1.37708,0.0906509,40,32765
4.17277,1.36099,0.0884809,40,32765
4.2056,1.35711,0.0868542,39,32765
4.20037,1.34089,0.0838326,40,32765
4.18573,1.3211,0.080248,39,32765
4.21852,1.31691,0.0786286,39,32765
3.12267,2.29346,0.208242,25,32765
3.09791,2.25973,0.205404,25,32765
3.1458,2.27883,0.207394,26,32765
3.16958,2.28008,0.207651,28,32765
3.16105,2.25783,0.20516,26,32765
3.17665,2.25318,0.205106,27,32765
3.17588,2.23709,0.203316,27,32765
3.19967,2.23809,0.202918,28,32765
3.23995,2.25029,0.203602,28,32765
3.19,2.19973,0.19864,27,32765
3.22201,2.20617,0.198821,28,32765
3.27065,2.22359,0.200267,29,32765
3.24493,2.19045,0.196819,29,32765
3.26878,2.19093,0.196241,29,32765
3.27608,2.18011,0.195026,28,32765
3.30834,2.18581,0.194978,29,32765
3.30721,2.16949,0.193121,28,32765
3.32278,2.16405,0.192141,29,32765
3.29647,2.13134,0.188614,28,32765
3.29529,2.11486,0.186602,28,32765
3.31082,2.10928,0.185354,28,32765
3.36012,2.12493,0.186196,30,32765
3.33337,2.09257,0.182669,27,32765
3.3404,2.08146,0.181201,27,32765
3.37288,2.08607,0.181274,30,32765
3.37983,2.07496,0.179441,29,32765
3.37815,2.05871,0.177374,29,32765
3.35943,2.03192,0.174462,25,32765
3.33197,2.00021,0.171016,18,32765
3.33018,1.98388,0.168851,13,32765
3.28529,1.94221,0.164658,15,32765
3.3349,1.95654,0.165257,14,32765
3.37597,1.96563,0.165055,20,32765
3.44313,1.98935,0.166562,29,32765
3.42376,1.96307,0.163456,28,32765
3.45639,1.96654,0.162799,29,32765
3.48905,1.96982,0.162539,30,32765
3.46956,1.94348,0.159474,29,32765
3.4936,1.94154,0.158541,30,32765
3.50027,1.92965,0.15669,30,32765
3.57693,1.95626,0.158251,31,32765
3.52201,1.91097,0.153995,29,32765
3.52842,1.89924,0.152469,30,32765
3.56993,1.90653,0.152316,30,32765
3.55866,1.8853,0.149929,30,32765
3.58274,1.88264,0.148913,30,32765
3.57139,1.86136,0.146197,31,32765
