x, y, z, intensity, ring
2.04513,0.557862,-0.0249226,18,32765
2.03729,0.548537,-0.0256536,18,32765
2.05839,0.546999,-0.0267194,19,32765
1.97314,0.517306,-0.0264161,17,32765
2.01357,0.520735,-0.0276186,18,32765
1.95716,0.499141,-0.0276965,18,32765
1.94912,0.490142,-0.0280613,18,32765
1.95073,0.483676,-0.0287294,18,32765
1.92317,0.470073,-0.0290442,18,32765
1.93443,0.466052,-0.0296009,19,32765
1.89705,0.450343,-0.0298164,19,32765
1.91801,0.448559,-0.0306496,18,32765
1.90974,0.439898,-0.0310581,19,32765
1.89172,0.428959,-0.0314831,19,32765
1.89315,0.422548,-0.032009,18,32765
1.89456,0.416146,-0.0324918,19,32765
1.90571,0.411925,-0.0331887,19,32765
1.86793,0.397275,-0.0331383,19,32765
1.86924,0.391023,-0.03372,19,32765
1.87054,0.384744,-0.0339609,19,32765
1.84242,0.372449,-0.0339696,18,32765
1.87309,0.372034,-0.0348028,19,32765
1.85471,0.361883,-0.0346651,19,32765
1.83627,0.35183,-0.0348784,19,32765
1.80797,0.340101,-0.0345191,19,32765
1.83857,0.339548,-0.0358043,20,32765
1.82001,0.329821,-0.0357612,19,32765
1.80141,0.320187,-0.0358821,19,32765
1.82219,0.317496,-0.0364994,20,32765
1.81338,0.309677,-0.0367498,19,32765
1.81439,0.303669,-0.0370992,19,32765
1.80551,0.295958,-0.0377537,19,32765
1.76701,0.283554,-0.037045,19,32765
1.77783,0.279086,-0.0378468,19,32765
1.759,0.269952,-0.0378255,19,32765
1.74014,0.260992,-0.0374488,20,32765
1.75091,0.256458,-0.0378304,19,32765
1.77155,0.253381,-0.0387702,19,32765
1.75258,0.244641,-0.0387547,20,32765
1.73357,0.236042,-0.0388393,19,32765
1.73434,0.230281,-0.0390861,19,32765
1.74502,0.225688,-0.0395779,20,32765
1.72597,0.217111,-0.0386991,20,32765
1.7366,0.212594,-0.0389842,20,32765
1.71746,0.204313,-0.0387797,20,32765
1.69826,0.196254,-0.038579,19,32765
1.70884,0.19166,-0.039054,19,32765
1.71941,0.186979,-0.039589,20,32765
1.71008,0.180168,-0.0397048,20,32765
1.68083,0.171424,-0.0392289,20,32765
1.70129,0.1677,-0.0400209,20,32765
1.69188,0.16107,-0.040117,20,32765
1.70235,0.156334,-0.0405957,21,32765
1.68294,0.148857,-0.040534,20,32765
1.69339,0.144079,-0.0409954,21,32765
1.67393,0.136773,-0.0407062,21,32765
1.68433,0.131933,-0.0413539,21,32765
1.67479,0.125509,-0.0413919,21,32765
1.66523,0.119119,-0.0414356,20,32765
1.66561,0.113613,-0.0418094,20,32765
1.67594,0.108742,-0.0422688,21,32765
1.65633,0.101934,-0.042273,21,32765
1.67661,0.0976976,-0.0430067,19,32765
1.66693,0.0915812,-0.043092,20,32765
1.65723,0.0855799,-0.0431073,20,32765
1.69743,0.08202,-0.0446816,19,32765
1.63777,0.0736863,-0.0433707,20,32765
1.64798,0.0687014,-0.0439668,20,32765
1.62821,0.0624418,-0.043796,20,32765
1.6284,0.057072,-0.0442519,20,32765
1.64855,0.052303,-0.0451207,20,32765
1.62872,0.0463103,-0.0450129,19,32765
1.63885,0.041189,-0.0457085,20,32765
1.60898,0.0351289,-0.0453428,20,32765
1.63906,0.0304334,-0.0464568,20,32765
1.60915,0.0246284,-0.0460365,20,32765
1.6192,0.0195159,-0.0469304,19,32765
1.58926,0.0140133,-0.0464708,18,32765
1.60927,0.00891507,-0.0476125,20,32765
1.58929,0.00362371,-0.0474219,20,32765
1.58927,-0.00158628,-0.048047,20,32765
1.58924,-0.00668558,-0.0485526,19,32765
1.59919,-0.0118146,-0.0493939,20,32765
1.58913,-0.0170138,-0.0498658,19,32765
1.57905,-0.0220828,-0.0501727,19,32765
2.24007,0.741552,-0.0424108,17,32765
2.27101,0.743496,-0.0428747,17,32765
2.21628,0.717809,-0.0418347,18,32765
2.20903,0.707717,-0.0415875,17,32765
2.2018,0.697455,-0.0415297,17,32765
2.20411,0.690108,-0.0417572,17,32765
2.17772,0.673958,-0.0413081,17,32765
2.17991,0.666831,-0.0416491,18,32765
2.19161,0.662699,-0.041966,18,32765
2.14585,0.641258,-0.0414625,18,32765
2.1575,0.637141,-0.041917,17,32765
2.17877,0.635623,-0.0427072,18,32765
2.13285,0.614455,-0.0421278,18,32765
2.09646,0.596269,-0.0412939,17,32765
2.12735,0.597219,-0.042562,17,32765
2.13896,0.592783,-0.042932,18,32765
2.08306,0.569804,-0.0420576,17,32765
2.07528,0.560273,-0.0425195,17,32765
2.03847,0.543141,-0.04185,17,32765
2.07894,0.54648,-0.0430237,18,32765
2.05172,0.531994,-0.0429413,17,32765
2.05348,0.525101,-0.043324,17,32765
2.04551,0.515841,-0.0436241,17,32765
2.01809,0.50181,-0.0433734,17,32765
2.03916,0.499852,-0.0442173,17,32765
1.99223,0.481261,-0.0434615,17,32765
1.99385,0.474505,-0.0438604,18,32765
1.9857,0.465477,-0.0439816,18,32765
1.97749,0.456566,-0.0443329,17,32765
1.95953,0.445401,-0.0443429,17,32765
1.961,0.438825,-0.0446358,17,32765
1.96246,0.43222,-0.045142,18,32765
1.94438,0.421255,-0.0451408,18,32765
1.95556,0.416763,-0.0457532,18,32765
1.96674,0.412157,-0.0464163,18,32765
1.95832,0.40353,-0.0464914,18,32765
1.94985,0.394963,-0.0466935,18,32765
1.93155,0.384484,-0.0467009,18,32765
1.90337,0.372291,-0.0467671,17,32765
1.88497,0.362076,-0.0466347,17,32765
1.896,0.357561,-0.0470661,18,32765
1.89719,0.351169,-0.0474541,18,32765
1.91803,0.348281,-0.048415,18,32765
1.86999,0.332976,-0.0476294,18,32765
1.88095,0.328348,-0.0482047,18,32765
1.87218,0.320343,-0.0482565,18,32765
1.85352,0.310716,-0.0482699,18,32765
1.84469,0.302811,-0.0483388,18,32765
1.84569,0.296572,-0.0488646,18,32765
1.85655,0.291817,-0.0495086,18,32765
1.80811,0.277979,-0.0485986,18,32765
1.80903,0.271864,-0.0488834,18,32765
1.80993,0.265728,-0.0493453,18,32765
1.81081,0.259589,-0.0497434,19,32765
1.79187,0.250664,-0.0496797,18,32765
1.79269,0.244695,-0.0498754,18,32765
1.7935,0.238654,-0.0500649,19,32765
1.80418,0.233953,-0.05086,19,32765
1.77519,0.224201,-0.0503169,18,32765
1.77593,0.218233,-0.0506372,19,32765
1.78656,0.213475,-0.0512804,18,32765
1.76741,0.205128,-0.0508675,19,32765
1.75815,0.198028,-0.0508471,19,32765
1.76874,0.193128,-0.0515582,19,32765
1.7495,0.185038,-0.0511711,19,32765
1.7501,0.179205,-0.0513167,19,32765
1.74073,0.172396,-0.0512335,18,32765
1.76119,0.16849,-0.0521358,19,32765
1.74183,0.160793,-0.0517935,19,32765
1.77222,0.157585,-0.0529766,19,32765
1.7329,0.148278,-0.0517902,19,32765
1.72342,0.141645,-0.0516475,19,32765
1.73383,0.136738,-0.0521663,19,32765
1.73427,0.131061,-0.0522728,19,32765
1.72472,0.124626,-0.0521036,19,32765
1.73509,0.119647,-0.0525295,19,32765
1.7255,0.11318,-0.0523238,19,32765
1.69593,0.105609,-0.0515392,19,32765
1.73618,0.102333,-0.0528442,20,32765
1.70657,0.0948916,-0.052058,19,32765
1.70688,0.0892693,-0.0520097,19,32765
1.68719,0.0826559,-0.0514609,19,32765
1.71741,0.0785027,-0.0523076,17,32765
1.69769,0.0719985,-0.0517319,19,32765
1.68793,0.0660128,-0.0514659,19,32765
1.70812,0.061163,-0.0519427,19,32765
1.67834,0.0545111,-0.0509688,18,32765
1.67852,0.048936,-0.050884,19,32765
1.66868,0.0431315,-0.0504647,18,32765
1.64883,0.0371153,-0.0497499,18,32765
1.67893,0.0323046,-0.050562,19,32765
1.64905,0.0262785,-0.0494695,18,32765
1.65913,0.0209885,-0.0495789,18,32765
1.68918,0.015892,-0.0502638,18,32765
1.64925,0.0100308,-0.0488104,18,32765
1.66927,0.00471606,-0.0492437,19,32765
1.6293,-0.00073205,-0.047707,19,32765
1.6393,-0.00593628,-0.0476276,19,32765
1.63928,-0.0112954,-0.0472859,19,32765
1.64924,-0.0169744,-0.0470535,19,32765
1.64919,-0.022425,-0.0464176,19,32765
2.21054,0.733726,-0.0637679,18,32765
2.18446,0.717064,-0.0628761,18,32765
2.17722,0.707031,-0.06264,18,32765
2.17946,0.700097,-0.0625747,19,32765
2.16269,0.686881,-0.062149,18,32765
2.14589,0.673658,-0.0618244,18,32765
2.13856,0.663588,-0.0616427,19,32765
2.11205,0.647778,-0.0611489,18,32765
2.11412,0.640955,-0.0612798,18,32765
2.12577,0.63693,-0.0619674,18,32765
2.12781,0.63003,-0.0622345,19,32765
2.11068,0.617379,-0.0620798,19,32765
2.07433,0.599166,-0.0613037,18,32765
2.07636,0.592102,-0.061231,18,32765
2.0976,0.590412,-0.0624894,18,32765
2.08029,0.578035,-0.0620899,19,32765
2.03401,0.557844,-0.0609331,18,32765
2.09373,0.566735,-0.0633295,19,32765
2.01833,0.539184,-0.0611163,18,32765
2.02011,0.532406,-0.0614871,18,32765
1.99285,0.518083,-0.0611087,18,32765
1.98489,0.508888,-0.0611832,18,32765
1.9381,0.490033,-0.06017,18,32765
1.94941,0.485999,-0.0608289,18,32765
1.96072,0.481878,-0.0615431,18,32765
1.92346,0.465861,-0.0606122,18,32765
1.9153,0.457002,-0.0606903,18,32765
1.92656,0.452792,-0.0613246,19,32765
1.93779,0.448567,-0.0621908,18,32765
1.90031,0.433069,-0.061375,18,32765
1.92125,0.431052,-0.0622924,19,32765
1.90316,0.420255,-0.0621519,19,32765
1.92411,0.417953,-0.0632336,19,32765
1.88641,0.403076,-0.0623225,19,32765
1.88776,0.396639,-0.0627403,19,32765
1.8695,0.386235,-0.0623832,19,32765
1.87078,0.379936,-0.062801,20,32765
1.88184,0.375568,-0.063595,20,32765
1.83402,0.359665,-0.0626888,19,32765
1.86466,0.359111,-0.0640413,20,32765
1.83639,0.347226,-0.0632135,19,32765
1.82772,0.339196,-0.06325,19,32765
1.83868,0.334747,-0.0640406,20,32765
1.81028,0.32319,-0.0634552,19,32765
1.81136,0.317031,-0.0637685,19,32765
1.79271,0.30755,-0.0633674,19,32765
1.81343,0.304796,-0.0645745,19,32765
1.78486,0.293761,-0.0638374,19,32765
1.78583,0.28771,-0.0643468,19,32765
1.7473,0.275369,-0.0632856,19,32765
1.75808,0.271002,-0.0640393,19,32765
1.75898,0.265042,-0.0643168,19,32765
1.74997,0.257605,-0.0644027,20,32765
1.75082,0.251655,-0.0647882,20,32765
1.75165,0.245689,-0.0652579,20,32765
1.71285,0.234419,-0.0639708,19,32765
1.73344,0.231276,-0.0648939,20,32765
1.72427,0.224188,-0.0650191,19,32765
1.71508,0.21719,-0.0649313,20,32765
1.70588,0.210188,-0.0648641,19,32765
1.70656,0.204464,-0.0652088,20,32765
1.71716,0.199834,-0.0657407,20,32765
1.71782,0.194008,-0.0660005,20,32765
1.72839,0.189234,-0.0667966,20,32765
1.70914,0.181261,-0.066217,20,32765
1.69979,0.174528,-0.0659739,20,32765
1.70036,0.168858,-0.0661778,20,32765
1.7009,0.163169,-0.0664842,21,32765
1.70142,0.157496,-0.0667257,20,32765
1.70193,0.151754,-0.0670095,20,32765
1.69248,0.145222,-0.066622,20,32765
1.67303,0.137888,-0.0659889,20,32765
1.68343,0.133135,-0.0665959,20,32765
1.68385,0.12761,-0.0666996,21,32765
1.65436,0.119881,-0.0656417,20,32765
1.67468,0.115811,-0.0665533,21,32765
1.66509,0.109531,-0.0662502,21,32765
1.65546,0.103387,-0.0659737,21,32765
1.66577,0.0984699,-0.0664598,20,32765
1.63615,0.0912448,-0.065386,20,32765
1.6564,0.0868881,-0.0661367,20,32765
1.63672,0.0804254,-0.0653978,20,32765
1.63698,0.0750549,-0.0653344,18,32765
1.6472,0.0700742,-0.0657645,20,32765
1.6574,0.065024,-0.0662009,20,32765
1.62766,0.0584698,-0.0648786,20,32765
1.62785,0.0530456,-0.064818,20,32765
1.62802,0.047625,-0.0647359,19,32765
1.61818,0.0419733,-0.064226,20,32765
1.61832,0.0365622,-0.0641177,20,32765
1.61843,0.0312613,-0.0640287,20,32765
1.60854,0.0257399,-0.0634486,20,32765
1.60863,0.0204435,-0.0632641,20,32765
1.60869,0.0152158,-0.0630631,19,32765
1.58876,0.00972981,-0.0620258,19,32765
1.58879,0.00454286,-0.0618751,19,32765
1.5988,-0.000676849,-0.0619137,19,32765
1.56883,-0.00565275,-0.0603968,19,32765
1.5888,-0.0109317,-0.060835,20,32765
1.60876,-0.0165553,-0.0610923,19,32765
1.54876,-0.0210699,-0.0582184,20,32765
2.27792,0.753581,-0.0566512,17,32765
2.24229,0.733786,-0.0573007,17,32765
2.25413,0.729597,-0.0590933,17,32765
2.20882,0.707099,-0.0594547,17,32765
2.25873,0.714968,-0.0622952,18,32765
2.21331,0.692682,-0.062098,17,32765
2.20598,0.682462,-0.0630793,18,32765
2.18909,0.669241,-0.0638811,17,32765
2.18167,0.659173,-0.0648281,18,32765
2.15503,0.643504,-0.0651363,17,32765
2.18583,0.645018,-0.067106,17,32765
2.13031,0.621101,-0.0662708,17,32765
2.11316,0.608336,-0.0669836,17,32765
2.16326,0.614787,-0.069546,16,32765
2.15568,0.604759,-0.0701378,17,32765
2.07097,0.573528,-0.0682336,16,32765
2.12102,0.579885,-0.0707543,17,32765
2.06499,0.557254,-0.0698686,17,32765
2.05712,0.54792,-0.0703476,16,32765
2.10721,0.55385,-0.0728804,17,32765
2.06065,0.534248,-0.0720638,16,32765
2.06238,0.52742,-0.0729322,16,32765
2.01565,0.508301,-0.0720178,16,32765
2.02702,0.50396,-0.0729524,17,32765
2.04809,0.501895,-0.0744631,17,32765
2.02058,0.48803,-0.0740246,17,32765
1.98329,0.472007,-0.073412,17,32765
1.97511,0.463052,-0.0736028,17,32765
1.98638,0.458582,-0.0747487,17,32765
1.97816,0.449648,-0.0749473,17,32765
1.96989,0.440752,-0.0752141,17,32765
1.96157,0.432074,-0.0752711,18,32765
1.95322,0.423309,-0.075742,18,32765
1.93507,0.412592,-0.0752629,18,32765
1.92666,0.403951,-0.0756319,18,32765
1.93779,0.399417,-0.0764499,17,32765
1.92931,0.39088,-0.0765652,18,32765
1.92082,0.382334,-0.076701,18,32765
1.91226,0.373976,-0.0768054,18,32765
1.88404,0.361889,-0.0762735,17,32765
1.90486,0.359348,-0.0774115,18,32765
1.90603,0.352997,-0.0777948,18,32765
1.86786,0.339448,-0.07664,18,32765
1.86897,0.333205,-0.0769594,18,32765
1.84053,0.32179,-0.0760721,18,32765
1.84158,0.315591,-0.0766433,18,32765
1.82291,0.306084,-0.0762755,18,32765
1.81408,0.29821,-0.0760864,18,32765
1.81508,0.291967,-0.0763213,18,32765
1.81606,0.285724,-0.0767997,18,32765
1.83676,0.282566,-0.0778462,18,32765
1.81793,0.273379,-0.0773511,19,32765
1.83861,0.270049,-0.0787353,18,32765
1.81972,0.260989,-0.0781401,19,32765
1.80079,0.252038,-0.077681,19,32765
1.78182,0.243288,-0.0771052,19,32765
1.82223,0.242574,-0.0790716,19,32765
1.81312,0.235067,-0.0790156,19,32765
1.78415,0.225221,-0.0779353,19,32765
1.78489,0.21924,-0.0781495,19,32765
1.75583,0.20971,-0.0772377,19,32765
1.78629,0.20729,-0.0787515,19,32765
1.77703,0.200137,-0.0787893,18,32765
1.77769,0.194143,-0.0790227,19,32765
1.76838,0.187097,-0.0788291,19,32765
1.76899,0.18119,-0.0790142,19,32765
1.73975,0.172377,-0.0777594,19,32765
1.76019,0.168381,-0.0791527,20,32765
1.74084,0.160641,-0.078573,19,32765
1.74136,0.154745,-0.0789472,19,32765
1.7319,0.148034,-0.0786981,19,32765
1.75229,0.143836,-0.0798344,19,32765
1.75275,0.137912,-0.0803179,19,32765
1.73327,0.130523,-0.0796393,19,32765
1.73367,0.124765,-0.0801103,19,32765
1.72411,0.118356,-0.0797011,19,32765
1.72446,0.112701,-0.08023,19,32765
1.74475,0.108211,-0.0815289,20,32765
1.71518,0.100665,-0.0802222,20,32765
1.71549,0.0948444,-0.0806904,20,32765
1.7058,0.0885862,-0.0805601,20,32765
1.72603,0.08395,-0.081738,20,32765
1.70632,0.0772934,-0.0812588,19,32765
1.72651,0.0725455,-0.0825405,17,32765
1.69678,0.0656582,-0.0814615,19,32765
1.67701,0.0593297,-0.0808075,19,32765
1.68716,0.0540555,-0.0817497,19,32765
1.6873,0.0483942,-0.0822528,19,32765
1.70741,0.0433269,-0.083558,20,32765
1.69754,0.037444,-0.0834236,17,32765
1.67767,0.0315359,-0.0826528,19,32765
1.67774,0.0261708,-0.0831495,19,32765
1.68777,0.0208369,-0.0841683,19,32765
1.66783,0.0151202,-0.0837863,19,32765
1.67784,0.00958068,-0.0846324,19,32765
1.65787,0.00392764,-0.0839705,18,32765
1.63787,-0.00143275,-0.0835257,19,32765
1.63783,-0.00672797,-0.0841637,19,32765
1.64776,-0.0120119,-0.0851498,19,32765
1.63769,-0.0171939,-0.0853741,19,32765
1.61763,-0.0222015,-0.0848145,18,32765
2.24824,0.745777,-0.0782096,18,32765
2.21261,0.726032,-0.0784639,18,32765
2.17687,0.706501,-0.0786153,19,32765
2.19812,0.705581,-0.0809038,18,32765
2.17178,0.689311,-0.081354,19,32765
2.20258,0.691195,-0.0835377,18,32765
2.13798,0.66322,-0.0822183,19,32765
2.1497,0.658981,-0.0839106,18,32765
2.13268,0.64612,-0.0843647,19,32765
2.13472,0.639171,-0.0855165,19,32765
2.108,0.62374,-0.0854296,18,32765
2.11958,0.61965,-0.0867454,20,32765
2.11202,0.609661,-0.0876635,19,32765
2.10444,0.599697,-0.0882783,19,32765
2.06795,0.581726,-0.0875316,18,32765
2.08911,0.580127,-0.0892691,18,32765
2.0717,0.567943,-0.0893598,18,32765
2.06388,0.558471,-0.089989,18,32765
2.05602,0.549118,-0.0903749,18,32765
2.01913,0.532146,-0.0895236,17,32765
2.04021,0.530391,-0.091228,17,32765
2.03225,0.521131,-0.0916526,18,32765
1.98552,0.502068,-0.0902574,17,32765
1.96778,0.490566,-0.0899491,18,32765
1.99849,0.491078,-0.0920725,17,32765
1.95155,0.472643,-0.090438,18,32765
1.94337,0.46377,-0.0907838,18,32765
1.93517,0.454928,-0.0908706,18,32765
1.92694,0.446076,-0.0911749,18,32765
1.92842,0.439541,-0.0917267,19,32765
1.88114,0.422046,-0.0900188,19,32765
1.90202,0.420104,-0.091369,19,32765
1.90339,0.413641,-0.0921938,19,32765
1.88522,0.403066,-0.0915204,19,32765
1.87678,0.394573,-0.0917769,19,32765
1.89765,0.392219,-0.093159,19,32765
1.86958,0.379819,-0.0922052,19,32765
1.86105,0.371457,-0.0922315,19,32765
1.86227,0.365201,-0.0927152,20,32765
1.84384,0.355143,-0.0923759,20,32765
1.86462,0.352728,-0.0936958,19,32765
1.82649,0.339201,-0.0920914,19,32765
1.8276,0.33305,-0.0925317,19,32765
1.80902,0.32341,-0.0918467,19,32765
1.82976,0.320792,-0.0931717,20,32765
1.78159,0.306157,-0.0912204,19,32765
1.79243,0.301803,-0.0921695,19,32765
1.8033,0.297264,-0.0928986,19,32765
1.77473,0.28627,-0.0916061,19,32765
1.74608,0.275482,-0.09054,19,32765
1.76675,0.272554,-0.0917674,19,32765
1.76764,0.266561,-0.0921006,19,32765
1.73888,0.256118,-0.0910716,20,32765
1.73973,0.250217,-0.0913127,20,32765
1.74055,0.244294,-0.0916904,20,32765
1.74135,0.238434,-0.0919626,19,32765
1.73223,0.231246,-0.0916811,20,32765
1.73299,0.225316,-0.0920389,20,32765
1.73373,0.219478,-0.0922484,20,32765
1.72454,0.212431,-0.0919288,20,32765
1.7153,0.205456,-0.0917827,20,32765
1.72589,0.200856,-0.0925115,20,32765
1.72654,0.19501,-0.0929738,20,32765
1.70732,0.186997,-0.0921298,20,32765
1.71786,0.182279,-0.0929066,20,32765
1.69858,0.174486,-0.0920108,20,32765
1.70909,0.169834,-0.0926248,20,32765
1.70963,0.164025,-0.0931154,20,32765
1.70021,0.157356,-0.0928817,20,32765
1.69077,0.150697,-0.0927024,21,32765
1.7012,0.145845,-0.0934465,20,32765
1.68177,0.138463,-0.0925763,20,32765
1.67225,0.131978,-0.0924902,20,32765
1.67267,0.126346,-0.0927165,20,32765
1.67306,0.120775,-0.0931714,20,32765
1.68341,0.115923,-0.0937763,21,32765
1.66383,0.10908,-0.0931771,20,32765
1.6542,0.102921,-0.0929715,20,32765
1.65452,0.0974181,-0.0930596,21,32765
1.66479,0.0923423,-0.0940748,21,32765
1.66507,0.0867578,-0.0944058,20,32765
1.65536,0.0807847,-0.0940668,20,32765
1.63565,0.0743473,-0.0933801,20,32765
1.65582,0.0698199,-0.0948368,18,32765
1.666,0.0646996,-0.0957543,20,32765
1.63625,0.0581028,-0.0943313,20,32765
1.65637,0.0532731,-0.0959347,20,32765
1.65651,0.0477013,-0.0964288,20,32765
1.6267,0.0414524,-0.0950024,19,32765
1.62681,0.036044,-0.095342,19,32765
1.64687,0.0311058,-0.0967188,21,32765
1.60701,0.0252,-0.0948499,20,32765
1.61703,0.020084,-0.0959411,20,32765
1.60707,0.0146764,-0.0959406,20,32765
1.63704,0.00944303,-0.0980644,19,32765
1.60709,0.00388763,-0.0966057,19,32765
1.59708,-0.00132995,-0.0965585,20,32765
1.59703,-0.00650586,-0.0971807,20,32765
1.58699,-0.0115272,-0.0970288,20,32765
1.57693,-0.0165268,-0.0971315,19,32765
1.61675,-0.0221725,-0.100072,19,32765
2.32192,0.77304,-0.116611,17,32765
2.26757,0.746571,-0.113472,17,32765
2.28908,0.745083,-0.114333,17,32765
2.27252,0.731331,-0.11355,17,32765
2.25589,0.717775,-0.112442,18,32765
2.26774,0.713386,-0.113282,18,32765
2.21282,0.68821,-0.110529,17,32765
2.23416,0.686758,-0.111686,18,32765
2.24598,0.682222,-0.112551,17,32765
2.19084,0.657453,-0.109956,17,32765
2.20257,0.653024,-0.110626,18,32765
2.15674,0.631793,-0.108681,18,32765
2.16841,0.62739,-0.109384,18,32765
2.18966,0.625696,-0.110907,18,32765
2.14368,0.604733,-0.108729,17,32765
2.16494,0.60283,-0.110224,18,32765
2.14768,0.590225,-0.109588,18,32765
2.14,0.580325,-0.10957,17,32765
2.11297,0.565412,-0.108476,18,32765
2.03758,0.537917,-0.104951,17,32765
2.078,0.541159,-0.107497,17,32765
2.0314,0.521861,-0.105225,17,32765
2.04279,0.517523,-0.106172,18,32765
2.0251,0.505853,-0.105815,17,32765
2.02677,0.499016,-0.106222,17,32765
2.02841,0.492189,-0.106809,17,32765
2.0009,0.478389,-0.105583,17,32765
2.00245,0.471717,-0.106161,17,32765
2.00401,0.464961,-0.106546,17,32765
1.98608,0.453695,-0.10608,18,32765
1.93887,0.436024,-0.10382,17,32765
1.95007,0.43157,-0.10478,17,32765
1.98074,0.431393,-0.107018,17,32765
1.97241,0.422616,-0.106747,17,32765
1.93472,0.407661,-0.105233,17,32765
1.94584,0.403083,-0.106404,18,32765
1.93739,0.394464,-0.106328,18,32765
1.92892,0.385805,-0.106365,18,32765
1.90081,0.373469,-0.105158,18,32765
1.87263,0.361299,-0.104082,18,32765
1.88362,0.356853,-0.105025,17,32765
1.8946,0.352379,-0.105936,18,32765
1.85645,0.338835,-0.104413,18,32765
1.88703,0.337885,-0.106454,18,32765
1.88815,0.331375,-0.107071,18,32765
1.86957,0.321515,-0.106422,17,32765
1.85096,0.31177,-0.105645,18,32765
1.84214,0.303813,-0.105502,18,32765
1.81356,0.292829,-0.104181,19,32765
1.85395,0.2929,-0.107067,18,32765
1.83517,0.283603,-0.106448,18,32765
1.83611,0.277314,-0.106713,18,32765
1.79752,0.265157,-0.104877,18,32765
1.78852,0.257595,-0.104636,18,32765
1.77947,0.250125,-0.104455,19,32765
1.79016,0.245545,-0.10544,19,32765
1.78107,0.238225,-0.105143,19,32765
1.77194,0.23087,-0.105042,19,32765
1.77269,0.224869,-0.105376,19,32765
1.78333,0.220134,-0.106228,19,32765
1.78403,0.214188,-0.106666,19,32765
1.75496,0.20488,-0.104997,19,32765
1.76554,0.20019,-0.105842,19,32765
1.76617,0.194291,-0.106195,19,32765
1.76681,0.188232,-0.106514,19,32765
1.76743,0.182207,-0.106652,20,32765
1.7581,0.17529,-0.106141,19,32765
1.75866,0.169321,-0.106556,20,32765
1.77908,0.165313,-0.107951,20,32765
1.7796,0.159303,-0.108312,19,32765
1.74035,0.149862,-0.105919,19,32765
1.75078,0.144792,-0.106724,19,32765
1.75126,0.138858,-0.106735,19,32765
1.74175,0.132274,-0.106323,19,32765
1.77202,0.128682,-0.108505,19,32765
1.75252,0.121509,-0.107256,19,32765
1.72303,0.113729,-0.105464,19,32765
1.73337,0.108581,-0.106043,19,32765
1.72374,0.102218,-0.105663,20,32765
1.70414,0.0953316,-0.104459,20,32765
1.69448,0.0892241,-0.103818,20,32765
1.70473,0.0841406,-0.104481,20,32765
1.70501,0.0784788,-0.104286,19,32765
1.71524,0.073305,-0.104843,19,32765
1.69551,0.0668213,-0.103756,18,32765
1.69573,0.0612261,-0.103657,19,32765
1.67599,0.0549537,-0.102241,19,32765
1.69612,0.0499246,-0.103386,19,32765
1.69628,0.0442936,-0.103248,19,32765
1.7064,0.0388802,-0.103804,17,32765
1.67659,0.032715,-0.101916,18,32765
1.67671,0.0272324,-0.101519,19,32765
1.65683,0.0214006,-0.100229,19,32765
1.6669,0.0160974,-0.100446,19,32765
1.66695,0.0106417,-0.10027,19,32765
1.66699,0.00513727,-0.100037,18,32765
1.63708,-0.000383017,-0.0978126,18,32765
1.61713,-0.00582425,-0.0961764,18,32765
1.64707,-0.0114456,-0.0975571,19,32765
1.61711,-0.0165583,-0.0952795,19,32765
1.64703,-0.0220958,-0.0964304,19,32765
2.28223,0.762022,-0.137315,19,32765
2.23737,0.738756,-0.134188,18,32765
2.23987,0.731167,-0.134104,18,32765
2.25179,0.726746,-0.134838,18,32765
2.20663,0.704121,-0.131841,18,32765
2.19939,0.693873,-0.131629,18,32765
2.1921,0.683726,-0.131162,18,32765
2.17526,0.670572,-0.130223,18,32765
2.17747,0.663309,-0.1306,19,32765
2.15099,0.647346,-0.129157,19,32765
2.15312,0.640191,-0.129345,19,32765
2.13602,0.627514,-0.128651,19,32765
2.1285,0.617603,-0.128292,18,32765
2.1305,0.610535,-0.128833,19,32765
2.09412,0.592441,-0.126763,19,32765
2.09609,0.585328,-0.127267,19,32765
2.08841,0.575578,-0.127019,18,32765
2.07107,0.563235,-0.126308,18,32765
2.08256,0.558867,-0.127279,19,32765
2.06511,0.546741,-0.126545,18,32765
2.02826,0.529715,-0.124724,18,32765
2.00099,0.515518,-0.123168,17,32765
2.02203,0.513726,-0.124801,18,32765
2.01402,0.504523,-0.12485,17,32765
1.96723,0.485742,-0.122246,18,32765
1.95913,0.476738,-0.122212,18,32765
1.951,0.467793,-0.121907,18,32765
1.9428,0.458975,-0.121863,18,32765
1.9346,0.450141,-0.121626,18,32765
1.91663,0.439084,-0.120954,18,32765
1.92782,0.434782,-0.121907,18,32765
1.90004,0.421703,-0.120488,18,32765
1.88191,0.411043,-0.119886,18,32765
1.86375,0.400482,-0.118887,19,32765
1.90413,0.402369,-0.121968,19,32765
1.8566,0.385703,-0.119452,19,32765
1.86766,0.38136,-0.120524,20,32765
1.85915,0.372921,-0.120448,19,32765
1.87017,0.36851,-0.121488,19,32765
1.85179,0.358312,-0.120761,19,32765
1.84316,0.350198,-0.120513,19,32765
1.86392,0.347677,-0.122153,19,32765
1.84541,0.337797,-0.121537,19,32765
1.81704,0.326298,-0.119968,19,32765
1.81812,0.320012,-0.120564,19,32765
1.81918,0.313761,-0.121018,19,32765
1.81039,0.305827,-0.1207,19,32765
1.79171,0.296361,-0.119797,19,32765
1.81237,0.293496,-0.121486,19,32765
1.79361,0.2842,-0.120766,19,32765
1.75509,0.272027,-0.11861,19,32765
1.78559,0.27048,-0.120867,19,32765
1.76674,0.261388,-0.119984,19,32765
1.74785,0.252485,-0.118972,19,32765
1.75856,0.247921,-0.120037,19,32765
1.75935,0.242039,-0.120435,20,32765
1.75024,0.234804,-0.12004,19,32765
1.72133,0.22495,-0.118475,20,32765
1.73195,0.220364,-0.119483,20,32765
1.74257,0.215754,-0.120424,20,32765
1.71354,0.206351,-0.118792,20,32765
1.70429,0.19957,-0.118213,20,32765
1.69501,0.192782,-0.117767,20,32765
1.73529,0.19148,-0.12087,20,32765
1.69624,0.181272,-0.118414,21,32765
1.69684,0.175473,-0.118546,21,32765
1.69741,0.169768,-0.118632,21,32765
1.69795,0.163989,-0.119033,21,32765
1.70841,0.159248,-0.119913,21,32765
1.69898,0.15257,-0.119561,21,32765
1.67961,0.145095,-0.11819,21,32765
1.69002,0.140218,-0.119082,21,32765
1.68054,0.133684,-0.118392,21,32765
1.67102,0.127318,-0.117879,21,32765
1.68135,0.122503,-0.118922,21,32765
1.6718,0.1163,-0.11819,20,32765
1.68213,0.111405,-0.118929,21,32765
1.67254,0.105129,-0.118196,20,32765
1.65295,0.0983603,-0.117009,21,32765
1.65327,0.0928117,-0.117027,21,32765
1.67349,0.0884345,-0.118407,21,32765
1.65384,0.0819267,-0.117049,20,32765
1.65412,0.0764196,-0.11686,20,32765
1.66433,0.0714002,-0.117513,18,32765
1.65458,0.0654632,-0.116938,20,32765
1.6548,0.0599888,-0.116842,20,32765
1.62509,0.0535072,-0.11454,20,32765
1.63524,0.048342,-0.115173,20,32765
1.65534,0.0434222,-0.116443,20,32765
1.6854,0.0385883,-0.118497,18,32765
1.61571,0.0316923,-0.113525,20,32765
1.63578,0.0267207,-0.114539,20,32765
1.62589,0.0211391,-0.113761,20,32765
1.616,0.0157294,-0.112689,20,32765
1.60608,0.0103621,-0.111823,20,32765
1.6161,0.00507623,-0.112292,19,32765
1.60616,-0.000294593,-0.11118,19,32765
1.5962,-0.00568233,-0.110051,19,32765
1.58622,-0.0109705,-0.108978,20,32765
1.58621,-0.0162035,-0.108484,20,32765
1.57622,-0.0211209,-0.107215,19,32765
2.3592,0.785102,-0.133731,17,32765
2.33315,0.76816,-0.133945,17,32765
2.31655,0.754347,-0.134749,17,32765
2.30941,0.743721,-0.135664,17,32765
2.27369,0.724016,-0.135087,17,32765
2.25697,0.710383,-0.135446,17,32765
2.23061,0.694069,-0.135168,17,32765
2.24236,0.689586,-0.137099,17,32765
2.25409,0.685133,-0.138877,18,32765
2.21799,0.666282,-0.137754,18,32765
2.22011,0.658913,-0.139141,18,32765
2.22221,0.651577,-0.140159,17,32765
2.19556,0.635711,-0.139547,17,32765
2.17841,0.6229,-0.139455,17,32765
2.1996,0.621106,-0.141658,17,32765
2.17273,0.60575,-0.141036,18,32765
2.15542,0.593283,-0.140581,18,32765
2.11883,0.575524,-0.139093,17,32765
2.11108,0.565766,-0.13913,18,32765
2.11291,0.558665,-0.140044,18,32765
2.09542,0.546477,-0.139611,17,32765
2.07785,0.534495,-0.139103,17,32765
2.05055,0.520196,-0.138022,17,32765
2.06193,0.515717,-0.139237,18,32765
2.03451,0.501656,-0.138216,18,32765
1.96827,0.478302,-0.134336,17,32765
1.98921,0.476377,-0.136441,18,32765
1.99078,0.469595,-0.137046,18,32765
2.01175,0.467324,-0.139131,19,32765
1.98414,0.453716,-0.137656,18,32765
1.96616,0.44261,-0.136852,18,32765
1.93837,0.429484,-0.135548,18,32765
1.94953,0.425048,-0.136612,19,32765
1.95091,0.418492,-0.137214,18,32765
1.93277,0.407725,-0.136255,18,32765
1.94388,0.403185,-0.13741,18,32765
1.92565,0.392649,-0.136441,19,32765
1.91715,0.384121,-0.136316,18,32765
1.91841,0.377582,-0.136889,18,32765
1.93924,0.374915,-0.138542,18,32765
1.93067,0.366488,-0.138233,18,32765
1.90243,0.354535,-0.136636,18,32765
1.92321,0.35165,-0.138553,18,32765
1.89493,0.339818,-0.136659,18,32765
1.90587,0.335063,-0.137883,18,32765
1.87748,0.323537,-0.135972,18,32765
1.89821,0.320588,-0.137563,18,32765
1.85004,0.306042,-0.134462,18,32765
1.87074,0.302932,-0.136313,19,32765
1.82249,0.288645,-0.13307,18,32765
1.87275,0.289958,-0.136804,18,32765
1.87372,0.283429,-0.13724,18,32765
1.8352,0.271158,-0.134614,18,32765
1.81635,0.262074,-0.13336,18,32765
1.82707,0.257347,-0.134437,18,32765
1.81803,0.249794,-0.133986,18,32765
1.78919,0.239681,-0.132055,18,32765
1.79986,0.234914,-0.133165,19,32765
1.78084,0.226298,-0.131898,19,32765
1.79147,0.221494,-0.132957,18,32765
1.7823,0.214236,-0.132297,19,32765
1.8028,0.210532,-0.134063,19,32765
1.76384,0.199948,-0.131434,18,32765
1.78432,0.19615,-0.133207,19,32765
1.76512,0.188022,-0.13191,19,32765
1.77564,0.183054,-0.133026,18,32765
1.7663,0.176114,-0.132528,19,32765
1.77679,0.171082,-0.13357,19,32765
1.77734,0.165138,-0.133828,19,32765
1.76791,0.158288,-0.13353,19,32765
1.7585,0.151461,-0.132865,19,32765
1.74902,0.144712,-0.132603,19,32765
1.74948,0.138759,-0.132856,19,32765
1.73003,0.131351,-0.131649,19,32765
1.74038,0.126207,-0.132866,19,32765
1.74077,0.120347,-0.13316,20,32765
1.74114,0.114557,-0.13341,19,32765
1.73153,0.108165,-0.133058,19,32765
1.73185,0.102456,-0.133364,19,32765
1.72219,0.0961705,-0.133064,20,32765
1.72248,0.0904561,-0.133348,21,32765
1.72276,0.0847789,-0.133451,20,32765
1.71304,0.0785329,-0.133202,19,32765
1.71325,0.0728367,-0.133723,19,32765
1.70349,0.0667698,-0.133228,19,32765
1.73356,0.0621088,-0.136072,18,32765
1.70384,0.0553626,-0.134037,19,32765
1.70397,0.0496044,-0.134597,20,32765
1.69414,0.0437,-0.134126,19,32765
1.7042,0.0382612,-0.135477,19,32765
1.71425,0.0327821,-0.136587,19,32765
1.68441,0.0266721,-0.134683,16,32765
1.68444,0.0211064,-0.135303,19,32765
1.68446,0.0156705,-0.135877,19,32765
1.68446,0.0102238,-0.136285,19,32765
1.66452,0.00466458,-0.135107,19,32765
1.67444,-0.000773533,-0.136617,19,32765
1.6943,-0.00639655,-0.138964,18,32765
1.66433,-0.0117328,-0.137032,19,32765
1.65425,-0.0170351,-0.136965,19,32765
1.65411,-0.0223927,-0.137864,19,32765
2.30988,0.770947,-0.153924,19,32765
2.27432,0.750994,-0.153182,19,32765
2.25767,0.737338,-0.153753,18,32765
2.26947,0.733012,-0.155842,18,32765
2.22423,0.710356,-0.154204,19,32765
2.23603,0.705866,-0.156341,19,32765
2.20966,0.689581,-0.15577,17,32765
2.23092,0.688094,-0.158461,17,32765
2.19492,0.669118,-0.156917,18,32765
2.19701,0.661928,-0.158138,18,32765
2.14173,0.637532,-0.155353,18,32765
2.1629,0.636064,-0.157732,18,32765
2.16496,0.628706,-0.158918,18,32765
2.13821,0.613216,-0.157917,18,32765
2.11137,0.597957,-0.156728,19,32765
2.13247,0.596288,-0.159366,18,32765
2.10553,0.581269,-0.157989,18,32765
2.08817,0.56888,-0.157555,18,32765
2.07078,0.556612,-0.156761,18,32765
2.06293,0.547071,-0.156926,18,32765
2.04542,0.535023,-0.156287,18,32765
2.02783,0.523179,-0.155573,18,32765
2.03916,0.518849,-0.157171,18,32765
2.00217,0.502262,-0.15474,18,32765
2.02313,0.500337,-0.157172,18,32765
1.97631,0.48169,-0.154143,17,32765
1.98755,0.477402,-0.155681,18,32765
1.9309,0.456833,-0.151713,19,32765
1.94211,0.452495,-0.153198,19,32765
1.95333,0.44801,-0.154498,19,32765
1.92563,0.434785,-0.152728,20,32765
1.92703,0.428254,-0.153454,20,32765
1.9187,0.419583,-0.153057,19,32765
1.90057,0.408919,-0.152091,19,32765
1.89217,0.400361,-0.151716,20,32765
1.89348,0.393916,-0.152172,19,32765
1.885,0.385521,-0.151792,20,32765
1.90581,0.383002,-0.153931,15,32765
0,0,-0,0,32765
0,0,-0,0,32765
2.16412,0.412048,-0.175827,11,32765
2.35161,0.439575,-0.191573,12,32765
2.30402,0.422561,-0.188191,13,32765
2.28581,0.411165,-0.186865,15,32765
2.3166,0.408517,-0.189899,15,32765
2.31795,0.400664,-0.190173,16,32765
2.17185,0.367928,-0.178279,15,32765
2.16321,0.358946,-0.178014,15,32765
2.02665,0.329189,-0.167142,15,32765
1.92931,0.306506,-0.159395,15,32765
1.92051,0.298271,-0.158723,15,32765
1.90179,0.288567,-0.157539,15,32765
1.89289,0.280553,-0.156994,15,32765
1.93328,0.279815,-0.160472,15,32765
1.82563,0.257948,-0.151818,14,32765
1.88571,0.259905,-0.157029,14,32765
1.87668,0.252192,-0.156474,14,32765
1.79844,0.235471,-0.150266,13,32765
1.76955,0.225577,-0.147985,13,32765
1.76039,0.218345,-0.14748,13,32765
1.70175,0.205208,-0.14258,13,32765
1.69252,0.198288,-0.14203,13,32765
1.70305,0.19368,-0.143168,14,32765
1.70368,0.187893,-0.14345,15,32765
1.70429,0.182135,-0.143628,15,32765
1.70487,0.176336,-0.143989,16,32765
1.69552,0.169615,-0.143387,16,32765
1.69606,0.163852,-0.143672,17,32765
1.67673,0.156313,-0.142235,17,32765
1.67721,0.150675,-0.142662,18,32765
1.68763,0.145853,-0.143588,18,32765
1.68808,0.14015,-0.144061,18,32765
1.67859,0.133599,-0.143457,19,32765
1.69888,0.129439,-0.145452,19,32765
1.6794,0.122218,-0.144195,19,32765
1.67977,0.116547,-0.144479,20,32765
1.68013,0.110946,-0.144721,20,32765
1.6904,0.105986,-0.145978,20,32765
1.68077,0.0998075,-0.145417,20,32765
1.66116,0.0931174,-0.144146,20,32765
1.65149,0.0870664,-0.143556,21,32765
1.65176,0.0816088,-0.143655,20,32765
1.67188,0.0769597,-0.145896,21,32765
1.65218,0.070536,-0.144662,21,32765
1.66233,0.0654393,-0.145809,20,32765
1.6625,0.0598314,-0.146295,19,32765
1.64276,0.0536285,-0.144844,20,32765
1.65284,0.0483536,-0.146265,20,32765
1.63305,0.0423449,-0.144807,20,32765
1.64309,0.0370972,-0.146232,20,32765
1.63322,0.0314248,-0.145649,19,32765
1.63327,0.0260408,-0.146113,18,32765
1.61338,0.0203786,-0.144925,20,32765
1.6333,0.0153456,-0.147271,20,32765
1.63331,0.0100505,-0.147666,19,32765
1.61337,0.00464309,-0.146287,19,32765
1.63324,-0.000644854,-0.148777,20,32765
1.6232,-0.00603299,-0.14856,19,32765
1.59326,-0.011152,-0.146324,19,32765
1.62302,-0.0166457,-0.149808,20,32765
1.62287,-0.0219154,-0.150689,20,32765
2.39174,0.800839,-0.197814,18,32765
2.38491,0.789869,-0.196804,17,32765
2.38744,0.78212,-0.196983,18,32765
2.37107,0.768077,-0.195141,17,32765
2.34512,0.751061,-0.192928,17,32765
2.37609,0.75226,-0.195681,18,32765
2.33098,0.729545,-0.191819,17,32765
2.31428,0.716008,-0.19065,17,32765
2.32614,0.711334,-0.19154,17,32765
2.28074,0.689257,-0.187745,17,32765
2.28303,0.681536,-0.188077,17,32765
2.25659,0.665451,-0.185898,17,32765
2.21093,0.643888,-0.182426,17,32765
2.22267,0.639109,-0.183499,18,32765
2.2056,0.626195,-0.182215,17,32765
2.16928,0.607952,-0.179496,16,32765
2.20971,0.611285,-0.183041,17,32765
2.19251,0.598568,-0.181726,17,32765
2.16557,0.58348,-0.17988,17,32765
2.15788,0.573608,-0.179271,17,32765
2.13083,0.558721,-0.177494,17,32765
2.08446,0.538951,-0.173611,17,32765
2.0766,0.529323,-0.173335,16,32765
2.08801,0.524673,-0.174712,17,32765
2.07039,0.512854,-0.173378,17,32765
2.04301,0.498808,-0.17143,17,32765
2.01558,0.484924,-0.169348,17,32765
2.00749,0.475779,-0.168894,17,32765
2.0285,0.473398,-0.170865,18,32765
1.9815,0.455236,-0.167365,18,32765
2.00246,0.452791,-0.169468,18,32765
1.97476,0.439537,-0.167396,19,32765
1.95674,0.428596,-0.166055,18,32765
1.94841,0.41981,-0.165694,19,32765
1.96927,0.417308,-0.16796,18,32765
1.95115,0.406474,-0.166688,19,32765
1.99156,0.407765,-0.170372,17,32765
2.04175,0.410683,-0.175177,17,32765
2.0138,0.397839,-0.173006,16,32765
2.11293,0.409957,-0.181809,13,32765
2.39813,0.456829,-0.206782,13,32765
2.44861,0.457879,-0.21136,13,32765
2.39127,0.43882,-0.207086,14,32765
2.31423,0.416599,-0.200942,14,32765
2.31559,0.408809,-0.201241,14,32765
2.27764,0.394101,-0.198552,14,32765
2.05301,0.34798,-0.179359,14,32765
2.03449,0.337573,-0.178263,14,32765
2.02578,0.328952,-0.177773,14,32765
1.9875,0.315737,-0.174775,14,32765
2.00819,0.312006,-0.177244,15,32765
2.00925,0.305148,-0.177248,13,32765
1.99051,0.295278,-0.1763,14,32765
1.96191,0.284137,-0.174011,15,32765
2.022,0.285815,-0.17985,15,32765
1.9933,0.274928,-0.177654,14,32765
1.96456,0.264279,-0.175441,14,32765
1.95553,0.256343,-0.174894,14,32765
1.9366,0.247161,-0.173525,15,32765
1.96705,0.244176,-0.17658,14,32765
1.9085,0.230272,-0.171771,14,32765
1.88946,0.221518,-0.170254,14,32765
1.89016,0.215157,-0.170577,13,32765
1.88093,0.207755,-0.170133,12,32765
1.79246,0.191909,-0.162352,11,32765
0,0,-0,0,32765
0,0,-0,0,32765
0,0,-0,0,32765
0,0,-0,0,32765
0,0,-0,0,32765
0,0,-0,0,32765
0,0,-0,0,32765
0,0,-0,0,32765
0,0,-0,0,32765
0,0,-0,0,32765
0,0,-0,0,32765
0,0,-0,0,32765
0,0,-0,0,32765
0,0,-0,0,32765
0,0,-0,0,32765
1.74018,0.0923406,-0.160428,19,32765
1.71066,0.0850847,-0.157523,20,32765
1.72086,0.0798239,-0.15863,20,32765
1.70123,0.0732404,-0.156699,20,32765
1.72136,0.0683635,-0.158593,20,32765
1.71162,0.0622119,-0.157759,19,32765
1.70188,0.0561963,-0.156676,19,32765
1.70205,0.0505557,-0.156699,20,32765
1.69227,0.0447323,-0.15559,20,32765
1.71232,0.0395968,-0.157406,20,32765
1.69254,0.0334688,-0.155551,19,32765
1.71258,0.0281032,-0.157123,18,32765
1.68279,0.0220163,-0.154367,20,32765
1.68287,0.0164925,-0.154151,19,32765
1.68294,0.0110202,-0.153969,19,32765
1.65311,0.00539646,-0.150961,19,32765
1.67307,-7.47147e-05,-0.15245,19,32765
1.68305,-0.00571494,-0.153055,18,32765
1.65319,-0.0110303,-0.149781,19,32765
1.66316,-0.0165737,-0.150051,19,32765
1.6532,-0.0218821,-0.148538,19,32765
2.37023,0.79612,-0.21973,19,32765
2.3634,0.785192,-0.21863,19,32765
2.347,0.771271,-0.21706,20,32765
2.34957,0.763485,-0.216785,20,32765
2.33313,0.749547,-0.215168,19,32765
2.3166,0.735707,-0.213821,19,32765
2.29049,0.719104,-0.211244,19,32765
2.30232,0.714525,-0.212517,19,32765
2.26656,0.695268,-0.209109,18,32765
2.22116,0.673337,-0.204845,18,32765
2.21386,0.662939,-0.204289,18,32765
2.18739,0.647047,-0.201826,17,32765
2.21822,0.648013,-0.20494,18,32765
2.15339,0.62111,-0.199033,18,32765
2.15545,0.613854,-0.199326,18,32765
2.15748,0.60652,-0.199775,19,32765
2.14988,0.596579,-0.199248,19,32765
2.10383,0.57614,-0.195067,19,32765
2.09608,0.566509,-0.194706,18,32765
2.10759,0.561979,-0.195786,19,32765
2.11906,0.55736,-0.197302,20,32765
2.09203,0.542585,-0.194746,18,32765
2.06489,0.527972,-0.192581,18,32765
2.03765,0.51361,-0.19044,18,32765
2.05868,0.511538,-0.192528,19,32765
1.98296,0.485651,-0.185767,18,32765
1.97488,0.476609,-0.18521,18,32765
1.96677,0.467579,-0.184657,19,32765
1.95864,0.458519,-0.184076,20,32765
1.96987,0.453974,-0.185573,19,32765
1.97138,0.447154,-0.18603,19,32765
1.92425,0.429633,-0.181834,19,32765
1.9354,0.425247,-0.183059,19,32765
1.9368,0.418614,-0.183523,19,32765
1.93816,0.412001,-0.184124,19,32765
1.90054,0.397174,-0.180804,18,32765
2.18471,0.448718,-0.208079,14,32765
2.33259,0.47066,-0.222733,13,32765
2.24627,0.445163,-0.21473,13,32765
2.31614,0.450804,-0.221711,13,32765
2.31762,0.442887,-0.222257,13,32765
2.27993,0.427688,-0.21884,14,32765
2.07568,0.382117,-0.19981,15,32765
1.96915,0.355606,-0.189993,14,32765
1.98012,0.350696,-0.191195,14,32765
2.04009,0.354125,-0.197522,14,32765
1.98237,0.337084,-0.1923,13,32765
2.06203,0.343241,-0.200545,13,32765
1.98457,0.323298,-0.19327,13,32765
1.98563,0.316459,-0.193725,13,32765
2.07514,0.323452,-0.203121,12,32765
1.9188,0.292358,-0.187723,13,32765
1.96895,0.293033,-0.193318,12,32765
1.89112,0.274781,-0.185904,13,32765
1.88214,0.26692,-0.185488,13,32765
1.952,0.270119,-0.192713,12,32765
1.9134,0.25825,-0.189235,13,32765
1.85503,0.243977,-0.183701,13,32765
1.9644,0.251547,-0.194854,13,32765
1.91584,0.238617,-0.190347,14,32765
1.91659,0.232029,-0.190865,13,32765
1.85804,0.218574,-0.185221,13,32765
1.84885,0.211173,-0.184552,13,32765
1.87917,0.208274,-0.187963,14,32765
1.87983,0.201959,-0.188255,14,32765
1.84088,0.191498,-0.184648,14,32765
0,0,-0,0,32765
0,0,-0,0,32765
0,0,-0,0,32765
0,0,-0,0,32765
0,0,-0,0,32765
0,0,-0,0,32765
0,0,-0,0,32765
0,0,-0,0,32765
0,0,-0,0,32765
0,0,-0,0,32765
0,0,-0,0,32765
0,0,-0,0,32765
0,0,-0,0,32765
0,0,-0,0,32765
1.66903,0.0889351,-0.169781,19,32765
1.66933,0.083384,-0.169631,21,32765
1.67952,0.0782478,-0.170827,21,32765
1.66984,0.0722134,-0.169721,21,32765
1.67007,0.0666355,-0.16978,21,32765
1.68022,0.0613661,-0.170873,19,32765
1.6506,0.0547781,-0.167679,21,32765
1.66072,0.0495894,-0.168712,21,32765
1.65094,0.043885,-0.167514,21,32765
1.63119,0.037948,-0.165482,20,32765
1.66115,0.0330646,-0.168485,21,32765
1.65133,0.027298,-0.167228,18,32765
1.64146,0.0216594,-0.166205,21,32765
1.64155,0.0162564,-0.165995,20,32765
1.63166,0.0108377,-0.164813,20,32765
1.62177,0.00543181,-0.163538,20,32765
1.62181,5.04234e-05,-0.163219,20,32765
1.65168,-0.00549857,-0.165926,19,32765
1.60196,-0.0105965,-0.160389,20,32765
1.60197,-0.0158868,-0.159779,20,32765
1.61192,-0.0212728,-0.160173,21,32765
2.43788,0.816423,-0.215813,18,32765
2.41203,0.798965,-0.215046,18,32765
2.39558,0.784751,-0.215109,18,32765
2.36957,0.767666,-0.214089,18,32765
2.32454,0.744591,-0.211213,17,32765
2.3459,0.74276,-0.214375,18,32765
2.33874,0.731946,-0.214834,18,32765
2.35056,0.727119,-0.216973,17,32765
2.31473,0.707701,-0.214673,17,32765
2.27878,0.688577,-0.21245,16,32765
2.28092,0.681081,-0.213576,17,32765
2.28308,0.673517,-0.214524,16,32765
2.25651,0.657529,-0.213113,17,32765
2.22992,0.641686,-0.211201,17,32765
2.24152,0.636917,-0.213363,17,32765
2.23399,0.626517,-0.213668,17,32765
2.18805,0.605644,-0.209817,17,32765
2.17079,0.592963,-0.208917,17,32765
2.18229,0.588262,-0.210808,18,32765
2.15528,0.573335,-0.20891,17,32765
2.14748,0.563596,-0.20878,17,32765
2.12036,0.548911,-0.206846,17,32765
2.10283,0.536814,-0.205793,17,32765
2.12388,0.534488,-0.20848,17,32765
2.11593,0.524889,-0.208395,18,32765
2.05964,0.503389,-0.203391,18,32765
2.03223,0.489404,-0.201325,18,32765
2.03381,0.482485,-0.202009,18,32765
2.01598,0.471082,-0.200758,18,32765
2.01746,0.464373,-0.20149,18,32765
2.01894,0.457623,-0.202166,19,32765
2.01066,0.448731,-0.201924,18,32765
2.15794,0.473898,-0.21704,14,32765
2.14977,0.464369,-0.216646,15,32765
2.19024,0.465214,-0.221204,13,32765
2.30866,0.482091,-0.233576,15,32765
2.18348,0.448298,-0.221478,15,32765
2.37999,0.480345,-0.24195,13,32765
2.34249,0.46449,-0.238753,13,32765
2.39282,0.466096,-0.244227,13,32765
2.30639,0.441065,-0.235826,13,32765
2.15136,0.403785,-0.220508,14,32765
2.09398,0.385587,-0.214832,14,32765
0,0,-0,0,32765
2.09645,0.371311,-0.215918,12,32765
0,0,-0,0,32765
1.99094,0.338722,-0.205763,13,32765
0,0,-0,0,32765
0,0,-0,0,32765
0,0,-0,0,32765
0,0,-0,0,32765
0,0,-0,0,32765
0,0,-0,0,32765
0,0,-0,0,32765
2.05819,0.292383,-0.215602,14,32765
0,0,-0,0,32765
1.94175,0.262338,-0.204175,13,32765
1.97221,0.259634,-0.207316,13,32765
0,0,-0,0,32765
1.98369,0.247468,-0.209404,14,32765
0,0,-0,0,32765
0,0,-0,0,32765
0,0,-0,0,32765
0,0,-0,0,32765
0,0,-0,0,32765
0,0,-0,0,32765
1.90954,0.192329,-0.203857,14,32765
0,0,-0,0,32765
0,0,-0,0,32765
0,0,-0,0,32765
0,0,-0,0,32765
1.95195,0.163256,-0.21012,13,32765
0,0,-0,0,32765
0,0,-0,0,32765
0,0,-0,14,32765
0,0,-0,0,32765
0,0,-0,0,32765
0,0,-0,0,32765
0,0,-0,0,32765
0,0,-0,0,32765
0,0,-0,0,32765
0,0,-0,0,32765
1.72779,0.0802386,-0.189481,19,32765
1.73794,0.0748599,-0.190956,19,32765
1.72819,0.0686749,-0.190365,19,32765
1.71844,0.0624981,-0.189594,19,32765
1.70867,0.0563817,-0.18888,19,32765
1.74855,0.0519287,-0.193619,17,32765
1.72879,0.0455363,-0.191865,19,32765
1.71894,0.0395642,-0.191268,20,32765
1.70908,0.0336226,-0.190569,19,32765
1.68927,0.0275961,-0.188718,19,32765
1.69924,0.0220707,-0.190261,19,32765
1.72906,0.0166827,-0.194133,17,32765
1.68931,0.0107983,-0.190041,19,32765
1.69922,0.00522565,-0.191673,19,32765
1.67927,-0.000351983,-0.190175,19,32765
1.68916,-0.00588591,-0.191577,19,32765
1.699,-0.0115056,-0.193333,20,32765
1.68893,-0.0169425,-0.192924,18,32765
1.66894,-0.022284,-0.191159,19,32765
2.36901,0.795872,-0.233423,20,32765
2.33367,0.77546,-0.231391,19,32765
2.3739,0.780118,-0.236875,19,32765
2.33844,0.759986,-0.234613,19,32765
2.35977,0.758277,-0.237942,19,32765
2.35269,0.747277,-0.238431,19,32765
2.29806,0.721504,-0.233969,18,32765
2.32884,0.722695,-0.238126,18,32765
2.30255,0.706221,-0.236419,18,32765
2.31425,0.701526,-0.238729,18,32765
2.27831,0.682469,-0.235926,17,32765
2.2423,0.663596,-0.232911,18,32765
2.26347,0.661665,-0.236181,17,32765
2.20825,0.63748,-0.230993,18,32765
2.21982,0.632768,-0.233239,17,32765
2.1644,0.608942,-0.228387,17,32765
2.18556,0.60689,-0.231144,18,32765
2.12994,0.583669,-0.225986,18,32765
2.11259,0.571299,-0.224887,18,32765
2.11439,0.564262,-0.22576,19,32765
2.08733,0.549569,-0.223463,18,32765
2.06982,0.53755,-0.222259,19,32765
2.09081,0.535464,-0.225152,19,32765
2.06362,0.520996,-0.222816,19,32765
1.97843,0.492362,-0.214254,19,32765
2.00903,0.492602,-0.218079,20,32765
2.0106,0.485761,-0.218871,20,32765
1.99283,0.474292,-0.217438,19,32765
1.99435,0.467538,-0.218105,19,32765
1.99582,0.460881,-0.21883,19,32765
1.9585,0.445366,-0.215239,20,32765
1.9599,0.438824,-0.215952,20,32765
2.06814,0.455657,-0.228177,17,32765
2.31256,0.501161,-0.255588,14,32765
2.26558,0.48279,-0.250878,15,32765
2.25744,0.472938,-0.250365,14,32765
2.27842,0.469324,-0.25327,14,32765
2.25068,0.455739,-0.250684,14,32765
2.13515,0.42477,-0.238364,15,32765
2.06823,0.404197,-0.231179,15,32765
1.96217,0.376477,-0.21967,13,32765
2.01222,0.378922,-0.225762,12,32765
2.09167,0.386439,-0.234869,14,32765
0,0,-0,0,32765
2.04521,0.363444,-0.230443,14,32765
0,0,-0,0,32765
2.00834,0.342829,-0.226987,13,32765
0,0,-0,0,32765
0,0,-0,0,32765
0,0,-0,0,32765
0,0,-0,0,32765
0,0,-0,0,32765
0,0,-0,0,32765
0,0,-0,0,32765
1.97725,0.281852,-0.226176,12,32765
0,0,-0,0,32765
1.98887,0.269638,-0.228278,13,32765
1.82231,0.240738,-0.209097,13,32765
0,0,-0,0,32765
1.90267,0.238198,-0.219149,13,32765
0,0,-0,0,32765
0,0,-0,0,32765
0,0,-0,0,32765
0,0,-0,0,32765
0,0,-0,0,32765
0,0,-0,0,32765
1.84817,0.186836,-0.215039,12,32765
0,0,-0,0,32765
0,0,-0,0,32765
0,0,-0,0,32765
0,0,-0,0,32765
1.85086,0.155401,-0.216975,14,32765
0,0,-0,26,32765
0,0,-0,17,32765
0,0,-0,13,32765
0,0,-0,0,32765
0,0,-0,0,32765
0,0,-0,0,32765
0,0,-0,0,32765
0,0,-0,0,32765
0,0,-0,0,32765
0,0,-0,0,32765
1.6664,0.0777558,-0.198689,19,32765
1.68645,0.072999,-0.201429,21,32765
1.66678,0.0665722,-0.199542,20,32765
1.65703,0.060585,-0.198666,20,32765
1.67703,0.0556462,-0.20142,20,32765
1.69701,0.0506949,-0.204141,17,32765
1.65742,0.0439309,-0.199793,20,32765
1.6575,0.0384095,-0.200281,20,32765
1.64765,0.0326567,-0.199474,20,32765
1.6477,0.0271446,-0.199831,20,32765
1.64774,0.021614,-0.20025,20,32765
1.68744,0.0164831,-0.205598,18,32765
1.62788,0.0105858,-0.198698,20,32765
1.62785,0.00517153,-0.199191,20,32765
1.6377,-0.000191494,-0.201131,20,32765
1.62773,-0.0055358,-0.200178,19,32765
1.62763,-0.0109008,-0.200782,21,32765
1.65727,-0.0165159,-0.205162,19,32765
1.61745,-0.021505,-0.200737,21,32765
2.52502,0.851027,-0.287135,16,32765
2.46184,0.820593,-0.279434,17,32765
2.44564,0.806183,-0.277551,17,32765
2.41991,0.78886,-0.274483,18,32765
2.40356,0.774727,-0.272613,18,32765
2.40614,0.766564,-0.272912,19,32765
2.38022,0.749492,-0.270005,18,32765
2.35421,0.732534,-0.267346,18,32765
2.37567,0.730391,-0.269699,17,32765
2.33049,0.707972,-0.264719,17,32765
2.34233,0.702971,-0.266332,18,32765
2.32554,0.689426,-0.264835,18,32765
2.35644,0.689915,-0.268556,18,32765
2.29184,0.662597,-0.26158,17,32765
2.26534,0.646685,-0.258731,17,32765
2.27704,0.641666,-0.260315,17,32765
2.25999,0.628618,-0.258644,17,32765
2.25242,0.618432,-0.258181,17,32765
2.264,0.613412,-0.260025,16,32765
2.23719,0.598124,-0.25716,17,32765
2.20074,0.580296,-0.253159,17,32765
2.17378,0.565261,-0.25054,17,32765
2.16599,0.555373,-0.250071,17,32765
2.13892,0.540649,-0.24725,17,32765
2.10211,0.523881,-0.243077,18,32765
2.1038,0.516709,-0.243822,18,32765
2.09579,0.507326,-0.243283,17,32765
2.06841,0.493349,-0.240587,18,32765
2.0507,0.481738,-0.238676,18,32765
2.0039,0.463403,-0.233575,18,32765
2.10233,0.478345,-0.245567,15,32765
2.22994,0.499281,-0.26093,14,32765
2.30919,0.508688,-0.270705,14,32765
2.31085,0.500789,-0.271243,13,32765
2.30276,0.490873,-0.270672,13,32765
2.2849,0.478915,-0.269044,13,32765
2.37403,0.489147,-0.27988,14,32765
2.30743,0.46722,-0.272725,13,32765
2.22128,0.441935,-0.262727,13,32765
2.18371,0.426703,-0.258745,13,32765
2.11681,0.40605,-0.251261,12,32765
2.12789,0.400645,-0.252888,12,32765
0,0,-0,0,32765
2.09134,0.379043,-0.249438,13,32765
0,0,-0,0,32765
2.15248,0.374912,-0.257398,11,32765
1.99706,0.340816,-0.239179,12,32765
1.97856,0.33068,-0.237364,12,32765
2.00903,0.328668,-0.241391,12,32765
2.0003,0.320233,-0.240539,13,32765
1.94247,0.30409,-0.234,14,32765
1.9238,0.294487,-0.232064,16,32765
1.96405,0.29368,-0.237172,16,32765
1.96499,0.286897,-0.237703,15,32765
1.99541,0.284349,-0.241649,15,32765
2.01598,0.280211,-0.244544,14,32765
1.96769,0.266746,-0.238808,13,32765
1.96853,0.260124,-0.239235,14,32765
1.99889,0.257279,-0.243198,13,32765
1.95044,0.244387,-0.237581,14,32765
2.00051,0.243727,-0.243835,14,32765
1.92242,0.227558,-0.234571,13,32765
1.98232,0.227827,-0.24204,12,32765
1.91399,0.213418,-0.233852,13,32765
1.89494,0.20485,-0.23158,13,32765
0,0,-0,0,32765
1.96538,0.198872,-0.240511,12,32765
1.92648,0.188279,-0.236091,12,32765
0,0,-0,0,32765
0,0,-0,12,32765
0,0,-0,0,32765
1.96837,0.165361,-0.241417,12,32765
0,0,-0,0,32765
0,0,-0,0,32765
0,0,-0,0,32765
0,0,-0,0,32765
0,0,-0,0,32765
1.892,0.120466,-0.232179,13,32765
1.89239,0.114085,-0.232291,13,32765
0,0,-0,0,32765
0,0,-0,0,32765
0,0,-0,0,32765
1.83425,0.0861439,-0.224949,14,32765
1.72544,0.0752427,-0.211612,19,32765
1.74554,0.0702464,-0.213867,19,32765
