x, y, z, intensity, ring
2.3032,0.338287,-0.0986308,21,32765
2.30432,0.330491,-0.0989492,22,32765
2.26583,0.317125,-0.0977415,21,32765
2.29656,0.313571,-0.09938,21,32765
2.28769,0.304536,-0.0992692,21,32765
2.24906,0.291586,-0.0980139,21,32765
2.25002,0.284029,-0.098285,21,32765
2.31044,0.283793,-0.10116,22,32765
2.30143,0.274874,-0.101238,21,32765
2.26263,0.262568,-0.0997519,21,32765
2.28334,0.257159,-0.101238,21,32765
2.24445,0.245119,-0.0997717,20,32765
2.23532,0.236499,-0.0996435,20,32765
2.2659,0.232086,-0.101209,20,32765
2.26665,0.224582,-0.101309,20,32765
2.27731,0.217849,-0.102407,20,32765
2.22827,0.20562,-0.100573,19,32765
2.20903,0.196305,-0.10015,19,32765
2.23953,0.191423,-0.101765,20,32765
2.22024,0.182247,-0.101154,20,32765
2.21085,0.173957,-0.10131,20,32765
2.27118,0.17103,-0.104355,21,32765
2.21193,0.159183,-0.10221,21,32765
2.24233,0.153932,-0.103657,21,32765
2.20292,0.14397,-0.10249,20,32765
2.25322,0.139747,-0.105289,20,32765
2.2038,0.129343,-0.103076,20,32765
2.22415,0.122967,-0.104616,20,32765
2.26443,0.117597,-0.106942,16,32765
2.22488,0.108213,-0.105362,20,32765
2.2252,0.100798,-0.105969,20,32765
2.23548,0.0939317,-0.106873,20,32765
2.22577,0.0861281,-0.106858,21,32765
2.19608,0.0776937,-0.105819,21,32765
2.17633,0.0697285,-0.105452,20,32765
2.17652,0.0624256,-0.106101,21,32765
2.1767,0.0552354,-0.106524,21,32765
2.17684,0.0480164,-0.106979,21,32765
2.18696,0.0411094,-0.107744,21,32765
2.16708,0.0338039,-0.107401,22,32765
2.16714,0.026755,-0.108074,21,32765
2.17717,0.0197378,-0.109374,21,32765
2.16721,0.012375,-0.109317,21,32765
2.14724,0.005087,-0.108757,21,32765
2.16718,-0.00189577,-0.110519,21,32765
2.17711,-0.00894327,-0.111876,21,32765
2.17704,-0.0158703,-0.112501,21,32765
2.16694,-0.0227505,-0.112965,21,32765
2.16682,-0.0297391,-0.11361,21,32765
2.49489,0.827593,-0.0867896,21,32765
2.41202,0.791468,-0.0855358,20,32765
2.44304,0.792885,-0.0882277,21,32765
2.40746,0.772779,-0.088609,20,32765
2.42897,0.77094,-0.090988,21,32765
2.38375,0.748047,-0.0904087,21,32765
2.39569,0.743161,-0.0921285,21,32765
2.38855,0.732201,-0.093234,22,32765
2.3622,0.715657,-0.0934443,22,32765
2.39319,0.71656,-0.0958705,22,32765
2.39545,0.708796,-0.0970791,24,32765
2.37853,0.695354,-0.0973432,22,32765
2.37122,0.684483,-0.0984222,23,32765
2.38311,0.679109,-0.0999682,23,32765
2.33727,0.657486,-0.098931,22,32765
2.34905,0.652308,-0.100376,23,32765
2.36078,0.647191,-0.101829,23,32765
2.35321,0.636761,-0.102604,23,32765
2.35525,0.629036,-0.103528,22,32765
2.33795,0.616169,-0.103659,21,32765
2.33029,0.605802,-0.104199,22,32765
2.33224,0.59806,-0.105182,22,32765
2.30514,0.582889,-0.104787,21,32765
2.31674,0.577563,-0.105901,22,32765
2.31864,0.569746,-0.106822,22,32765
2.31079,0.559647,-0.107086,22,32765
2.30289,0.549568,-0.107579,21,32765
2.31442,0.544085,-0.108679,22,32765
2.28703,0.529434,-0.108213,22,32765
2.25956,0.515018,-0.107478,21,32765
2.28076,0.511703,-0.109142,22,32765
2.27267,0.50197,-0.109174,22,32765
2.27431,0.494248,-0.11016,21,32765
2.27594,0.486603,-0.110488,21,32765
2.258,0.474721,-0.110419,21,32765
2.25958,0.467023,-0.110926,23,32765
2.26112,0.459362,-0.111515,23,32765
2.25285,0.449658,-0.111649,23,32765
2.23472,0.438241,-0.111258,23,32765
2.25576,0.434483,-0.113013,23,32765
2.23754,0.423273,-0.112435,23,32765
2.23892,0.415795,-0.112886,22,32765
2.24028,0.408254,-0.113426,22,32765
2.22195,0.397232,-0.112812,23,32765
2.22325,0.38978,-0.113209,22,32765
2.24421,0.385656,-0.114908,23,32765
2.24547,0.378083,-0.115465,23,32765
2.22703,0.367113,-0.114727,23,32765
2.23813,0.361019,-0.115525,23,32765
2.20973,0.348633,-0.114582,22,32765
2.22077,0.342596,-0.11535,23,32765
2.21202,0.333573,-0.115254,23,32765
2.18348,0.321603,-0.114357,22,32765
2.20431,0.317037,-0.115697,23,32765
2.21525,0.310919,-0.116697,22,32765
2.20637,0.302106,-0.116521,22,32765
2.20736,0.294674,-0.116828,22,32765
2.20833,0.287117,-0.117284,22,32765
2.19936,0.278424,-0.117024,22,32765
2.20027,0.271032,-0.117288,22,32765
2.20114,0.263648,-0.117779,23,32765
2.19208,0.255111,-0.1175,22,32765
2.20282,0.248806,-0.118622,23,32765
2.18378,0.239183,-0.11784,23,32765
2.20442,0.233907,-0.119221,23,32765
2.19525,0.225505,-0.118914,23,32765
2.19598,0.218217,-0.119012,23,32765
2.16685,0.207893,-0.118018,22,32765
2.1874,0.202446,-0.119497,23,32765
2.16816,0.193247,-0.118877,22,32765
2.18868,0.187637,-0.120224,23,32765
2.18929,0.180248,-0.120514,23,32765
2.16995,0.171257,-0.120017,22,32765
2.15058,0.162444,-0.119207,22,32765
2.16104,0.156001,-0.120346,23,32765
2.18146,0.150219,-0.121521,23,32765
2.15202,0.141086,-0.120517,22,32765
2.17238,0.135162,-0.122095,23,32765
2.15287,0.126761,-0.12109,23,32765
2.16323,0.11999,-0.122241,22,32765
2.16359,0.112733,-0.122671,20,32765
2.27363,0.110957,-0.1292,15,32765
2.17422,0.0988275,-0.124127,17,32765
2.15456,0.09085,-0.123402,23,32765
2.14485,0.0832959,-0.123276,22,32765
2.15507,0.0765256,-0.124241,23,32765
2.12534,0.0683564,-0.123097,23,32765
2.1355,0.0614944,-0.124312,23,32765
2.15563,0.0549308,-0.125893,23,32765
2.11585,0.0468794,-0.124003,23,32765
2.12596,0.0401547,-0.124855,22,32765
2.13602,0.0334957,-0.126074,22,32765
2.10613,0.0261588,-0.12496,23,32765
2.11614,0.0193254,-0.126332,22,32765
2.13614,0.012322,-0.127962,23,32765
2.10619,0.00509497,-0.126608,22,32765
2.12612,-0.0017705,-0.128544,23,32765
2.10609,-0.00857961,-0.128157,23,32765
2.11599,-0.0153696,-0.129372,23,32765
2.09591,-0.021966,-0.129099,22,32765
2.10577,-0.0288789,-0.13034,22,32765
2.50199,0.83299,-0.125654,20,32765
2.4763,0.815293,-0.123917,20,32765
2.48854,0.810007,-0.124296,20,32765
2.4722,0.79559,-0.123527,21,32765
2.48434,0.790461,-0.123828,21,32765
2.42972,0.764342,-0.121373,20,32765
2.44173,0.759404,-0.121963,21,32765
2.45376,0.75426,-0.122663,21,32765
2.44668,0.743187,-0.122609,21,32765
2.45871,0.73784,-0.1234,21,32765
2.46113,0.729684,-0.123613,21,32765
2.43472,0.713224,-0.122688,20,32765
2.44666,0.707896,-0.12342,21,32765
2.41054,0.688815,-0.122094,19,32765
2.43207,0.686087,-0.123357,20,32765
2.41511,0.67249,-0.12296,20,32765
2.38845,0.656394,-0.121873,21,32765
2.40991,0.653519,-0.123389,20,32765
2.41207,0.645448,-0.123831,20,32765
2.37557,0.627145,-0.12236,20,32765
2.36796,0.616669,-0.122496,20,32765
2.38931,0.613808,-0.123765,20,32765
2.39132,0.60582,-0.124287,20,32765
2.37392,0.592985,-0.124041,20,32765
2.38558,0.587359,-0.125027,20,32765
2.3778,0.576968,-0.125207,20,32765
2.35057,0.561991,-0.124034,21,32765
2.36212,0.556443,-0.125229,20,32765
2.3445,0.543959,-0.124648,21,32765
2.33656,0.533758,-0.1248,21,32765
2.33833,0.525858,-0.12521,21,32765
2.34008,0.517884,-0.125736,21,32765
2.32225,0.505771,-0.125469,21,32765
2.34346,0.502118,-0.126828,21,32765
2.35489,0.496194,-0.128087,21,32765
2.35652,0.488156,-0.128861,21,32765
2.33857,0.476147,-0.128345,20,32765
2.35975,0.471975,-0.130122,20,32765
2.33192,0.458173,-0.129008,21,32765
2.29421,0.442639,-0.127514,21,32765
2.3349,0.442349,-0.130188,21,32765
2.32653,0.432714,-0.130087,21,32765
2.32792,0.424889,-0.13093,21,32765
2.34897,0.420597,-0.132513,21,32765
2.33069,0.409041,-0.132166,21,32765
2.32221,0.399356,-0.132188,21,32765
2.3137,0.389712,-0.132056,20,32765
2.32484,0.383421,-0.133147,21,32765
2.29652,0.370811,-0.131925,21,32765
2.33717,0.369241,-0.134972,20,32765
2.28903,0.353742,-0.132774,19,32765
2.30008,0.347388,-0.133678,20,32765
2.28147,0.336545,-0.133113,20,32765
2.30235,0.3316,-0.134697,20,32765
2.28366,0.320994,-0.134051,21,32765
2.30447,0.316089,-0.135732,22,32765
2.32528,0.311016,-0.13727,22,32765
2.29659,0.299228,-0.136143,21,32765
2.28766,0.290194,-0.135988,21,32765
2.2886,0.282506,-0.136325,21,32765
2.2895,0.274875,-0.136888,21,32765
2.27055,0.26507,-0.135844,21,32765
2.31107,0.262047,-0.138546,21,32765
2.29206,0.252142,-0.137815,21,32765
2.28296,0.243221,-0.137631,21,32765
2.28376,0.235436,-0.137809,21,32765
2.26467,0.225798,-0.136724,21,32765
2.26539,0.218108,-0.137258,21,32765
2.24621,0.208719,-0.136296,21,32765
2.26676,0.202911,-0.137962,21,32765
2.25748,0.194393,-0.137392,21,32765
2.24817,0.185926,-0.137043,21,32765
2.23883,0.177518,-0.136451,20,32765
2.24935,0.170822,-0.137308,21,32765
2.24987,0.163383,-0.137765,21,32765
2.23048,0.154647,-0.136508,20,32765
2.2509,0.148571,-0.137774,21,32765
2.23146,0.139782,-0.136515,20,32765
2.20201,0.130579,-0.134979,20,32765
2.21239,0.123764,-0.135614,20,32765
2.22276,0.117041,-0.136184,19,32765
2.3627,0.116616,-0.144807,12,32765
2.26338,0.10418,-0.138439,15,32765
2.20388,0.0941884,-0.134711,20,32765
2.24406,0.08844,-0.137324,21,32765
2.2244,0.0803142,-0.135974,20,32765
2.20472,0.0722903,-0.134495,20,32765
2.20495,0.064902,-0.134402,21,32765
2.20517,0.0575817,-0.134222,21,32765
2.16544,0.0493392,-0.131728,21,32765
2.19553,0.0428411,-0.133462,20,32765
2.19569,0.0356614,-0.132941,21,32765
2.17584,0.0281044,-0.131626,21,32765
2.17595,0.0210134,-0.131122,21,32765
2.16604,0.0138279,-0.130291,21,32765
2.17607,0.00670614,-0.130587,21,32765
2.14617,-0.000502125,-0.12823,22,32765
2.15618,-0.00776567,-0.128235,22,32765
2.18612,-0.0151914,-0.129485,21,32765
2.16613,-0.02218,-0.127628,22,32765
2.17608,-0.0291933,-0.127405,21,32765
2.39587,0.799966,-0.144152,23,32765
2.38906,0.788841,-0.143286,22,32765
2.39172,0.780738,-0.143196,22,32765
2.39431,0.772742,-0.143372,21,32765
2.40637,0.767857,-0.143775,22,32765
2.39933,0.756952,-0.143595,23,32765
2.38272,0.74318,-0.142568,22,32765
2.37562,0.732335,-0.142217,22,32765
2.36847,0.721494,-0.142056,23,32765
2.38999,0.719273,-0.143508,22,32765
2.37322,0.705632,-0.142566,23,32765
2.3659,0.695049,-0.142497,22,32765
2.34902,0.681589,-0.141584,23,32765
2.38962,0.684789,-0.144502,23,32765
2.36309,0.668534,-0.143044,23,32765
2.36531,0.660508,-0.143613,22,32765
2.35789,0.649846,-0.143408,23,32765
2.36005,0.641826,-0.143932,23,32765
2.35252,0.631313,-0.143778,23,32765
2.35461,0.623387,-0.144285,23,32765
2.32767,0.607911,-0.143135,22,32765
2.32966,0.600192,-0.143398,22,32765
2.33162,0.592383,-0.143909,23,32765
2.32387,0.582142,-0.144058,23,32765
2.32579,0.574276,-0.144527,23,32765
2.32768,0.566421,-0.145203,23,32765
2.29073,0.54925,-0.143135,22,32765
2.32165,0.548476,-0.145626,22,32765
2.27486,0.529312,-0.143018,21,32765
2.30579,0.528238,-0.145513,22,32765
2.29781,0.518225,-0.145304,21,32765
2.28005,0.506044,-0.144586,21,32765
2.27194,0.496233,-0.144733,21,32765
2.26383,0.486449,-0.144408,22,32765
2.2752,0.48078,-0.145737,21,32765
2.27678,0.472994,-0.146486,22,32765
2.27834,0.46522,-0.147027,23,32765
2.25054,0.451431,-0.145805,22,32765
2.26183,0.445685,-0.146931,22,32765
2.2535,0.436041,-0.146958,22,32765
2.24513,0.426571,-0.146795,22,32765
2.24651,0.419042,-0.147227,21,32765
2.24786,0.411466,-0.148043,21,32765
2.23938,0.40214,-0.147853,22,32765
2.24071,0.394394,-0.148586,22,32765
2.24201,0.386689,-0.149147,22,32765
2.21379,0.373973,-0.147596,22,32765
2.23471,0.369637,-0.149417,23,32765
2.22607,0.360489,-0.149216,23,32765
2.23709,0.354469,-0.150626,23,32765
2.19879,0.340798,-0.148596,22,32765
2.22952,0.337726,-0.150917,23,32765
2.23064,0.33002,-0.151488,23,32765
2.22185,0.320956,-0.151236,24,32765
2.2229,0.313384,-0.151732,22,32765
2.2239,0.305948,-0.152236,23,32765
2.215,0.297153,-0.151915,23,32765
2.22585,0.290883,-0.153201,23,32765
2.207,0.280807,-0.152256,23,32765
2.19801,0.272144,-0.151898,23,32765
2.20878,0.26599,-0.153125,23,32765
2.18981,0.256424,-0.151889,23,32765
2.20054,0.250278,-0.15289,23,32765
2.21125,0.244001,-0.154022,23,32765
2.20213,0.235335,-0.15373,23,32765
2.19299,0.22678,-0.153209,23,32765
2.20366,0.220401,-0.154013,23,32765
2.1845,0.21098,-0.153142,23,32765
2.19511,0.204615,-0.154074,23,32765
2.18582,0.196288,-0.153821,23,32765
2.17653,0.188023,-0.153157,23,32765
2.1672,0.179809,-0.152705,23,32765
2.17774,0.173235,-0.153419,22,32765
2.17829,0.165969,-0.153663,22,32765
2.1788,0.158746,-0.154106,22,32765
2.18926,0.152297,-0.154773,22,32765
2.1798,0.144365,-0.154115,22,32765
2.18027,0.137043,-0.154077,22,32765
2.16078,0.128579,-0.152958,21,32765
2.17116,0.121885,-0.153686,22,32765
2.17155,0.114754,-0.153647,22,32765
2.16195,0.107097,-0.15301,23,32765
2.15235,0.0994376,-0.152059,22,32765
2.1726,0.0932051,-0.1534,21,32765
2.15295,0.085181,-0.15216,23,32765
2.1632,0.0784191,-0.152739,23,32765
2.15349,0.0709053,-0.151783,23,32765
2.14375,0.0633752,-0.15099,23,32765
2.13399,0.055978,-0.150113,23,32765
2.14415,0.0490916,-0.150751,23,32765
2.12436,0.0416696,-0.149265,23,32765
2.14446,0.0350302,-0.150158,23,32765
2.0947,0.0272345,-0.146563,22,32765
2.11476,0.0205841,-0.147469,22,32765
2.12481,0.0137089,-0.14794,22,32765
2.12487,0.0066743,-0.147643,22,32765
2.10496,-0.000386081,-0.145707,22,32765
2.08504,-0.00742255,-0.143755,22,32765
2.10499,-0.0145584,-0.144619,22,32765
2.11495,-0.0216047,-0.144645,22,32765
2.11492,-0.0283394,-0.143857,22,32765
2.46342,0.819785,-0.139639,21,32765
2.4849,0.818122,-0.142657,21,32765
2.49694,0.813087,-0.145242,21,32765
2.47097,0.795751,-0.145155,20,32765
2.48298,0.790662,-0.147521,20,32765
2.43791,0.767334,-0.146305,20,32765
2.41172,0.750425,-0.146143,20,32765
2.46182,0.757078,-0.150518,21,32765
2.45466,0.746098,-0.151234,21,32765
2.43788,0.732336,-0.15141,21,32765
2.45934,0.729917,-0.154135,21,32765
2.46167,0.72179,-0.155262,21,32765
2.38732,0.691231,-0.151734,20,32765
2.40872,0.688757,-0.1542,20,32765
2.40132,0.678063,-0.154648,20,32765
2.40347,0.670078,-0.156013,20,32765
2.42485,0.667443,-0.158154,21,32765
2.36923,0.64354,-0.155532,21,32765
2.39063,0.640684,-0.157553,20,32765
2.412,0.637745,-0.159867,21,32765
2.39476,0.624545,-0.159556,20,32765
2.37745,0.611562,-0.159159,20,32765
2.36974,0.60117,-0.159506,20,32765
2.36202,0.590774,-0.159501,21,32765
2.36391,0.582876,-0.160594,21,32765
2.3755,0.577262,-0.16213,20,32765
2.36764,0.567005,-0.162398,20,32765
2.36951,0.558933,-0.163119,19,32765
2.38106,0.553113,-0.164672,21,32765
2.36346,0.540455,-0.163972,20,32765
2.33603,0.525873,-0.162596,21,32765
2.36695,0.524445,-0.165519,21,32765
2.33944,0.510058,-0.163935,21,32765
2.3606,0.506375,-0.16603,20,32765
2.32323,0.490094,-0.163781,20,32765
2.37368,0.492332,-0.167792,20,32765
2.32641,0.474368,-0.164837,20,32765
2.34753,0.470352,-0.166918,20,32765
2.34907,0.462345,-0.167619,20,32765
2.3408,0.452549,-0.16723,20,32765
2.32268,0.440901,-0.1663,21,32765
2.33391,0.434944,-0.167626,20,32765
2.32552,0.425209,-0.167535,22,32765
2.33675,0.41905,-0.168523,21,32765
2.30865,0.405875,-0.167023,21,32765
2.33948,0.403151,-0.169431,21,32765
2.35063,0.396998,-0.17035,21,32765
2.31255,0.382553,-0.168077,21,32765
2.32365,0.376273,-0.169315,21,32765
2.31506,0.366657,-0.169035,21,32765
2.3163,0.358633,-0.169205,21,32765
2.33722,0.353541,-0.171189,20,32765
2.32853,0.34405,-0.1708,20,32765
2.30993,0.33329,-0.169599,21,32765
2.2715,0.319945,-0.167138,20,32765
2.31207,0.317673,-0.170396,21,32765
2.29333,0.307215,-0.169264,21,32765
2.29432,0.299451,-0.169748,21,32765
2.27552,0.289159,-0.168537,21,32765
2.30615,0.285128,-0.171155,21,32765
2.29719,0.276126,-0.170516,21,32765
2.25846,0.263744,-0.167947,20,32765
2.27912,0.258359,-0.169831,21,32765
2.28987,0.251725,-0.170949,21,32765
2.30061,0.245063,-0.171928,21,32765
2.27163,0.234187,-0.170184,20,32765
2.2823,0.227563,-0.171244,20,32765
2.29295,0.220782,-0.172373,21,32765
2.28373,0.212188,-0.171957,20,32765
2.28438,0.20453,-0.172539,20,32765
2.28505,0.196814,-0.172649,21,32765
2.23596,0.185001,-0.169521,20,32765
2.2465,0.178179,-0.170599,21,32765
2.26694,0.172116,-0.172505,21,32765
2.23763,0.162267,-0.170827,21,32765
2.24808,0.155419,-0.171966,20,32765
2.22866,0.146633,-0.170765,21,32765
2.23905,0.139868,-0.172058,21,32765
2.21956,0.131308,-0.17092,20,32765
2.23985,0.125077,-0.17306,21,32765
2.24022,0.117645,-0.173429,21,32765
2.24058,0.110262,-0.173563,20,32765
2.32057,0.106385,-0.180443,15,32765
2.24117,0.0952806,-0.174928,19,32765
2.24144,0.087855,-0.1753,20,32765
2.21178,0.0792423,-0.173609,21,32765
2.24189,0.0728455,-0.176365,21,32765
2.21218,0.0643987,-0.17474,21,32765
2.23227,0.0575812,-0.17673,21,32765
2.19253,0.049225,-0.174298,21,32765
2.20262,0.0421212,-0.175499,21,32765
2.19273,0.0347211,-0.175328,20,32765
2.20273,0.0276007,-0.176934,20,32765
2.19278,0.0203995,-0.176881,21,32765
2.20276,0.0133695,-0.178218,21,32765
2.17285,0.00608909,-0.176367,21,32765
2.18275,-0.00100836,-0.17809,20,32765
2.17269,-0.00820263,-0.1782,20,32765
2.20249,-0.0155267,-0.181342,20,32765
2.18242,-0.0224741,-0.180695,21,32765
2.22209,-0.0300818,-0.185202,20,32765
2.41401,0.805703,-0.160863,22,32765
2.41647,0.797931,-0.162756,22,32765
2.40945,0.786907,-0.164089,23,32765
2.39292,0.772883,-0.164319,23,32765
2.39533,0.764998,-0.166066,23,32765
2.37875,0.750922,-0.166321,23,32765
2.40015,0.749028,-0.169198,23,32765
2.40253,0.741025,-0.170651,23,32765
2.38578,0.727302,-0.170562,23,32765
2.38805,0.719488,-0.171889,23,32765
2.35208,0.700146,-0.170611,23,32765
2.38302,0.700796,-0.173785,23,32765
2.36613,0.687126,-0.173685,23,32765
2.3875,0.684712,-0.176328,23,32765
2.3609,0.668625,-0.175251,23,32765
2.35341,0.658066,-0.175877,23,32765
2.37473,0.655586,-0.178188,23,32765
2.3961,0.65277,-0.180789,22,32765
2.35972,0.634279,-0.178634,22,32765
2.32321,0.616094,-0.176725,22,32765
2.32521,0.60821,-0.177666,23,32765
2.35614,0.607884,-0.180761,23,32765
2.33876,0.595078,-0.180262,23,32765
2.31169,0.579907,-0.178661,22,32765
2.32321,0.57455,-0.180485,23,32765
2.31539,0.564333,-0.180589,22,32765
2.31719,0.556581,-0.181501,22,32765
2.30932,0.546363,-0.181446,22,32765
2.32082,0.540732,-0.183072,21,32765
2.30319,0.528251,-0.18217,22,32765
2.29519,0.518229,-0.18204,21,32765
2.31633,0.514769,-0.184455,22,32765
2.28881,0.500518,-0.182581,21,32765
2.30992,0.496994,-0.184849,22,32765
2.2628,0.478783,-0.181433,22,32765
2.25461,0.469044,-0.181195,22,32765
2.26591,0.463425,-0.182465,22,32765
2.24788,0.451746,-0.181559,22,32765
2.28848,0.451781,-0.185401,22,32765
2.27039,0.440266,-0.184118,22,32765
2.26204,0.430693,-0.183783,22,32765
2.28302,0.426754,-0.185986,21,32765
2.2452,0.411773,-0.183387,20,32765
2.276,0.4094,-0.186063,21,32765
2.24789,0.3964,-0.184266,22,32765
2.23938,0.387082,-0.183726,22,32765
2.24064,0.379582,-0.183925,22,32765
2.23204,0.370367,-0.183678,22,32765
2.25292,0.365944,-0.185804,22,32765
2.22462,0.353421,-0.183792,22,32765
2.22582,0.345689,-0.183956,22,32765
2.23682,0.339403,-0.185291,23,32765
2.21823,0.328773,-0.183977,23,32765
2.21932,0.321216,-0.184215,22,32765
2.23023,0.315115,-0.185465,23,32765
2.24113,0.308893,-0.186627,24,32765
2.22238,0.298648,-0.185298,22,32765
2.22334,0.291104,-0.185768,21,32765
2.2243,0.283547,-0.186015,21,32765
2.24499,0.278451,-0.188078,22,32765
2.20634,0.266055,-0.184857,22,32765
2.2171,0.259746,-0.186051,22,32765
2.23773,0.254487,-0.188116,23,32765
2.19893,0.242514,-0.185151,22,32765
2.18981,0.234022,-0.184546,23,32765
2.19056,0.226571,-0.185009,23,32765
2.18136,0.218218,-0.184475,23,32765
2.2019,0.21272,-0.186522,23,32765
2.18273,0.203484,-0.185158,23,32765
2.2032,0.197928,-0.187402,23,32765
2.19392,0.189609,-0.186665,23,32765
2.1945,0.182195,-0.18728,22,32765
2.20501,0.175497,-0.188446,23,32765
2.20556,0.168043,-0.188832,22,32765
2.1862,0.1591,-0.18771,23,32765
2.18669,0.151718,-0.18808,23,32765
2.1971,0.145083,-0.189251,23,32765
2.18758,0.137159,-0.188913,22,32765
2.17804,0.129336,-0.188439,22,32765
2.18835,0.12267,-0.189893,22,32765
2.18872,0.115389,-0.190255,23,32765
2.15923,0.106681,-0.187789,22,32765
2.16947,0.0998643,-0.189318,22,32765
2.17968,0.0930565,-0.190849,20,32765
2.23967,0.0881667,-0.196449,16,32765
2.16026,0.0777449,-0.190096,22,32765
2.16047,0.0705296,-0.190491,23,32765
2.16064,0.0632092,-0.191201,22,32765
2.1608,0.0560296,-0.191604,22,32765
2.14099,0.0483388,-0.190545,22,32765
2.16103,0.0415804,-0.192719,22,32765
2.14118,0.0341389,-0.191551,22,32765
2.15117,0.0271714,-0.193233,22,32765
2.1711,0.0203985,-0.195763,23,32765
2.14123,0.013176,-0.193587,22,32765
2.14121,0.00616212,-0.194147,22,32765
2.14113,-0.000845388,-0.195044,22,32765
2.13108,-0.00792062,-0.195042,22,32765
2.13098,-0.0149157,-0.195709,23,32765
2.14079,-0.021956,-0.197599,23,32765
2.1406,-0.0289068,-0.198762,23,32765
2.47682,0.829327,-0.204851,21,32765
2.45115,0.81181,-0.202271,20,32765
2.47271,0.810053,-0.204018,21,32765
2.4754,0.801872,-0.203727,21,32765
2.47804,0.793631,-0.203863,21,32765
2.47114,0.782351,-0.203509,21,32765
2.47369,0.774211,-0.203563,21,32765
2.45714,0.760206,-0.202418,21,32765
2.47867,0.757979,-0.2041,21,32765
2.46205,0.744052,-0.20267,20,32765
2.43587,0.727162,-0.200668,20,32765
2.43827,0.719026,-0.200864,19,32765
2.45021,0.713573,-0.202169,21,32765
2.43344,0.699714,-0.2009,21,32765
2.37821,0.675202,-0.196475,20,32765
2.39965,0.672513,-0.198557,21,32765
2.42108,0.669756,-0.20055,21,32765
2.39445,0.653699,-0.198464,21,32765
2.39656,0.645717,-0.199068,21,32765
2.43725,0.64787,-0.20248,21,32765
2.42972,0.637093,-0.202391,21,32765
2.41257,0.623786,-0.200938,21,32765
2.38568,0.608106,-0.199134,20,32765
2.39735,0.602402,-0.200596,20,32765
2.38966,0.591939,-0.200113,20,32765
2.3819,0.581549,-0.199866,20,32765
2.35474,0.566522,-0.197844,20,32765
2.36631,0.560822,-0.199083,20,32765
2.39731,0.55947,-0.201932,21,32765
2.36032,0.542266,-0.199362,21,32765
2.37185,0.536316,-0.200729,21,32765
2.35415,0.52398,-0.199555,21,32765
2.37535,0.520286,-0.201579,22,32765
2.34784,0.505871,-0.199661,21,32765
2.38848,0.506141,-0.203714,20,32765
2.37065,0.493867,-0.202525,21,32765
2.33325,0.477724,-0.199602,20,32765
2.3446,0.471598,-0.20116,19,32765
2.35595,0.465433,-0.2024,20,32765
2.33792,0.45361,-0.201169,20,32765
2.36877,0.451235,-0.20425,21,32765
2.34087,0.437732,-0.20206,21,32765
2.34226,0.429828,-0.202842,21,32765
2.31423,0.416599,-0.200942,21,32765
2.34503,0.414006,-0.203799,21,32765
2.33655,0.404293,-0.203687,21,32765
2.31823,0.392934,-0.20253,21,32765
2.29986,0.381604,-0.201514,20,32765
2.34047,0.380051,-0.205388,21,32765
2.30235,0.365755,-0.202463,20,32765
2.33305,0.362477,-0.205916,21,32765
2.30472,0.350022,-0.203314,20,32765
2.34525,0.347902,-0.207719,20,32765
2.32669,0.336966,-0.206365,19,32765
2.30803,0.326247,-0.205292,20,32765
2.27947,0.314398,-0.203159,21,32765
2.30021,0.309432,-0.205416,20,32765
2.31108,0.30295,-0.206693,22,32765
2.30218,0.293819,-0.206282,21,32765
2.29325,0.284667,-0.205862,21,32765
2.29415,0.276803,-0.206482,21,32765
2.28515,0.267909,-0.205909,21,32765
2.3058,0.262469,-0.208086,22,32765
2.30661,0.254774,-0.208637,22,32765
2.29752,0.245983,-0.208098,21,32765
2.28839,0.237225,-0.207642,21,32765
2.25941,0.226477,-0.205362,21,32765
2.27995,0.220717,-0.207635,21,32765
2.32032,0.216723,-0.211553,21,32765
2.30117,0.207134,-0.210072,20,32765
2.29189,0.198516,-0.209568,20,32765
2.27269,0.189259,-0.207796,20,32765
2.26334,0.180828,-0.20736,20,32765
2.25398,0.172529,-0.206642,20,32765
2.25451,0.16496,-0.207008,21,32765
2.26497,0.158152,-0.208071,21,32765
2.25553,0.149946,-0.207312,21,32765
2.24607,0.141733,-0.206633,21,32765
2.25646,0.134851,-0.207632,21,32765
2.25688,0.127302,-0.207764,21,32765
2.27715,0.120834,-0.209931,20,32765
2.23778,0.111303,-0.206062,21,32765
2.25801,0.10474,-0.208145,21,32765
2.25836,0.0972255,-0.208016,19,32765
2.31836,0.0920734,-0.213596,15,32765
2.23904,0.0813819,-0.206371,20,32765
2.26917,0.0749284,-0.208901,21,32765
2.23955,0.0665206,-0.206183,20,32765
2.22982,0.0589414,-0.205012,20,32765
2.23,0.0515679,-0.204993,20,32765
2.23017,0.0441001,-0.204961,20,32765
2.22038,0.0364361,-0.203712,20,32765
2.21053,0.0289209,-0.202778,20,32765
2.16085,0.0211768,-0.197934,20,32765
2.21072,0.0144762,-0.202256,20,32765
2.18091,0.00711943,-0.199159,21,32765
2.18096,-9.7396e-05,-0.19873,20,32765
2.20091,-0.00747338,-0.200149,20,32765
2.19098,-0.0146185,-0.198506,21,32765
2.16112,-0.0215359,-0.194976,21,32765
2.17106,-0.0287367,-0.195069,21,32765
2.41745,0.811979,-0.224107,22,32765
2.40122,0.797755,-0.222129,22,32765
2.40379,0.789931,-0.222311,22,32765
2.40642,0.781957,-0.22203,23,32765
2.39952,0.770876,-0.221291,23,32765
2.40204,0.762844,-0.221707,23,32765
2.39504,0.751926,-0.220886,23,32765
2.39746,0.74405,-0.221299,23,32765
2.39036,0.733245,-0.220531,23,32765
2.38322,0.722464,-0.219791,23,32765
2.39517,0.717231,-0.22102,23,32765
2.40709,0.712034,-0.222096,24,32765
2.38076,0.695497,-0.219957,23,32765
2.38309,0.687362,-0.220263,23,32765
2.3662,0.673875,-0.218815,23,32765
2.37802,0.66852,-0.220196,23,32765
2.39942,0.665824,-0.222374,23,32765
2.344,0.64191,-0.217335,23,32765
2.37492,0.64187,-0.220607,24,32765
2.34819,0.626132,-0.218136,24,32765
2.3406,0.615629,-0.217929,23,32765
2.33304,0.605095,-0.217183,22,32765
2.35436,0.601986,-0.219579,23,32765
2.32737,0.586635,-0.217517,23,32765
2.3583,0.585987,-0.220548,23,32765
2.35053,0.575675,-0.220202,23,32765
2.34275,0.56539,-0.21971,23,32765
2.364,0.562016,-0.221952,23,32765
2.3271,0.544775,-0.218705,22,32765
2.3095,0.532245,-0.217569,21,32765
2.31128,0.52425,-0.218104,21,32765
2.32271,0.518597,-0.219487,22,32765
2.31469,0.508586,-0.218935,22,32765
2.2969,0.496447,-0.217645,22,32765
2.27904,0.484464,-0.216507,22,32765
2.28065,0.476609,-0.216965,22,32765
2.29199,0.470753,-0.218297,22,32765
2.27403,0.458844,-0.217141,22,32765
2.25603,0.447099,-0.215664,23,32765
2.25751,0.439391,-0.216098,21,32765
2.28828,0.437281,-0.219443,22,32765
2.26036,0.424017,-0.216962,22,32765
2.2715,0.418166,-0.21866,21,32765
2.29244,0.413989,-0.221186,21,32765
2.27419,0.402779,-0.219591,20,32765
2.26568,0.393283,-0.219363,21,32765
2.24734,0.382139,-0.218004,21,32765
2.23878,0.372662,-0.217735,22,32765
2.24001,0.364911,-0.218147,23,32765
2.24121,0.357191,-0.21866,23,32765
2.262,0.352579,-0.221411,23,32765
2.24352,0.341834,-0.219491,23,32765
2.2446,0.334057,-0.220382,22,32765
2.23586,0.324871,-0.219793,23,32765
2.21718,0.314435,-0.218506,23,32765
2.2379,0.309682,-0.220939,23,32765
2.22901,0.300847,-0.220449,23,32765
2.22998,0.293291,-0.220832,22,32765
2.23092,0.285676,-0.221291,22,32765
2.24173,0.279206,-0.222726,22,32765
2.23273,0.270302,-0.222348,22,32765
2.22372,0.261591,-0.221675,23,32765
2.22455,0.254085,-0.222055,22,32765
2.22534,0.24664,-0.222587,23,32765
2.20633,0.237036,-0.220952,23,32765
2.19718,0.228562,-0.220386,23,32765
2.1979,0.221083,-0.220792,23,32765
2.1986,0.213592,-0.221247,23,32765
2.20918,0.207076,-0.222537,23,32765
2.21975,0.200522,-0.223851,23,32765
2.20055,0.191295,-0.222239,23,32765
2.19125,0.183145,-0.221279,22,32765
2.20173,0.176555,-0.222739,22,32765
2.19237,0.16844,-0.221923,23,32765
2.20281,0.161787,-0.223285,22,32765
2.1934,0.153741,-0.222426,22,32765
2.19388,0.146415,-0.222576,23,32765
2.20427,0.139645,-0.223814,23,32765
2.19478,0.131692,-0.222888,23,32765
2.18527,0.123766,-0.222009,23,32765
2.19557,0.116992,-0.223343,23,32765
2.17609,0.108697,-0.221125,22,32765
2.16648,0.100935,-0.220357,23,32765
2.17676,0.0941353,-0.221244,23,32765
2.17706,0.0868642,-0.221321,20,32765
2.21709,0.0809741,-0.225472,18,32765
2.15771,0.0716075,-0.219195,22,32765
2.14799,0.0641396,-0.218214,22,32765
2.16811,0.0576321,-0.219988,23,32765
2.14839,0.0499803,-0.217952,23,32765
2.1585,0.0429642,-0.21893,23,32765
2.15867,0.0356847,-0.218605,23,32765
2.15877,0.0284854,-0.218585,23,32765
2.15889,0.0213797,-0.218309,23,32765
2.15897,0.0143402,-0.218076,22,32765
2.13914,0.00716466,-0.21571,22,32765
2.14914,6.68188e-05,-0.21629,23,32765
2.12927,-0.00708851,-0.213904,22,32765
2.12931,-0.0140848,-0.213188,22,32765
2.11938,-0.0210179,-0.211385,21,32765
2.15918,-0.0284951,-0.214553,22,32765
2.46623,0.825917,-0.218322,20,32765
2.48771,0.824031,-0.221793,21,32765
2.47133,0.809565,-0.221911,20,32765
2.46435,0.798372,-0.222653,20,32765
2.48583,0.796256,-0.225868,21,32765
2.46937,0.781853,-0.225658,21,32765
2.46233,0.770626,-0.226187,21,32765
2.45524,0.759501,-0.226636,21,32765
2.46714,0.754299,-0.228808,21,32765
2.46947,0.746198,-0.230228,21,32765
2.46225,0.735225,-0.230555,20,32765
2.47413,0.729878,-0.232475,21,32765
2.44774,0.713252,-0.231174,21,32765
2.4309,0.69952,-0.230236,20,32765
2.44268,0.694076,-0.232511,21,32765
2.41616,0.677606,-0.231092,20,32765
2.45676,0.680021,-0.235584,22,32765
2.42053,0.66118,-0.232952,21,32765
2.44186,0.658231,-0.235882,21,32765
2.40545,0.639883,-0.233159,21,32765
2.42675,0.636889,-0.235931,21,32765
2.39022,0.618772,-0.233171,21,32765
2.42114,0.618075,-0.236945,20,32765
2.43281,0.612231,-0.238804,21,32765
2.43477,0.603982,-0.239796,20,32765
2.40775,0.588468,-0.237766,19,32765
2.40964,0.580293,-0.238714,19,32765
2.37278,0.562899,-0.235677,20,32765
2.40367,0.561675,-0.239365,21,32765
2.39574,0.551442,-0.239269,21,32765
2.36837,0.536826,-0.237156,21,32765
2.38948,0.533274,-0.239968,21,32765
2.36207,0.518726,-0.237571,21,32765
2.38323,0.514799,-0.240173,21,32765
2.37519,0.504499,-0.239883,21,32765
2.38659,0.498364,-0.241461,21,32765
2.37843,0.488324,-0.241253,20,32765
2.38974,0.482313,-0.242942,21,32765
2.37177,0.470296,-0.241737,19,32765
2.34399,0.456584,-0.239243,19,32765
2.35526,0.45041,-0.240822,20,32765
2.34693,0.440493,-0.240554,21,32765
2.35818,0.434236,-0.241937,21,32765
2.34978,0.424364,-0.24175,21,32765
2.34136,0.414688,-0.241142,22,32765
2.3525,0.408369,-0.2429,21,32765
2.3342,0.397122,-0.241239,21,32765
2.31585,0.385938,-0.239746,20,32765
2.32689,0.379664,-0.241504,21,32765
2.32814,0.371733,-0.241823,21,32765
2.33917,0.365227,-0.243461,21,32765
2.36986,0.361632,-0.247165,23,32765
2.31203,0.344625,-0.241394,20,32765
2.34267,0.340919,-0.245123,21,32765
2.34377,0.332952,-0.245518,21,32765
2.335,0.323514,-0.244982,22,32765
2.33601,0.315605,-0.245632,21,32765
2.29762,0.302473,-0.241524,21,32765
2.2887,0.293336,-0.241271,21,32765
2.30937,0.288097,-0.243783,21,32765
2.32017,0.281414,-0.245198,22,32765
2.32105,0.273616,-0.245693,21,32765
2.3219,0.265827,-0.246212,21,32765
2.30296,0.255717,-0.244686,21,32765
2.30378,0.247896,-0.245023,21,32765
2.31445,0.241002,-0.24664,21,32765
2.33498,0.235179,-0.249276,22,32765
2.30603,0.224382,-0.246517,21,32765
2.33644,0.219343,-0.250118,21,32765
2.2975,0.207938,-0.246327,21,32765
2.29811,0.200067,-0.247106,21,32765
2.27892,0.190603,-0.245318,20,32765
2.29932,0.18444,-0.247982,21,32765
2.28006,0.175089,-0.246296,20,32765
2.24094,0.164457,-0.242371,20,32765
2.26128,0.158226,-0.244935,21,32765
2.27167,0.151305,-0.246453,21,32765
2.27209,0.143658,-0.247076,21,32765
2.27253,0.135994,-0.247386,21,32765
2.28284,0.129016,-0.249028,21,32765
2.24351,0.119165,-0.245081,21,32765
2.26371,0.112672,-0.247676,21,32765
2.25407,0.104679,-0.247197,21,32765
2.27422,0.0979596,-0.249879,21,32765
2.29432,0.0911718,-0.252726,17,32765
2.26477,0.0823675,-0.24987,16,32765
2.30471,0.0760497,-0.254768,15,32765
2.29497,0.0681564,-0.254125,14,32765
2.25538,0.0594066,-0.250306,18,32765
2.22568,0.0512276,-0.247653,19,32765
2.21584,0.0435921,-0.247075,20,32765
2.21592,0.0361996,-0.247554,20,32765
2.23584,0.0290404,-0.250343,21,32765
2.23585,0.0215725,-0.251035,20,32765
2.22591,0.0142283,-0.250407,20,32765
2.21594,0.00681474,-0.249959,20,32765
2.2059,-0.000462368,-0.249816,20,32765
2.21578,-0.00772092,-0.251303,21,32765
2.22559,-0.0150716,-0.253255,20,32765
2.19561,-0.0220252,-0.250801,20,32765
2.22525,-0.029712,-0.254878,20,32765
2.4162,0.811726,-0.238073,23,32765
2.4187,0.803715,-0.239823,23,32765
2.39282,0.786334,-0.238762,23,32765
2.42364,0.787677,-0.243162,23,32765
2.36924,0.761322,-0.238898,22,32765
2.40012,0.762343,-0.243238,22,32765
2.40252,0.754299,-0.244604,23,32765
2.37637,0.737444,-0.242985,22,32765
2.40722,0.738322,-0.247166,23,32765
2.39997,0.727508,-0.247571,24,32765
2.40223,0.71959,-0.248759,24,32765
2.4045,0.711601,-0.249759,24,32765
2.37808,0.695167,-0.24814,24,32765
2.38032,0.687154,-0.248993,24,32765
2.38248,0.679135,-0.25033,23,32765
2.38467,0.670914,-0.25163,24,32765
2.39644,0.66545,-0.253447,23,32765
2.3698,0.649397,-0.251435,22,32765
2.37186,0.641413,-0.252487,23,32765
2.38349,0.636077,-0.254493,23,32765
2.36628,0.623014,-0.253327,22,32765
2.36826,0.615058,-0.254306,24,32765
2.36059,0.604556,-0.254203,23,32765
2.33362,0.589163,-0.25197,23,32765
2.34516,0.583629,-0.253969,23,32765
2.34708,0.575492,-0.254775,23,32765
2.34893,0.5675,-0.255701,23,32765
2.34109,0.557178,-0.255437,23,32765
2.35256,0.551513,-0.257279,23,32765
2.36398,0.545898,-0.259197,22,32765
2.35602,0.535761,-0.258926,22,32765
2.348,0.52572,-0.258715,23,32765
2.34001,0.515555,-0.258172,23,32765
2.32227,0.503267,-0.256662,22,32765
2.30448,0.491078,-0.255185,22,32765
2.31582,0.485169,-0.25684,22,32765
2.30763,0.475341,-0.256517,22,32765
2.30914,0.467577,-0.257195,22,32765
2.28139,0.453864,-0.25469,22,32765
2.31213,0.451862,-0.25844,22,32765
2.27455,0.436414,-0.254643,22,32765
2.2662,0.426748,-0.254257,22,32765
2.26761,0.418944,-0.254624,22,32765
2.29829,0.416445,-0.258717,21,32765
2.28986,0.406918,-0.258008,22,32765
2.27158,0.395641,-0.256527,21,32765
2.27286,0.387982,-0.256882,22,32765
2.2643,0.378616,-0.256299,22,32765
2.2655,0.370893,-0.257022,23,32765
2.27653,0.364721,-0.258448,22,32765
2.25807,0.353761,-0.256817,23,32765
2.25922,0.345923,-0.257424,23,32765
2.25054,0.336606,-0.256679,22,32765
2.25162,0.328794,-0.257302,23,32765
2.25268,0.321115,-0.257683,23,32765
2.26357,0.314702,-0.25929,23,32765
2.24486,0.304344,-0.257661,22,32765
2.25573,0.297995,-0.258828,23,32765
2.23694,0.287709,-0.257335,22,32765
2.24771,0.281395,-0.258891,23,32765
2.21903,0.270102,-0.255841,22,32765
2.21987,0.262623,-0.256317,23,32765
2.22069,0.255152,-0.256813,22,32765
2.22148,0.247562,-0.257363,23,32765
2.22227,0.239995,-0.257689,23,32765
2.22302,0.232331,-0.258234,23,32765
2.22374,0.224802,-0.258737,23,32765
2.19479,0.214353,-0.255678,23,32765
2.20534,0.207815,-0.257234,24,32765
2.21587,0.201312,-0.25882,22,32765
2.19667,0.19197,-0.257254,23,32765
2.21707,0.186149,-0.259906,23,32765
2.19783,0.176992,-0.258093,22,32765
2.19837,0.169487,-0.25853,22,32765
2.2088,0.162751,-0.260048,23,32765
2.20929,0.155222,-0.260458,22,32765
2.19984,0.14713,-0.259721,23,32765
2.19034,0.139075,-0.259152,22,32765
2.21059,0.132858,-0.261799,23,32765
2.21096,0.125504,-0.262344,23,32765
2.19149,0.116927,-0.260366,23,32765
2.20174,0.110095,-0.26196,23,32765
2.1921,0.102286,-0.261371,23,32765
2.19238,0.0948987,-0.261857,24,32765
2.20253,0.0879703,-0.26368,23,32765
2.18292,0.0798125,-0.261716,22,32765
2.28235,0.0757315,-0.274122,15,32765
2.19322,0.065518,-0.263831,18,32765
2.17351,0.05761,-0.262004,23,32765
2.16369,0.0501393,-0.261444,22,32765
2.18363,0.0432799,-0.264363,23,32765
2.144,0.0353207,-0.260021,22,32765
2.18375,0.028645,-0.265391,23,32765
2.15397,0.0210402,-0.262439,21,32765
2.16389,0.0140714,-0.264123,22,32765
2.16385,0.00687435,-0.264778,22,32765
2.18359,-0.000255326,-0.268175,22,32765
2.16369,-0.00735856,-0.266091,23,32765
2.16355,-0.0144901,-0.266893,23,32765
2.14353,-0.0213619,-0.265359,23,32765
2.16321,-0.0287612,-0.268471,23,32765
2.46849,0.831974,-0.280707,21,32765
2.509,0.836314,-0.284787,22,32765
2.50229,0.824859,-0.283981,21,32765
2.46717,0.804268,-0.279844,21,32765
2.46033,0.793028,-0.279052,21,32765
2.47245,0.78769,-0.280433,20,32765
2.48453,0.782339,-0.281838,21,32765
2.46813,0.767979,-0.280283,20,32765
2.4992,0.768372,-0.283724,21,32765
2.48269,0.754207,-0.282006,21,32765
2.48515,0.745835,-0.282572,21,32765
2.45898,0.728984,-0.28003,21,32765
2.45184,0.717847,-0.279429,21,32765
2.43508,0.704009,-0.277928,21,32765
2.45651,0.701257,-0.280564,20,32765
2.47795,0.698284,-0.283284,21,32765
2.42278,0.6739,-0.277275,21,32765
2.44411,0.671064,-0.280154,22,32765
2.45587,0.665397,-0.282061,21,32765
2.42922,0.649465,-0.279234,21,32765
2.42178,0.638579,-0.278586,20,32765
2.45271,0.637795,-0.282689,21,32765
2.43554,0.624486,-0.281191,20,32765
2.45686,0.621016,-0.284003,20,32765
2.42032,0.603184,-0.279873,20,32765
2.39331,0.587816,-0.277375,20,32765
2.36621,0.572787,-0.274674,20,32765
2.38737,0.569426,-0.277687,20,32765
2.38926,0.56127,-0.27808,21,32765
2.39112,0.55295,-0.278711,21,32765
2.38328,0.542271,-0.278384,21,32765
2.41415,0.540526,-0.282485,21,32765
2.39651,0.527924,-0.280942,21,32765
2.40795,0.521831,-0.28264,20,32765
2.37077,0.505371,-0.278666,21,32765
2.3724,0.497256,-0.279348,22,32765
2.35457,0.485138,-0.277586,22,32765
2.36584,0.479048,-0.27963,21,32765
2.34793,0.467133,-0.277707,21,32765
2.35918,0.460992,-0.279538,21,32765
2.37044,0.454701,-0.281366,22,32765
2.34264,0.441077,-0.278409,22,32765
2.34403,0.433072,-0.279261,22,32765
2.3552,0.426866,-0.280909,22,32765
2.32725,0.413648,-0.277851,21,32765
2.35795,0.410699,-0.281967,22,32765
2.35927,0.40263,-0.28256,21,32765
2.35077,0.392887,-0.282017,21,32765
2.33244,0.381576,-0.280249,21,32765
2.35329,0.376745,-0.282987,22,32765
2.33488,0.365522,-0.281273,21,32765
2.35568,0.360597,-0.28416,21,32765
2.33722,0.349479,-0.282235,21,32765
2.33834,0.341408,-0.282867,21,32765
2.33944,0.333374,-0.283312,20,32765
2.30117,0.319851,-0.279137,21,32765
2.32188,0.314761,-0.281793,21,32765
2.35239,0.310849,-0.285886,21,32765
2.29429,0.295301,-0.279139,20,32765
2.32477,0.291289,-0.283177,21,32765
2.31586,0.282147,-0.282272,22,32765
2.31676,0.274237,-0.282689,22,32765
2.29792,0.264098,-0.280574,21,32765
2.3185,0.258522,-0.283274,21,32765
2.29959,0.248594,-0.281033,21,32765
2.29049,0.23968,-0.280334,22,32765
2.28142,0.230851,-0.279186,21,32765
2.30189,0.224969,-0.282099,21,32765
2.3323,0.21985,-0.285706,21,32765
2.30335,0.209275,-0.282317,21,32765
2.32381,0.203165,-0.28486,21,32765
2.29478,0.192783,-0.281451,20,32765
2.27561,0.183439,-0.279209,20,32765
2.28609,0.176504,-0.280566,21,32765
2.29654,0.169545,-0.28205,22,32765
2.2773,0.160394,-0.279632,21,32765
2.26792,0.152039,-0.278422,21,32765
2.29814,0.146325,-0.282018,22,32765
2.27879,0.13738,-0.279722,22,32765
2.2594,0.128756,-0.277409,21,32765
2.28956,0.122818,-0.280966,21,32765
2.2602,0.113718,-0.277436,21,32765
2.26059,0.106166,-0.277234,21,32765
2.28076,0.0994587,-0.279717,22,32765
2.27119,0.0914002,-0.27827,21,32765
2.29132,0.0844916,-0.280739,21,32765
2.36106,0.0791202,-0.289045,15,32765
2.23235,0.0672437,-0.273078,14,32765
2.27226,0.0607503,-0.277901,21,32765
2.27252,0.0532264,-0.277314,22,32765
2.26277,0.0453941,-0.276069,21,32765
2.24308,0.0375682,-0.27342,20,32765
2.24322,0.030195,-0.273216,20,32765
2.25326,0.0229046,-0.274236,21,32765
2.20376,0.0151506,-0.267594,19,32765
2.25348,0.00790387,-0.273283,20,32765
2.26348,0.000434561,-0.273961,20,32765
2.2238,-0.00690384,-0.268847,20,32765
2.17421,-0.0140218,-0.262129,19,32765
2.23378,-0.021916,-0.268813,20,32765
2.18416,-0.0288078,-0.261979,20,32765
2.44622,0.827235,-0.302798,23,32765
2.449,0.819048,-0.3026,23,32765
2.42339,0.801526,-0.299367,23,32765
2.41658,0.79041,-0.298351,23,32765
2.40026,0.776252,-0.296297,23,32765
2.42177,0.774124,-0.298933,23,32765
2.41486,0.762941,-0.29809,23,32765
2.4079,0.751742,-0.297505,24,32765
2.40093,0.740623,-0.296535,23,32765
2.39385,0.729648,-0.295789,23,32765
2.39624,0.721552,-0.296338,23,32765
2.38906,0.710621,-0.29585,23,32765
2.3914,0.702491,-0.296324,22,32765
2.4223,0.702655,-0.300539,23,32765
2.40552,0.688997,-0.298622,23,32765
2.39823,0.678079,-0.297958,23,32765
2.38133,0.664585,-0.29613,22,32765
2.39303,0.659238,-0.297994,24,32765
2.40474,0.653725,-0.29998,24,32765
2.37809,0.637925,-0.296865,24,32765
2.36103,0.624647,-0.294917,23,32765
2.35345,0.614037,-0.294475,23,32765
2.36507,0.608453,-0.296378,23,32765
2.36707,0.600329,-0.296948,24,32765
2.3594,0.58998,-0.296059,23,32765
2.3613,0.581906,-0.296897,24,32765
2.35351,0.571632,-0.296338,23,32765
2.37464,0.5683,-0.299535,24,32765
2.33788,0.551056,-0.295051,23,32765
2.36872,0.54962,-0.299336,24,32765
2.3512,0.536782,-0.297685,23,32765
2.35296,0.528613,-0.298375,23,32765
2.32562,0.514047,-0.295398,23,32765
2.33699,0.508177,-0.297174,23,32765
2.32893,0.498144,-0.296518,23,32765
2.32083,0.488107,-0.29595,23,32765
2.32243,0.480151,-0.296473,22,32765
2.3045,0.468226,-0.294867,22,32765
2.2963,0.458431,-0.293995,22,32765
2.26857,0.444811,-0.290911,21,32765
2.2895,0.440691,-0.29406,22,32765
2.29094,0.432834,-0.294567,22,32765
2.30205,0.426791,-0.296659,22,32765
2.30343,0.418934,-0.297135,21,32765
2.28526,0.4076,-0.295048,22,32765
2.29636,0.401369,-0.296909,22,32765
2.26831,0.388465,-0.29369,22,32765
2.29891,0.385571,-0.298105,22,32765
2.28057,0.374408,-0.296138,23,32765
2.26221,0.363446,-0.293966,23,32765
2.28297,0.358666,-0.297142,22,32765
2.26451,0.347877,-0.295096,23,32765
2.25584,0.338518,-0.294247,23,32765
2.25692,0.330706,-0.294858,23,32765
2.24817,0.321525,-0.294005,23,32765
2.24919,0.313761,-0.29458,23,32765
2.25021,0.306157,-0.294843,22,32765
2.24133,0.297259,-0.294043,22,32765
2.25211,0.290939,-0.295756,21,32765
2.24318,0.282107,-0.294894,21,32765
2.25394,0.275626,-0.296475,21,32765
2.24497,0.266735,-0.295585,21,32765
2.22613,0.256813,-0.293275,22,32765
2.24665,0.251464,-0.296154,23,32765
2.23761,0.242819,-0.295021,22,32765
2.21865,0.233057,-0.292915,24,32765
2.21942,0.225451,-0.292974,23,32765
2.22012,0.217828,-0.293453,23,32765
2.22086,0.210174,-0.29343,22,32765
2.22153,0.202649,-0.293665,23,32765
2.21232,0.194199,-0.292475,23,32765
2.22282,0.1875,-0.294002,23,32765
2.21353,0.179173,-0.292875,23,32765
2.20422,0.170896,-0.291706,23,32765
2.22453,0.164926,-0.294584,23,32765
2.1954,0.155293,-0.29067,23,32765
2.19592,0.147857,-0.290676,22,32765
2.19641,0.140471,-0.290628,21,32765
2.21664,0.134241,-0.293378,22,32765
2.19726,0.125797,-0.290875,22,32765
2.21748,0.119517,-0.293406,22,32765
2.20795,0.111631,-0.292213,22,32765
2.20834,0.104233,-0.292016,22,32765
2.20867,0.096814,-0.292067,23,32765
2.19911,0.0889745,-0.290533,23,32765
2.18948,0.0811882,-0.289262,23,32765
2.19968,0.0741447,-0.290384,23,32765
2.17021,0.0657771,-0.286286,22,32765
2.20016,0.0592119,-0.290178,21,32765
2.18059,0.0514379,-0.287001,22,32765
2.17085,0.043892,-0.285664,24,32765
2.16109,0.0365148,-0.284141,23,32765
2.17114,0.0295255,-0.285247,24,32765
2.19108,0.0225551,-0.287669,23,32765
2.17139,0.0151872,-0.284473,23,32765
2.16156,0.00781835,-0.282851,23,32765
2.17155,0.000633917,-0.283643,23,32765
2.17158,-0.0065454,-0.283343,22,32765
2.16173,-0.013767,-0.281337,23,32765
2.15181,-0.0209594,-0.279567,23,32765
2.16176,-0.0283806,-0.280004,23,32765
2.51379,0.847691,-0.301962,20,32765
2.51627,0.839483,-0.304228,21,32765
2.49047,0.821958,-0.302584,21,32765
2.49293,0.813668,-0.304678,21,32765
2.49537,0.80545,-0.306581,22,32765
2.48835,0.794132,-0.307197,21,32765
2.49075,0.785926,-0.308852,22,32765
2.48366,0.774715,-0.309288,22,32765
2.46704,0.76059,-0.308605,21,32765
2.44088,0.743742,-0.306315,20,32765
2.47173,0.74406,-0.311337,21,32765
2.49308,0.741339,-0.315224,20,32765
2.48592,0.729946,-0.315387,20,32765
2.45966,0.713032,-0.313129,20,32765
2.48101,0.710118,-0.316728,21,32765
2.45457,0.693533,-0.314664,20,32765
2.48544,0.693184,-0.319515,21,32765
2.43975,0.671642,-0.314684,21,32765
2.46103,0.668608,-0.318099,21,32765
2.46309,0.66039,-0.31932,21,32765
2.4556,0.649472,-0.319071,22,32765
2.4288,0.633737,-0.316593,21,32765
2.44997,0.630653,-0.320005,21,32765
2.43275,0.617498,-0.318346,20,32765
2.43466,0.609332,-0.319473,20,32765
2.43661,0.600861,-0.320641,21,32765
2.4289,0.590095,-0.320363,21,32765
2.40189,0.57481,-0.317222,20,32765
2.39408,0.564271,-0.316812,20,32765
2.40552,0.558384,-0.319028,21,32765
2.39766,0.547898,-0.318475,21,32765
2.39939,0.539709,-0.319447,20,32765
2.39145,0.529394,-0.318742,20,32765
2.38347,0.519025,-0.31822,21,32765
2.38513,0.51086,-0.319039,21,32765
2.3868,0.502477,-0.319869,20,32765
2.42728,0.502242,-0.325655,20,32765
2.39003,0.485982,-0.32123,20,32765
2.38188,0.475786,-0.320554,20,32765
2.38344,0.467612,-0.321054,21,32765
2.3752,0.45757,-0.32038,20,32765
2.37664,0.44948,-0.321147,21,32765
2.3586,0.437799,-0.318949,21,32765
2.36977,0.431492,-0.320761,21,32765
2.33213,0.416344,-0.316101,21,32765
2.34325,0.409999,-0.317903,23,32765
2.37389,0.406937,-0.322418,21,32765
2.37519,0.398914,-0.32287,22,32765
2.35694,0.387575,-0.320499,21,32765
2.34842,0.377909,-0.319551,21,32765
2.3399,0.368072,-0.3186,21,32765
2.3607,0.362878,-0.321729,20,32765
2.38149,0.357671,-0.324744,19,32765
2.36302,0.346711,-0.322521,20,32765
2.33471,0.334474,-0.31886,21,32765
2.33581,0.32644,-0.319102,20,32765
2.30741,0.314284,-0.315543,20,32765
2.33793,0.31015,-0.319832,21,32765
2.34874,0.303333,-0.321705,22,32765
2.34972,0.295336,-0.321996,21,32765
2.34083,0.286166,-0.320962,22,32765
2.32208,0.275868,-0.31851,21,32765
2.33277,0.269155,-0.320351,21,32765
2.3435,0.262248,-0.321945,22,32765
2.30492,0.24995,-0.316961,21,32765
2.30571,0.241992,-0.317369,21,32765
2.34593,0.238044,-0.32302,22,32765
2.31713,0.22715,-0.319084,21,32765
2.30795,0.218311,-0.318273,21,32765
2.32836,0.212341,-0.321322,20,32765
2.34872,0.20618,-0.324642,20,32765
2.32959,0.196551,-0.322451,20,32765
2.31048,0.18713,-0.319768,20,32765
2.28142,0.176971,-0.316087,20,32765
2.3017,0.170703,-0.319271,20,32765
2.27259,0.160788,-0.31542,20,32765
2.29282,0.15439,-0.318649,21,32765
2.29329,0.146703,-0.318889,21,32765
2.27392,0.137827,-0.316654,21,32765
2.28421,0.130809,-0.318382,21,32765
2.27467,0.12263,-0.31754,21,32765
2.30467,0.11642,-0.322255,21,32765
2.27533,0.107251,-0.318418,21,32765
2.26571,0.0990984,-0.317532,20,32765
2.27585,0.0918612,-0.319479,21,32765
2.29586,0.0849338,-0.322853,21,32765
2.28614,0.0768648,-0.322124,20,32765
2.2863,0.0692711,-0.322693,19,32765
2.24687,0.0605772,-0.317524,16,32765
2.26679,0.0536089,-0.320791,15,32765
2.27673,0.0460962,-0.323073,19,32765
2.27681,0.0383872,-0.323517,21,32765
2.29665,0.0309946,-0.326878,21,32765
2.25702,0.0229377,-0.322082,21,32765
2.24707,0.0154926,-0.321433,21,32765
2.21733,0.00799309,-0.317785,20,32765
2.26671,0.00070883,-0.325796,21,32765
2.26658,-0.00683467,-0.326631,20,32765
2.23672,-0.0142648,-0.323264,20,32765
2.2365,-0.0217444,-0.324306,21,32765
2.24618,-0.0292529,-0.326685,21,32765
2.44431,0.827065,-0.318258,22,32765
2.41849,0.809608,-0.316767,23,32765
2.44915,0.811076,-0.322212,23,32765
2.43271,0.796721,-0.32178,22,32765
2.41621,0.782562,-0.321131,22,32765
2.43747,0.780553,-0.325384,22,32765
2.41145,0.763507,-0.323205,22,32765
2.42323,0.758454,-0.326046,23,32765
2.41605,0.747425,-0.326418,23,32765
2.42783,0.742302,-0.328966,24,32765
2.42065,0.731185,-0.3291,23,32765
2.41343,0.720118,-0.329256,23,32765
2.41572,0.711771,-0.330586,23,32765
2.39896,0.697827,-0.329319,23,32765
2.38211,0.68416,-0.327832,23,32765
2.41284,0.684095,-0.333333,23,32765
2.39591,0.670523,-0.331836,23,32765
2.37887,0.657148,-0.330474,23,32765
2.40964,0.656913,-0.335385,23,32765
2.41166,0.648842,-0.336583,23,32765
2.38499,0.632985,-0.333543,23,32765
2.37734,0.622466,-0.333441,24,32765
2.37927,0.614582,-0.334326,23,32765
2.39082,0.608968,-0.336513,24,32765
2.36387,0.593679,-0.333555,23,32765
2.36577,0.585429,-0.334691,23,32765
2.36765,0.577224,-0.335658,23,32765
2.36953,0.569051,-0.336324,23,32765
2.37136,0.560875,-0.337181,23,32765
2.37312,0.552798,-0.338109,24,32765
2.36526,0.542395,-0.337455,24,32765
2.3573,0.532111,-0.337035,23,32765
2.35902,0.524059,-0.337612,24,32765
2.36071,0.515886,-0.338374,24,32765
2.32363,0.499451,-0.333628,23,32765
2.34463,0.495354,-0.337225,23,32765
2.33656,0.485191,-0.336396,23,32765
2.33811,0.477121,-0.337166,23,32765
2.32995,0.467077,-0.336385,23,32765
2.30233,0.453319,-0.332665,22,32765
2.32323,0.449165,-0.336096,22,32765
2.32464,0.441229,-0.336848,22,32765
2.3358,0.435131,-0.338689,22,32765
2.34695,0.428883,-0.340591,22,32765
2.35807,0.422503,-0.342633,23,32765
2.3107,0.405776,-0.336028,22,32765
2.31201,0.397778,-0.336557,23,32765
2.284,0.385005,-0.332733,22,32765
2.2755,0.375559,-0.331589,22,32765
2.2865,0.369302,-0.333385,23,32765
2.28774,0.361201,-0.333759,22,32765
2.28893,0.353154,-0.334209,23,32765
2.2803,0.343752,-0.333113,23,32765
2.28139,0.33599,-0.333548,23,32765
2.26288,0.325406,-0.33103,23,32765
2.26396,0.317596,-0.331265,23,32765
2.24538,0.306998,-0.32885,22,32765
2.28564,0.304373,-0.33485,22,32765
2.26697,0.2939,-0.332487,22,32765
2.26792,0.286158,-0.332769,22,32765
2.25902,0.27724,-0.331632,22,32765
2.26974,0.270707,-0.333315,22,32765
2.25092,0.260735,-0.330904,22,32765
2.24193,0.25188,-0.329692,23,32765
2.24272,0.244179,-0.330108,22,32765
2.23366,0.235377,-0.329057,23,32765
2.23442,0.227654,-0.329273,23,32765
2.23517,0.220017,-0.329405,23,32765
2.25553,0.214239,-0.332842,23,32765
2.25619,0.206624,-0.333162,23,32765
2.24694,0.198084,-0.332278,22,32765
2.22781,0.188772,-0.329878,23,32765
2.22843,0.18127,-0.329927,23,32765
