x, y, z, intensity, ring
1.70831,-0.10128,-0.172659,18,32765
1.73778,-0.108896,-0.175352,19,32765
1.71756,-0.113431,-0.173266,19,32765
1.69732,-0.117956,-0.17113,18,32765
1.73662,-0.126583,-0.174985,18,32765
1.65682,-0.126569,-0.16678,18,32765
1.69606,-0.13544,-0.170662,19,32765
1.68569,-0.140435,-0.169482,19,32765
1.6753,-0.145377,-0.168354,18,32765
1.68472,-0.151935,-0.16924,19,32765
1.68419,-0.157662,-0.169237,19,32765
1.66387,-0.161482,-0.166869,18,32765
1.66331,-0.167206,-0.166851,19,32765
1.66273,-0.172967,-0.166785,18,32765
1.66214,-0.178701,-0.16664,19,32765
1.66151,-0.184496,-0.16654,19,32765
1.64113,-0.187851,-0.164341,18,32765
1.6306,-0.1923,-0.163305,19,32765
1.62994,-0.197866,-0.163184,18,32765
1.61939,-0.202131,-0.162195,18,32765
1.60883,-0.20634,-0.161185,19,32765
1.60814,-0.211746,-0.161053,18,32765
1.6074,-0.217289,-0.161061,18,32765
1.58695,-0.220089,-0.158941,18,32765
1.58618,-0.22562,-0.158846,18,32765
1.6051,-0.234,-0.160663,19,32765
1.59445,-0.238009,-0.159632,18,32765
1.57397,-0.24052,-0.157404,19,32765
1.55347,-0.242869,-0.155423,18,32765
1.56246,-0.249795,-0.156274,18,32765
1.59106,-0.260045,-0.159112,18,32765
1.59999,-0.267061,-0.160061,19,32765
1.54023,-0.262492,-0.15396,18,32765
1.52955,-0.26599,-0.15272,18,32765
1.53844,-0.272872,-0.153764,18,32765
1.50813,-0.272826,-0.150722,18,32765
1.52678,-0.281572,-0.152474,18,32765
1.49646,-0.281352,-0.149455,18,32765
1.48574,-0.284608,-0.148251,18,32765
1.49455,-0.291469,-0.149192,19,32765
1.48381,-0.294568,-0.148087,19,32765
1.52186,-0.307434,-0.151743,19,32765
1.48184,-0.304591,-0.147563,18,32765
1.50028,-0.313732,-0.149402,18,32765
1.47975,-0.314713,-0.147299,18,32765
1.4787,-0.319726,-0.147005,19,32765
1.48737,-0.326792,-0.147762,18,32765
1.46684,-0.327501,-0.145634,18,32765
1.48517,-0.336843,-0.147325,19,32765
1.46465,-0.337371,-0.145159,18,32765
1.45384,-0.34001,-0.143986,19,32765
1.44307,-0.342541,-0.142558,19,32765
1.45162,-0.349692,-0.143224,19,32765
1.43111,-0.349871,-0.141106,18,32765
1.4203,-0.352249,-0.139848,19,32765
1.42882,-0.359398,-0.140425,18,32765
1.45659,-0.371516,-0.142858,19,32765
1.40718,-0.363936,-0.137845,19,32765
1.42525,-0.373688,-0.139316,19,32765
1.42405,-0.378406,-0.138911,19,32765
1.40357,-0.37797,-0.136851,19,32765
1.43118,-0.390488,-0.139076,19,32765
1.40111,-0.387316,-0.135957,19,32765
1.39027,-0.389314,-0.134486,20,32765
1.39862,-0.396553,-0.134986,19,32765
1.38779,-0.398383,-0.133565,19,32765
1.3961,-0.40567,-0.133879,19,32765
1.38524,-0.407452,-0.132598,19,32765
1.38391,-0.412118,-0.132092,19,32765
1.37307,-0.413785,-0.130603,19,32765
1.3813,-0.421144,-0.130949,19,32765
1.36099,-0.41963,-0.128536,19,32765
1.35966,-0.424056,-0.128018,19,32765
1.35833,-0.428507,-0.127338,18,32765
1.357,-0.432937,-0.126536,17,32765
1.4884,-0.48012,-0.137992,14,32765
1.48696,-0.484838,-0.137045,13,32765
1.4855,-0.48955,-0.13617,13,32765
1.85021,0.0350428,-0.187384,17,32765
1.88008,0.0291557,-0.19121,17,32765
1.8204,0.0220136,-0.185934,17,32765
1.81047,0.0157427,-0.185301,17,32765
1.8005,0.00950396,-0.184959,16,32765
1.84027,0.00343052,-0.189502,17,32765
1.76061,-0.00273168,-0.182047,16,32765
1.81029,-0.00892321,-0.187585,17,32765
1.81021,-0.0149725,-0.187883,18,32765
1.80016,-0.0209423,-0.187264,17,32765
1.78015,-0.0266858,-0.185579,17,32765
1.82976,-0.0335715,-0.190921,17,32765
1.75004,-0.0379721,-0.183097,16,32765
1.78964,-0.0448957,-0.187579,17,32765
1.75962,-0.0502071,-0.184695,16,32765
1.79919,-0.0575494,-0.188978,17,32765
1.80889,-0.0640707,-0.190314,18,32765
1.7987,-0.0698611,-0.189447,17,32765
1.7885,-0.0754593,-0.188573,17,32765
1.72861,-0.0788394,-0.182462,16,32765
1.75812,-0.0860473,-0.185812,17,32765
1.70815,-0.0893727,-0.180621,17,32765
1.68795,-0.0940724,-0.178791,17,32765
1.69756,-0.100372,-0.179767,17,32765
1.6674,-0.104383,-0.17685,17,32765
1.68688,-0.111387,-0.178961,18,32765
1.68647,-0.117158,-0.17913,18,32765
1.66623,-0.121476,-0.176973,18,32765
1.67572,-0.127814,-0.178118,18,32765
1.66537,-0.132646,-0.177088,18,32765
1.62526,-0.13489,-0.172976,17,32765
1.66444,-0.143762,-0.177121,18,32765
1.63422,-0.146759,-0.17405,18,32765
1.63372,-0.15235,-0.173886,18,32765
1.65296,-0.159954,-0.176165,18,32765
1.62273,-0.162591,-0.172928,18,32765
1.64196,-0.170131,-0.174968,18,32765
1.63149,-0.174641,-0.173913,19,32765
1.62103,-0.179007,-0.172694,18,32765
1.60064,-0.182285,-0.170635,18,32765
1.59015,-0.186586,-0.169467,18,32765
1.629,-0.196801,-0.17353,18,32765
1.62831,-0.202434,-0.173562,18,32765
1.57831,-0.201688,-0.168098,18,32765
1.57762,-0.207071,-0.16803,18,32765
1.57692,-0.212389,-0.167959,18,32765
1.58606,-0.21909,-0.168897,19,32765
1.53607,-0.217495,-0.163701,18,32765
1.55504,-0.225565,-0.165422,18,32765
1.55424,-0.230904,-0.165554,19,32765
1.54363,-0.234773,-0.164314,18,32765
1.54283,-0.240081,-0.164123,19,32765
1.53217,-0.243907,-0.162946,18,32765
1.55098,-0.252351,-0.164869,18,32765
1.51086,-0.25119,-0.160615,18,32765
1.54923,-0.262972,-0.164702,19,32765
1.49936,-0.259775,-0.159189,19,32765
1.54743,-0.273589,-0.16437,18,32765
1.50736,-0.271774,-0.15998,19,32765
1.50643,-0.276947,-0.159891,18,32765
1.48596,-0.278336,-0.157671,18,32765
1.47525,-0.28149,-0.156494,18,32765
1.48406,-0.28841,-0.157403,18,32765
1.45382,-0.28762,-0.154169,17,32765
1.4431,-0.290652,-0.152881,17,32765
1.48109,-0.303561,-0.156913,18,32765
1.47033,-0.306547,-0.15578,18,32765
1.45956,-0.309487,-0.154565,18,32765
1.46826,-0.316512,-0.155393,19,32765
1.44776,-0.317242,-0.153172,18,32765
1.44669,-0.322143,-0.153029,18,32765
1.43589,-0.324869,-0.151936,18,32765
1.44448,-0.332008,-0.152842,18,32765
1.42399,-0.332362,-0.150635,18,32765
1.45189,-0.344127,-0.15357,18,32765
1.4314,-0.34436,-0.151383,18,32765
1.41092,-0.344431,-0.149202,18,32765
1.38079,-0.342043,-0.145991,18,32765
1.41825,-0.356323,-0.150041,17,32765
1.38813,-0.353746,-0.146873,18,32765
1.3966,-0.360834,-0.147706,18,32765
1.3954,-0.365496,-0.147594,18,32765
1.37494,-0.365059,-0.145467,18,32765
1.38335,-0.372181,-0.146359,19,32765
1.37251,-0.374204,-0.145247,18,32765
1.37128,-0.378739,-0.145091,18,32765
1.37001,-0.383316,-0.145077,19,32765
1.33045,-0.377006,-0.140932,19,32765
1.35791,-0.38963,-0.143812,18,32765
1.34706,-0.391317,-0.142794,18,32765
1.36486,-0.401366,-0.144787,18,32765
1.354,-0.403024,-0.1437,18,32765
1.32408,-0.398919,-0.140607,18,32765
1.3323,-0.406124,-0.141521,17,32765
1.38799,-0.428065,-0.147751,16,32765
1.36764,-0.426583,-0.145551,14,32765
1.48011,-0.466874,-0.157761,12,32765
1.3459,-0.429313,-0.143723,14,32765
1.29719,-0.418348,-0.13852,18,32765
1.2958,-0.42251,-0.138864,19,32765
1.30391,-0.429711,-0.139873,19,32765
1.91792,0.0362803,-0.212541,17,32765
1.92788,0.0298331,-0.214466,17,32765
1.89806,0.0228715,-0.211978,17,32765
1.87821,0.0162334,-0.210155,17,32765
1.8583,0.00969386,-0.208629,17,32765
1.84833,0.00331325,-0.207971,17,32765
1.84825,-0.00301794,-0.208748,18,32765
1.85812,-0.0093277,-0.210275,18,32765
1.8481,-0.015471,-0.209455,17,32765
1.84799,-0.0217013,-0.209879,17,32765
1.828,-0.0276207,-0.208017,18,32765
1.82787,-0.0337718,-0.208175,18,32765
1.79789,-0.0392586,-0.20527,18,32765
1.78778,-0.045113,-0.204456,17,32765
1.78759,-0.0512863,-0.204702,17,32765
1.82711,-0.0587475,-0.209362,18,32765
1.81693,-0.0646766,-0.208517,18,32765
1.76704,-0.0689606,-0.202995,18,32765
1.77671,-0.0753094,-0.204306,18,32765
1.79627,-0.0822941,-0.206771,18,32765
1.75627,-0.0863343,-0.202404,17,32765
1.75596,-0.0922679,-0.202463,18,32765
1.72585,-0.0965884,-0.199308,18,32765
1.74535,-0.103623,-0.20152,18,32765
1.70529,-0.107187,-0.197182,18,32765
1.71483,-0.113684,-0.198334,17,32765
1.74414,-0.12164,-0.201947,18,32765
1.7239,-0.126168,-0.199601,18,32765
1.74327,-0.133476,-0.20199,18,32765
1.6933,-0.135382,-0.196275,18,32765
1.71262,-0.142674,-0.198681,18,32765
1.69235,-0.146716,-0.196308,18,32765
1.72151,-0.155168,-0.199848,18,32765
1.68142,-0.15737,-0.195085,18,32765
1.67095,-0.162281,-0.19411,18,32765
1.68028,-0.168964,-0.195182,18,32765
1.65995,-0.17261,-0.192817,18,32765
1.64947,-0.177194,-0.191667,18,32765
1.66864,-0.184915,-0.193792,19,32765
1.63838,-0.187238,-0.190399,19,32765
1.64761,-0.194004,-0.191427,18,32765
1.66668,-0.202051,-0.193568,19,32765
1.66596,-0.207831,-0.1936,19,32765
1.6357,-0.209741,-0.189951,19,32765
1.63499,-0.215336,-0.189879,19,32765
1.62441,-0.219533,-0.188661,19,32765
1.62367,-0.225049,-0.188547,18,32765
1.61305,-0.229171,-0.187455,18,32765
1.60248,-0.233232,-0.185921,18,32765
1.59182,-0.237284,-0.184915,18,32765
1.58119,-0.241295,-0.183576,19,32765
1.59019,-0.248279,-0.184519,19,32765
1.5599,-0.24915,-0.180967,18,32765
1.59827,-0.260912,-0.185347,19,32765
1.57777,-0.263185,-0.182989,19,32765
1.56708,-0.266883,-0.181766,18,32765
1.57598,-0.273953,-0.182584,18,32765
1.54568,-0.274182,-0.17916,19,32765
1.53499,-0.277667,-0.177793,18,32765
1.52426,-0.281147,-0.176569,18,32765
1.53309,-0.288108,-0.177552,18,32765
1.54188,-0.295168,-0.178536,18,32765
1.51162,-0.294727,-0.175015,18,32765
1.53013,-0.303705,-0.177139,19,32765
1.49988,-0.303074,-0.173489,18,32765
1.48912,-0.306201,-0.172262,18,32765
1.47835,-0.309225,-0.171033,18,32765
1.48703,-0.316337,-0.171971,18,32765
1.48597,-0.321373,-0.171764,19,32765
1.47518,-0.324302,-0.170475,19,32765
1.46439,-0.327144,-0.169208,19,32765
1.48266,-0.336539,-0.17138,19,32765
1.45246,-0.334925,-0.167898,18,32765
1.47069,-0.344373,-0.169974,19,32765
1.45984,-0.347131,-0.168715,19,32765
1.46834,-0.35439,-0.169688,19,32765
1.44785,-0.354588,-0.167316,19,32765
1.4563,-0.361913,-0.168277,19,32765
1.43582,-0.361903,-0.166012,19,32765
1.44422,-0.369231,-0.167015,19,32765
1.44301,-0.374029,-0.166821,19,32765
1.42254,-0.373809,-0.164482,19,32765
1.41168,-0.376024,-0.163275,18,32765
1.42004,-0.383286,-0.164256,19,32765
1.41875,-0.388063,-0.164157,19,32765
1.4079,-0.39011,-0.162885,19,32765
1.40659,-0.394823,-0.16287,19,32765
1.40528,-0.399496,-0.162777,19,32765
1.42307,-0.409648,-0.164821,19,32765
1.40263,-0.408776,-0.162602,18,32765
1.40127,-0.413408,-0.162568,18,32765
1.39038,-0.415193,-0.161384,18,32765
1.36997,-0.414081,-0.159113,19,32765
1.36862,-0.418548,-0.159011,19,32765
1.48116,-0.45828,-0.172436,15,32765
1.3564,-0.424449,-0.157891,17,32765
1.36449,-0.431801,-0.159068,19,32765
1.35361,-0.433178,-0.158083,19,32765
1.36169,-0.440578,-0.159038,19,32765
1.36022,-0.444959,-0.159397,19,32765
1.34937,-0.446142,-0.158285,19,32765
1.84509,0.0370601,-0.232106,18,32765
1.88496,0.0313259,-0.23651,18,32765
1.8752,0.0247276,-0.234766,18,32765
1.86539,0.0182454,-0.233213,18,32765
1.90521,0.0121226,-0.23755,18,32765
1.83579,0.00540158,-0.228803,18,32765
1.83585,-0.000955653,-0.22834,17,32765
1.81602,-0.00722882,-0.225663,17,32765
1.80608,-0.0134052,-0.224277,18,32765
1.8259,-0.019777,-0.226479,18,32765
1.83577,-0.0261175,-0.227548,18,32765
1.81585,-0.0320683,-0.224886,18,32765
1.77608,-0.0374354,-0.219648,17,32765
1.82555,-0.0447594,-0.225736,17,32765
1.79564,-0.0501371,-0.221991,17,32765
1.76572,-0.0553348,-0.218101,17,32765
1.72586,-0.059975,-0.213063,16,32765
1.77527,-0.067694,-0.218929,17,32765
1.76511,-0.0733011,-0.217752,17,32765
1.75493,-0.07885,-0.216562,17,32765
1.7547,-0.0848382,-0.216212,17,32765
1.75439,-0.0908755,-0.216274,17,32765
1.78381,-0.0985619,-0.219825,18,32765
1.77355,-0.104086,-0.218641,18,32765
1.71377,-0.10637,-0.211108,17,32765
1.6936,-0.110887,-0.20863,17,32765
1.69323,-0.116585,-0.208534,17,32765
1.70275,-0.12305,-0.209561,18,32765
1.70231,-0.128849,-0.209639,17,32765
1.65238,-0.130894,-0.203473,17,32765
1.66182,-0.137479,-0.204614,18,32765
1.67123,-0.144159,-0.205655,17,32765
1.66082,-0.149049,-0.204565,18,32765
1.64056,-0.152896,-0.201943,18,32765
1.64004,-0.158462,-0.201857,18,32765
1.67901,-0.168039,-0.206651,18,32765
1.66857,-0.172716,-0.205305,18,32765
1.61863,-0.173142,-0.199161,18,32765
1.60816,-0.177605,-0.197932,18,32765
1.61742,-0.184221,-0.199071,18,32765
1.61679,-0.189782,-0.198937,18,32765
1.62599,-0.196507,-0.20011,18,32765
1.61547,-0.200834,-0.198819,19,32765
1.59512,-0.203847,-0.196071,18,32765
1.59442,-0.209293,-0.196015,18,32765
1.60354,-0.216065,-0.197138,18,32765
1.58314,-0.218849,-0.194622,19,32765
1.59222,-0.225713,-0.195656,18,32765
1.56197,-0.226923,-0.191992,18,32765
1.5514,-0.230782,-0.190506,18,32765
1.58006,-0.24057,-0.194017,18,32765
1.55962,-0.242991,-0.191419,18,32765
1.55878,-0.248346,-0.191414,18,32765
1.55793,-0.253768,-0.19119,19,32765
1.55708,-0.25912,-0.190933,18,32765
1.54642,-0.262789,-0.189585,18,32765
1.54554,-0.268039,-0.189343,19,32765
1.53487,-0.271498,-0.188032,18,32765
1.54373,-0.27847,-0.189106,18,32765
1.5233,-0.280081,-0.186326,18,32765
1.49309,-0.279806,-0.182483,18,32765
1.49214,-0.28493,-0.182285,18,32765
1.4912,-0.289995,-0.182032,18,32765
1.48049,-0.293112,-0.180652,18,32765
1.48927,-0.300059,-0.181478,18,32765
1.48828,-0.305176,-0.181084,18,32765
1.48724,-0.310274,-0.180969,19,32765
1.46678,-0.31128,-0.178204,18,32765
1.45604,-0.314226,-0.176693,18,32765
1.455,-0.319146,-0.176403,18,32765
1.44425,-0.321942,-0.174913,18,32765
1.46257,-0.331186,-0.176906,18,32765
1.46149,-0.336133,-0.176495,19,32765
1.4217,-0.332063,-0.171476,18,32765
1.42062,-0.336824,-0.171142,18,32765
1.42919,-0.343943,-0.171843,18,32765
1.40876,-0.34406,-0.169173,18,32765
1.40764,-0.348781,-0.168827,19,32765
1.41615,-0.355911,-0.169535,18,32765
1.4054,-0.358126,-0.167878,18,32765
1.40426,-0.362755,-0.167508,18,32765
1.37427,-0.359874,-0.163584,18,32765
1.40193,-0.372084,-0.16659,18,32765
1.37195,-0.369029,-0.162688,18,32765
1.36119,-0.370996,-0.160996,19,32765
1.36958,-0.378181,-0.161631,18,32765
1.3588,-0.380086,-0.159977,18,32765
1.36713,-0.387349,-0.16065,18,32765
1.35633,-0.3892,-0.159005,18,32765
1.34559,-0.390867,-0.157232,18,32765
1.36341,-0.400919,-0.158974,18,32765
1.3431,-0.399738,-0.156194,18,32765
1.34185,-0.404091,-0.155698,19,32765
1.29307,-0.393948,-0.149586,18,32765
1.37735,-0.424482,-0.158778,14,32765
1.40451,-0.437871,-0.161274,13,32765
1.30834,-0.412578,-0.149729,17,32765
1.3355,-0.425805,-0.152398,19,32765
1.32473,-0.427121,-0.150524,19,32765
1.30452,-0.425276,-0.147566,19,32765
1.30323,-0.429479,-0.146758,19,32765
1.92208,0.0385385,-0.260235,18,32765
1.91237,0.0316952,-0.258299,18,32765
1.92245,0.0252455,-0.259125,18,32765
1.93248,0.0187772,-0.260138,17,32765
1.90288,0.0119672,-0.255512,17,32765
1.91284,0.0054683,-0.256752,17,32765
1.93273,-0.00118652,-0.258925,17,32765
1.86337,-0.00760954,-0.249417,17,32765
1.88317,-0.0141901,-0.251911,17,32765
1.86333,-0.0204108,-0.24899,17,32765
1.84345,-0.0264706,-0.246179,18,32765
1.84337,-0.0328162,-0.245974,18,32765
1.83338,-0.0389213,-0.244318,18,32765
1.83324,-0.045244,-0.24427,18,32765
1.83309,-0.0514968,-0.244204,18,32765
1.80321,-0.0568358,-0.240029,18,32765
1.82283,-0.0636924,-0.242521,18,32765
1.79293,-0.0687263,-0.238308,17,32765
1.79268,-0.0748226,-0.238354,18,32765
1.7726,-0.0800337,-0.235753,18,32765
1.78227,-0.0865804,-0.236714,18,32765
1.76215,-0.0916998,-0.234146,18,32765
1.74204,-0.0966888,-0.231404,18,32765
1.75159,-0.103252,-0.232755,18,32765
1.77105,-0.110402,-0.235173,18,32765
1.76077,-0.115777,-0.233819,19,32765
1.74061,-0.120349,-0.231093,19,32765
1.7501,-0.126995,-0.232208,18,32765
1.71999,-0.130719,-0.22835,18,32765
1.76894,-0.140692,-0.234835,18,32765
1.71905,-0.14278,-0.228195,18,32765
1.74819,-0.15139,-0.231943,17,32765
1.72789,-0.155672,-0.229454,17,32765
1.7175,-0.160685,-0.227947,17,32765
1.71696,-0.166528,-0.227856,17,32765
1.69666,-0.17045,-0.225166,17,32765
1.70595,-0.17725,-0.226341,17,32765
1.68562,-0.180983,-0.22365,17,32765
1.65543,-0.183505,-0.219711,17,32765
1.68435,-0.192554,-0.223556,18,32765
1.67385,-0.197201,-0.222109,18,32765
1.69285,-0.205335,-0.224679,18,32765
1.6528,-0.206221,-0.219373,18,32765
1.66196,-0.213156,-0.220341,18,32765
1.66123,-0.218847,-0.220282,19,32765
1.66048,-0.224538,-0.220191,19,32765
1.64989,-0.228889,-0.218786,19,32765
1.61966,-0.230418,-0.2147,19,32765
1.60905,-0.23459,-0.213357,18,32765
1.60828,-0.240086,-0.213067,18,32765
1.61726,-0.247099,-0.214256,19,32765
1.62622,-0.254254,-0.215359,19,32765
1.58617,-0.253592,-0.210163,19,32765
1.60487,-0.262324,-0.212526,19,32765
1.59421,-0.26622,-0.210966,19,32765
1.60309,-0.273362,-0.212107,19,32765
1.5631,-0.27202,-0.206687,18,32765
1.58172,-0.280749,-0.209154,18,32765
1.56125,-0.2826,-0.206446,19,32765
1.56034,-0.287877,-0.20605,18,32765
1.54964,-0.291397,-0.204491,18,32765
1.57787,-0.302329,-0.208139,18,32765
1.5574,-0.303902,-0.205304,18,32765
1.51748,-0.301458,-0.199976,18,32765
1.5651,-0.316409,-0.206003,18,32765
1.50577,-0.30981,-0.197926,18,32765
1.56296,-0.327175,-0.205466,18,32765
1.51337,-0.322253,-0.198672,18,32765
1.5026,-0.32537,-0.197056,18,32765
1.51121,-0.332594,-0.198025,18,32765
1.49075,-0.333427,-0.195161,18,32765
1.50901,-0.342851,-0.197328,18,32765
1.45956,-0.336817,-0.190592,19,32765
1.48743,-0.348581,-0.194017,19,32765
1.4863,-0.353577,-0.193667,19,32765
1.47551,-0.35628,-0.19193,19,32765
1.47434,-0.361281,-0.191564,19,32765
1.46354,-0.363843,-0.189952,19,32765
1.44312,-0.363901,-0.186995,19,32765
1.45159,-0.37113,-0.187719,19,32765
1.4312,-0.370946,-0.184854,19,32765
1.43002,-0.375718,-0.184352,19,32765
1.4384,-0.383036,-0.185151,19,32765
1.43717,-0.387859,-0.184648,19,32765
1.42637,-0.390053,-0.182835,18,32765
1.45382,-0.402775,-0.185985,18,32765
1.4143,-0.396924,-0.180544,18,32765
1.40347,-0.398965,-0.178858,18,32765
1.38311,-0.3982,-0.175891,17,32765
1.42,-0.413851,-0.180053,15,32765
1.5139,-0.446646,-0.191593,14,32765
1.53152,-0.457327,-0.193367,13,32765
1.44457,-0.436462,-0.182022,14,32765
1.38625,-0.423735,-0.174202,17,32765
1.39445,-0.43117,-0.174679,19,32765
1.39312,-0.435754,-0.173894,19,32765
1.3823,-0.437339,-0.172025,19,32765
1.37151,-0.438729,-0.170243,19,32765
1.37961,-0.446284,-0.17059,19,32765
1.35937,-0.44462,-0.16741,19,32765
1.36746,-0.452131,-0.167723,19,32765
1.86342,0.0372605,-0.246307,15,32765
1.89314,0.0315053,-0.251258,16,32765
1.90301,0.0251923,-0.253599,16,32765
1.87325,0.0184321,-0.250421,16,32765
1.81371,0.0116871,-0.24338,16,32765
1.84338,0.00566779,-0.248031,16,32765
1.87304,-0.000512075,-0.252603,15,32765
1.83331,-0.00676834,-0.247843,16,32765
1.86293,-0.0131221,-0.252433,15,32765
1.84299,-0.0192396,-0.250201,16,32765
1.79332,-0.0248137,-0.243935,16,32765
1.8328,-0.031656,-0.249688,17,32765
1.82271,-0.0378716,-0.248766,17,32765
1.78289,-0.0432815,-0.243776,17,32765
1.79257,-0.0497658,-0.245593,18,32765
1.81214,-0.0565296,-0.248671,18,32765
1.79211,-0.0619873,-0.246166,17,32765
1.78193,-0.0677289,-0.245212,18,32765
1.76189,-0.0729352,-0.242569,18,32765
1.72201,-0.0771743,-0.237334,17,32765
1.75138,-0.0844298,-0.241727,18,32765
1.76094,-0.0908108,-0.243412,18,32765
1.76062,-0.0967379,-0.243441,18,32765
1.7306,-0.100914,-0.239446,18,32765
1.73023,-0.106834,-0.239539,18,32765
1.69029,-0.11021,-0.234249,18,32765
1.68988,-0.116023,-0.234368,18,32765
1.71909,-0.124002,-0.238619,18,32765
1.70878,-0.129168,-0.237267,18,32765
1.71819,-0.135837,-0.238697,18,32765
1.7276,-0.142506,-0.239975,18,32765
1.65803,-0.142514,-0.230306,18,32765
1.66737,-0.14907,-0.231867,18,32765
1.67672,-0.155662,-0.233168,18,32765
1.65644,-0.159561,-0.230569,17,32765
1.64602,-0.164301,-0.229163,18,32765
1.65533,-0.171048,-0.230302,18,32765
1.65471,-0.17682,-0.230391,18,32765
1.61475,-0.178172,-0.224578,18,32765
1.66333,-0.189326,-0.231498,18,32765
1.63319,-0.191528,-0.227177,18,32765
1.63253,-0.197072,-0.227197,17,32765
1.63186,-0.202639,-0.227067,17,32765
1.65085,-0.210702,-0.229548,17,32765
1.63049,-0.213854,-0.226645,16,32765
1.61995,-0.218167,-0.225073,17,32765
1.61922,-0.223687,-0.224899,17,32765
1.57925,-0.223695,-0.219181,18,32765
1.58832,-0.230452,-0.22029,18,32765
1.58754,-0.23599,-0.22008,18,32765
1.58673,-0.241545,-0.219894,18,32765
1.57614,-0.245572,-0.218131,19,32765
1.55573,-0.247954,-0.215237,18,32765
1.54512,-0.251632,-0.213716,18,32765
1.5443,-0.256873,-0.213439,18,32765
1.54344,-0.262174,-0.213178,18,32765
1.5328,-0.26584,-0.211543,18,32765
1.54162,-0.272992,-0.212785,18,32765
1.52122,-0.274799,-0.209706,18,32765
1.5203,-0.280017,-0.209486,18,32765
1.52913,-0.28696,-0.210483,18,32765
1.55739,-0.297739,-0.214192,18,32765
1.53694,-0.299244,-0.211315,18,32765
1.5165,-0.300673,-0.208375,18,32765
1.53491,-0.309844,-0.210842,18,32765
1.51446,-0.311137,-0.207868,18,32765
1.50371,-0.314299,-0.206304,19,32765
1.51236,-0.321525,-0.207373,18,32765
1.48222,-0.320404,-0.203151,18,32765
1.52958,-0.33607,-0.209402,19,32765
1.48975,-0.332584,-0.204026,18,32765
1.48865,-0.337597,-0.203863,18,32765
1.47787,-0.340432,-0.202276,18,32765
1.45744,-0.34089,-0.199376,18,32765
1.42738,-0.339001,-0.195116,17,32765
1.45514,-0.350788,-0.199031,18,32765
1.43472,-0.35097,-0.196196,18,32765
1.42395,-0.353449,-0.194559,18,32765
1.40356,-0.353336,-0.191755,18,32765
1.412,-0.360488,-0.192902,18,32765
1.43,-0.370151,-0.195419,18,32765
1.41919,-0.37244,-0.19388,18,32765
1.39877,-0.372124,-0.191209,18,32765
1.4071,-0.379422,-0.192385,18,32765
1.39626,-0.381539,-0.191004,18,32765
1.42369,-0.394108,-0.194675,18,32765
1.43193,-0.401508,-0.195841,18,32765
1.42107,-0.403532,-0.194457,18,32765
1.37209,-0.394512,-0.187986,18,32765
1.46598,-0.426822,-0.200797,14,32765
1.34092,-0.395237,-0.183884,16,32765
1.3776,-0.411065,-0.189096,18,32765
1.36676,-0.412797,-0.187518,18,32765
1.37489,-0.420127,-0.188878,18,32765
1.3451,-0.415791,-0.184969,19,32765
1.36268,-0.426026,-0.187663,19,32765
1.33294,-0.421459,-0.183706,19,32765
1.35039,-0.431869,-0.186662,19,32765
1.35842,-0.439309,-0.187922,19,32765
1.3381,-0.437576,-0.185511,18,32765
1.32725,-0.438699,-0.184496,17,32765
1.92041,0.0383241,-0.272299,18,32765
1.93028,0.0320278,-0.274743,18,32765
1.91044,0.0251763,-0.272955,19,32765
1.8906,0.0184707,-0.270918,18,32765
1.91031,0.0121566,-0.274713,19,32765
1.87065,0.00558304,-0.26969,18,32765
1.87058,-0.000698611,-0.27026,17,32765
1.86058,-0.00707417,-0.269424,18,32765
1.87036,-0.0133993,-0.27143,18,32765
1.85045,-0.0195586,-0.269013,18,32765
1.8404,-0.0257238,-0.268047,18,32765
1.84025,-0.032062,-0.26841,18,32765
1.84996,-0.0387358,-0.270286,18,32765
1.82007,-0.0444963,-0.266377,19,32765
1.80995,-0.0505776,-0.265396,18,32765
1.80971,-0.0568016,-0.26576,19,32765
1.83914,-0.063986,-0.270334,19,32765
1.7993,-0.0687716,-0.26493,18,32765
1.79904,-0.074874,-0.265013,18,32765
1.79874,-0.0810321,-0.265238,18,32765
1.76877,-0.0856979,-0.261169,18,32765
1.7783,-0.0921565,-0.262951,18,32765
1.78786,-0.098705,-0.26444,17,32765
1.7875,-0.10472,-0.264551,18,32765
1.77724,-0.11024,-0.263185,17,32765
1.78669,-0.117021,-0.264843,17,32765
1.74678,-0.120461,-0.259112,16,32765
1.76607,-0.127946,-0.262182,16,32765
1.75575,-0.133289,-0.260737,16,32765
1.77499,-0.140924,-0.263727,16,32765
1.74494,-0.14454,-0.259235,16,32765
1.76415,-0.152264,-0.26209,16,32765
1.73403,-0.155665,-0.257894,17,32765
1.70395,-0.158832,-0.253425,17,32765
1.70337,-0.164743,-0.253573,18,32765
1.68311,-0.168672,-0.250606,17,32765
1.68254,-0.174548,-0.250369,18,32765
1.67207,-0.179377,-0.248994,19,32765
1.70099,-0.188419,-0.253042,19,32765
1.68066,-0.192039,-0.250189,18,32765
1.69968,-0.200092,-0.252895,19,32765
1.68916,-0.204688,-0.251453,19,32765
1.67866,-0.209242,-0.249856,19,32765
1.68778,-0.21623,-0.251056,19,32765
1.66743,-0.219521,-0.247962,19,32765
1.65689,-0.223976,-0.246291,19,32765
1.65614,-0.229639,-0.246112,18,32765
1.64558,-0.233955,-0.244378,19,32765
1.65461,-0.240956,-0.245569,19,32765
1.66358,-0.248202,-0.2468,19,32765
1.63338,-0.249557,-0.242253,18,32765
1.64233,-0.256818,-0.24328,19,32765
1.61214,-0.257879,-0.238743,18,32765
1.63081,-0.26655,-0.241461,19,32765
1.62018,-0.270468,-0.239723,19,32765
1.59001,-0.271057,-0.235121,18,32765
1.57936,-0.274897,-0.233383,18,32765
1.58813,-0.282234,-0.234714,18,32765
1.60667,-0.291272,-0.237186,19,32765
1.58623,-0.293202,-0.234079,18,32765
1.56584,-0.294893,-0.230852,18,32765
1.59403,-0.305824,-0.234832,19,32765
1.58329,-0.309359,-0.233194,19,32765
1.54343,-0.307093,-0.227201,18,32765
1.59089,-0.322276,-0.234131,19,32765
1.53165,-0.315776,-0.225257,18,32765
1.54996,-0.325104,-0.227868,19,32765
1.55855,-0.332509,-0.22902,19,32765
1.51875,-0.32945,-0.22309,18,32765
1.51767,-0.33462,-0.222703,19,32765
1.53586,-0.344077,-0.225462,18,32765
1.4768,-0.336081,-0.216792,18,32765
1.52391,-0.352263,-0.223603,19,32765
1.4842,-0.348358,-0.217681,18,32765
1.47342,-0.351153,-0.215957,18,32765
1.48185,-0.358468,-0.217327,18,32765
1.45182,-0.356386,-0.212891,18,32765
1.46025,-0.363718,-0.213971,18,32765
1.46865,-0.371006,-0.215194,18,32765
1.47702,-0.378394,-0.216425,18,32765
1.47576,-0.383321,-0.216313,17,32765
1.42662,-0.375688,-0.20906,17,32765
1.43492,-0.383063,-0.21041,18,32765
1.42408,-0.38533,-0.208871,17,32765
1.48962,-0.40846,-0.218605,16,32765
1.45967,-0.405468,-0.214139,14,32765
1.49646,-0.421053,-0.219589,13,32765
1.43793,-0.409732,-0.211117,15,32765
1.40802,-0.406246,-0.206977,18,32765
1.42569,-0.416528,-0.209535,19,32765
1.4053,-0.415648,-0.20678,19,32765
1.39442,-0.417525,-0.205376,19,32765
1.412,-0.427938,-0.207886,19,32765
1.40113,-0.429629,-0.206548,19,32765
1.39027,-0.431242,-0.205149,19,32765
1.40775,-0.441646,-0.208031,19,32765
1.41576,-0.449201,-0.209375,19,32765
1.37651,-0.441752,-0.204148,18,32765
1.36565,-0.443184,-0.202702,19,32765
1.38298,-0.453826,-0.205702,19,32765
1.37209,-0.455098,-0.204603,18,32765
0,0,-0,0,32765
1.89695,0.0330828,-0.294789,17,32765
1.8674,0.0263575,-0.29023,17,32765
1.88722,0.0201671,-0.293389,17,32765
1.87739,0.0135319,-0.291911,16,32765
1.85764,0.0070231,-0.289025,16,32765
1.82802,0.000615969,-0.284303,16,32765
1.87744,-0.00577595,-0.291864,15,32765
1.83788,-0.0119156,-0.285768,16,32765
1.81809,-0.0180266,-0.282539,16,32765
1.86743,-0.0249291,-0.290123,17,32765
1.81794,-0.0305228,-0.282428,17,32765
1.83761,-0.0372085,-0.285307,17,32765
1.82761,-0.0433546,-0.283673,17,32765
1.82748,-0.0496784,-0.283484,17,32765
1.81746,-0.0556047,-0.281714,17,32765
1.76788,-0.0601078,-0.274015,17,32765
1.78744,-0.0669135,-0.276908,18,32765
1.78721,-0.0730428,-0.276838,18,32765
1.79684,-0.079602,-0.278272,18,32765
1.80646,-0.0862794,-0.279574,18,32765
1.72723,-0.0884767,-0.2671,18,32765
1.71707,-0.0939019,-0.265445,17,32765
1.75622,-0.102081,-0.271403,18,32765
1.74601,-0.107485,-0.269839,18,32765
1.70621,-0.110847,-0.263572,18,32765
1.74531,-0.11932,-0.269347,18,32765
1.69565,-0.121724,-0.261431,18,32765
1.6952,-0.127498,-0.261598,19,32765
1.70463,-0.13423,-0.262873,18,32765
1.69432,-0.139415,-0.26124,17,32765
1.68401,-0.144566,-0.259463,18,32765
1.67366,-0.149658,-0.257794,17,32765
1.64362,-0.15276,-0.253137,16,32765
1.6726,-0.161276,-0.257657,15,32765
1.67207,-0.166999,-0.257494,16,32765
1.76,-0.181878,-0.270941,16,32765
1.72007,-0.183699,-0.26478,16,32765
1.70962,-0.188551,-0.263129,16,32765
1.68933,-0.192252,-0.259984,16,32765
1.65921,-0.194651,-0.255388,17,32765
1.63892,-0.198046,-0.252252,18,32765
1.62843,-0.202536,-0.250581,18,32765
1.61793,-0.206943,-0.248956,18,32765
1.62702,-0.21386,-0.250345,18,32765
1.61647,-0.218124,-0.248892,19,32765
1.59615,-0.220979,-0.245736,18,32765
1.62475,-0.230637,-0.250218,19,32765
1.61418,-0.23476,-0.248596,19,32765
1.57429,-0.234509,-0.242313,18,32765
1.60283,-0.244377,-0.24663,18,32765
1.58244,-0.246887,-0.243611,19,32765
1.59133,-0.254011,-0.245013,18,32765
1.59046,-0.259611,-0.244836,18,32765
1.57006,-0.261918,-0.241704,18,32765
1.55943,-0.265706,-0.239932,19,32765
1.57801,-0.274468,-0.242794,18,32765
1.54788,-0.274688,-0.238174,18,32765
1.54697,-0.280024,-0.237863,18,32765
1.54601,-0.285305,-0.237828,18,32765
1.53534,-0.288693,-0.236216,18,32765
1.51499,-0.290185,-0.232796,18,32765
1.55282,-0.302906,-0.23872,18,32765
1.53241,-0.304362,-0.235575,18,32765
1.51204,-0.305726,-0.232107,18,32765
1.49162,-0.306949,-0.22904,18,32765
1.51962,-0.318146,-0.233346,18,32765
1.51857,-0.323346,-0.233006,18,32765
1.52716,-0.330647,-0.234233,18,32765
1.50676,-0.331581,-0.230962,19,32765
1.49603,-0.334527,-0.229102,18,32765
1.47563,-0.335233,-0.225881,18,32765
1.49382,-0.34466,-0.228525,19,32765
1.45415,-0.340757,-0.222305,18,32765
1.47229,-0.350232,-0.224953,18,32765
1.47114,-0.355222,-0.224649,19,32765
1.46037,-0.357857,-0.222824,18,32765
1.46881,-0.365157,-0.22395,19,32765
1.42928,-0.360459,-0.217554,18,32765
1.45685,-0.372629,-0.221651,19,32765
1.42693,-0.370063,-0.216863,18,32765
1.43533,-0.377321,-0.217819,18,32765
1.42459,-0.379563,-0.215794,17,32765
1.51889,-0.410135,-0.2299,15,32765
1.74665,-0.47785,-0.264114,11,32765
0,-0,-0,0,32765
1.51494,-0.425255,-0.228496,12,32765
1.35178,-0.384298,-0.2035,16,32765
1.3791,-0.397022,-0.207227,17,32765
1.41586,-0.412696,-0.212422,18,32765
1.3861,-0.408986,-0.207474,18,32765
1.37536,-0.410718,-0.205413,18,32765
1.34563,-0.406639,-0.200778,18,32765
1.3728,-0.419731,-0.204338,18,32765
1.39045,-0.430009,-0.20651,18,32765
1.34192,-0.419717,-0.19874,18,32765
1.33121,-0.421086,-0.196614,18,32765
1.32997,-0.425398,-0.19575,18,32765
1.34753,-0.435803,-0.197846,18,32765
1.34622,-0.440171,-0.19705,19,32765
1.33558,-0.441348,-0.194538,19,32765
0,0,-0,0,32765
2.02233,0.0351453,-0.333844,15,32765
1.99283,0.0279856,-0.329008,16,32765
2.0225,0.0214473,-0.333988,15,32765
1.95349,0.0139002,-0.322644,15,32765
1.94362,0.00714882,-0.32121,15,32765
1.92392,0.0004311,-0.317833,16,32765
1.92393,-0.00615583,-0.317707,16,32765
1.88443,-0.0124687,-0.311239,16,32765
1.87454,-0.0188555,-0.309448,17,32765
1.93367,-0.026111,-0.319123,17,32765
1.88425,-0.0319456,-0.310961,17,32765
1.91375,-0.0390845,-0.315646,17,32765
1.87416,-0.0448059,-0.309035,17,32765
1.86417,-0.0510402,-0.307216,17,32765
1.87388,-0.0577164,-0.308595,18,32765
1.85396,-0.0634348,-0.3053,17,32765
1.8439,-0.0694442,-0.303503,17,32765
1.85352,-0.0761914,-0.305052,17,32765
1.83355,-0.0816811,-0.301709,17,32765
1.81358,-0.0870862,-0.298237,17,32765
1.82317,-0.0938791,-0.29959,17,32765
1.84256,-0.101277,-0.30269,17,32765
1.83237,-0.107036,-0.300921,17,32765
1.82215,-0.112718,-0.299262,17,32765
1.73316,-0.113135,-0.284532,17,32765
1.79189,-0.123077,-0.293903,17,32765
1.76198,-0.127067,-0.288738,17,32765
1.75167,-0.132342,-0.287297,17,32765
1.75123,-0.138515,-0.287044,18,32765
1.75075,-0.144693,-0.286926,18,32765
1.72077,-0.148364,-0.281826,18,32765
1.7006,-0.15272,-0.278449,18,32765
1.71973,-0.160512,-0.281555,18,32765
1.70934,-0.165511,-0.279918,19,32765
1.69897,-0.170392,-0.278142,18,32765
1.70822,-0.177256,-0.27957,19,32765
1.70762,-0.183116,-0.279464,19,32765
1.707,-0.189026,-0.279325,19,32765
1.70635,-0.194972,-0.279203,19,32765
1.68607,-0.198593,-0.27593,19,32765
1.68538,-0.204471,-0.275812,19,32765
1.6651,-0.207916,-0.27244,19,32765
1.69375,-0.217492,-0.277127,19,32765
1.67343,-0.220821,-0.273798,19,32765
1.66287,-0.225258,-0.272253,19,32765
1.67188,-0.23236,-0.273708,19,32765
1.66131,-0.236735,-0.272065,18,32765
1.6605,-0.242423,-0.271946,18,32765
1.6597,-0.248176,-0.271674,18,32765
1.63935,-0.250898,-0.268275,17,32765
1.67748,-0.262708,-0.274649,17,32765
1.64732,-0.263941,-0.269752,17,32765
1.66589,-0.272949,-0.272758,17,32765
1.65521,-0.27716,-0.271026,17,32765
1.62509,-0.277929,-0.265961,17,32765
1.58524,-0.276755,-0.259451,17,32765
1.62318,-0.289124,-0.265687,18,32765
1.59308,-0.289441,-0.260594,18,32765
1.6018,-0.296695,-0.262145,18,32765
1.5911,-0.300284,-0.260434,18,32765
1.59984,-0.307566,-0.261568,19,32765
1.5891,-0.311122,-0.259935,19,32765
1.57837,-0.314641,-0.258182,19,32765
1.57735,-0.3201,-0.257674,19,32765
1.57625,-0.325551,-0.257577,18,32765
1.57515,-0.330975,-0.257414,19,32765
1.55475,-0.332255,-0.253906,19,32765
1.54399,-0.335506,-0.252067,18,32765
1.5236,-0.336505,-0.248606,18,32765
1.53215,-0.343845,-0.249789,18,32765
1.5599,-0.355658,-0.254221,18,32765
1.53949,-0.356483,-0.250764,18,32765
1.50947,-0.354996,-0.245726,18,32765
1.50831,-0.360094,-0.24542,18,32765
1.49753,-0.362897,-0.243546,18,32765
1.48675,-0.365632,-0.241621,18,32765
1.48557,-0.370649,-0.241275,18,32765
1.49396,-0.378125,-0.242264,19,32765
1.48316,-0.380717,-0.240422,19,32765
1.50106,-0.390682,-0.243088,19,32765
1.46162,-0.385606,-0.236385,18,32765
1.46041,-0.390499,-0.235796,18,32765
1.45915,-0.395411,-0.235432,16,32765
1.48648,-0.408123,-0.239633,15,32765
1.43759,-0.39984,-0.231456,18,32765
1.45534,-0.409982,-0.234079,18,32765
1.42555,-0.406715,-0.228892,19,32765
1.42428,-0.411485,-0.228299,19,32765
1.43246,-0.41902,-0.229292,19,32765
1.43117,-0.423784,-0.228597,19,32765
1.40146,-0.419999,-0.223402,19,32765
1.42852,-0.433218,-0.22752,19,32765
1.41775,-0.435012,-0.225307,19,32765
1.40699,-0.436668,-0.22315,18,32765
1.38683,-0.435301,-0.219382,19,32765
1.39495,-0.442808,-0.220111,18,32765
1.39364,-0.447341,-0.219205,18,32765
1.37347,-0.445765,-0.215547,18,32765
1.38154,-0.453316,-0.216205,18,32765
0,-0,-0,0,32765
0,0,0,0,32765
0,0,0,0,32765
0,0,0,0,32765
0,0,0,0,32765
0,0,0,0,32765
0,0,0,0,32765
0,0,0,0,32765
0,0,0,0,32765
0,0,0,0,32765
0,0,0,0,32765
0,0,0,0,32765
0,0,0,0,32765
0,0,0,0,32765
0,0,0,0,32765
0,0,0,0,32765
0,0,0,0,32765
0,0,0,0,32765
0,0,0,0,32765
0,0,0,0,32765
0,0,0,0,32765
0,0,0,0,32765
0,0,0,0,32765
0,0,0,0,32765
0,0,0,0,32765
0,0,0,0,32765
0,0,0,0,32765
0,0,0,0,32765
0,0,0,0,32765
0,0,0,0,32765
0,0,0,0,32765
0,0,0,0,32765
0,0,0,0,32765
0,0,0,0,32765
0,0,0,0,32765
0,0,0,0,32765
0,0,0,0,32765
0,0,0,0,32765
0,0,0,0,32765
0,0,0,0,32765
0,0,0,0,32765
0,0,0,0,32765
0,0,0,0,32765
0,0,0,0,32765
0,0,0,0,32765
0,0,0,0,32765
0,0,0,0,32765
0,0,0,0,32765
0,0,0,0,32765
0,0,0,0,32765
0,0,0,0,32765
0,0,0,0,32765
0,0,0,0,32765
0,0,0,0,32765
0,0,0,0,32765
0,0,0,0,32765
0,0,0,0,32765
0,0,0,0,32765
0,0,0,0,32765
0,0,0,0,32765
0,0,0,0,32765
1.90903,0.224295,0.328337,13,32765
1.90984,0.217941,0.3279,15,32765
1.90079,0.210583,0.325942,16,32765
1.8623,0.20008,0.319091,16,32765
1.89242,0.196968,0.323789,17,32765
1.90287,0.191789,0.325408,17,32765
1.90355,0.185441,0.325126,18,32765
1.89439,0.178224,0.323173,18,32765
1.90486,0.172863,0.324384,18,32765
1.876,0.163958,0.319122,18,32765
1.85693,0.156168,0.315492,17,32765
1.83783,0.14843,0.311841,18,32765
1.87764,0.145442,0.318467,18,32765
1.83885,0.136309,0.311362,18,32765
1.82952,0.129506,0.309336,18,32765
1.84962,0.124891,0.312559,18,32765
1.81073,0.116357,0.305466,18,32765
1.84068,0.112275,0.310176,19,32765
1.8017,0.104047,0.303255,18,32765
1.81192,0.0986794,0.304633,18,32765
1.78275,0.0912642,0.299274,18,32765
1.78309,0.0854134,0.299002,18,32765
1.79328,0.080057,0.300239,19,32765
1.78374,0.073826,0.298211,18,32765
1.7643,0.0672759,0.294626,17,32765
1.77444,0.0618735,0.295875,19,32765
1.79442,0.0566709,0.298735,18,32765
1.76508,0.050004,0.293417,19,32765
1.7653,0.0442621,0.293004,18,32765
1.77536,0.038749,0.294253,19,32765
1.77553,0.0331092,0.293956,18,32765
1.73627,0.0267693,0.286763,18,32765
1.7364,0.0211638,0.286467,18,32765
1.73656,0.0155229,0.285839,18,32765
1.7663,0.0101255,0.290163,18,32765
1.74666,0.00444372,0.286445,18,32765
1.76651,-0.00110298,0.289049,19,32765
1.737,-0.00657778,0.28352,18,32765
1.72719,-0.0120111,0.281399,18,32765
1.70753,-0.01732,0.277358,18,32765
1.70758,-0.0227234,0.276707,18,32765
9.3216,3.03006,1.71146,11,32765
9.29388,2.98867,1.70286,11,32765
0,0,0,0,32765
0,0,0,0,32765
0,0,0,11,32765
0,0,0,0,32765
0,0,0,0,32765
0,0,0,0,32765
0,0,0,0,32765
0,0,0,0,32765
0,0,0,0,32765
0,0,0,11,32765
0,0,0,0,32765
0,0,0,0,32765
0,0,0,0,32765
0,0,0,0,32765
0,0,0,0,32765
0,0,0,0,32765
0,0,0,0,32765
0,0,0,0,32765
0,0,0,0,32765
0,0,0,0,32765
0,0,0,0,32765
0,0,0,0,32765
0,0,0,0,32765
0,0,0,0,32765
0,0,0,0,32765
0,0,0,0,32765
0,0,0,0,32765
0,0,0,0,32765
0,0,0,0,32765
0,0,0,11,32765
0,0,0,0,32765
0,0,0,0,32765
0,0,0,0,32765
0,0,0,0,32765
0,0,0,0,32765
0,0,0,0,32765
0,0,0,0,32765
0,0,0,11,32765
0,0,0,0,32765
0,0,0,0,32765
0,0,0,0,32765
0,0,0,11,32765
0,0,0,11,32765
1.97582,0.332453,0.326359,13,32765
1.98667,0.327736,0.327612,14,32765
1.95852,0.316528,0.322646,15,32765
2.01811,0.31929,0.331943,16,32765
1.93142,0.298902,0.317275,16,32765
1.95196,0.295357,0.320368,18,32765
1.93343,0.285851,0.317059,19,32765
1.91488,0.276557,0.313613,19,32765
1.92564,0.271533,0.314781,19,32765
1.90702,0.262394,0.311334,19,32765
1.87851,0.252226,0.306551,19,32765
1.87938,0.246025,0.30625,19,32765
1.89002,0.241069,0.307613,19,32765
1.88105,0.23366,0.305689,19,32765
1.86224,0.225044,0.302363,20,32765
1.86298,0.218972,0.302236,20,32765
1.86377,0.212761,0.30181,19,32765
1.84488,0.204456,0.298365,19,32765
1.87502,0.201505,0.302995,19,32765
1.80699,0.188123,0.291565,20,32765
1.82725,0.184205,0.294678,20,32765
1.81807,0.177142,0.292825,19,32765
1.82852,0.172047,0.29414,20,32765
1.80948,0.164218,0.290537,19,32765
1.81006,0.158196,0.290299,19,32765
1.81061,0.152266,0.290018,19,32765
1.79147,0.144669,0.286561,19,32765
1.77225,0.137253,0.28337,19,32765
1.81216,0.134295,0.289238,19,32765
1.79295,0.126874,0.28574,19,32765
1.75395,0.11838,0.279363,18,32765
1.76425,0.11331,0.280501,18,32765
1.72522,0.105165,0.273979,18,32765
1.75517,0.101283,0.278397,18,32765
1.72595,0.0939132,0.273439,18,32765
1.76577,0.0903001,0.279301,18,32765
1.72663,0.0826079,0.272796,19,32765
1.70722,0.0761067,0.269284,18,32765
1.70751,0.0705546,0.268921,18,32765
1.67816,0.0638684,0.263983,18,32765
1.70804,0.0594249,0.268259,19,32765
1.67867,0.0528759,0.263207,19,32765
1.68877,0.0476937,0.264379,19,32765
1.66922,0.0416982,0.260896,19,32765
1.67928,0.036488,0.262073,19,32765
1.67943,0.0311454,0.261793,19,32765
1.67962,0.025716,0.261154,19,32765
1.66986,0.0201658,0.259332,19,32765
1.67001,0.014733,0.258729,20,32765
1.65037,0.00926037,0.255154,19,32765
1.64057,0.00396661,0.25318,19,32765
1.63079,-0.00123184,0.25107,19,32765
1.64076,-0.00643585,0.251946,19,32765
1.6408,-0.0116407,0.251461,19,32765
1.62111,-0.0166784,0.247649,19,32765
1.62114,-0.0218159,0.247031,19,32765
9.30109,3.02955,1.58736,12,32765
9.22559,2.97318,1.57513,12,32765
9.44186,3.00979,1.61058,11,32765
0,0,0,0,32765
0,0,0,0,32765
0,0,0,0,32765
0,0,0,0,32765
0,0,0,0,32765
0,0,0,0,32765
0,0,0,0,32765
0,0,0,0,32765
0,0,0,0,32765
0,0,0,0,32765
0,0,0,0,32765
0,0,0,0,32765
0,0,0,0,32765
0,0,0,0,32765
0,0,0,0,32765
0,0,0,0,32765
0,0,0,0,32765
0,0,0,0,32765
0,0,0,0,32765
0,0,0,0,32765
0,0,0,0,32765
0,0,0,0,32765
0,0,0,143,32765
0,0,0,0,32765
0,0,0,0,32765
0,0,0,0,32765
0,0,0,0,32765
0,0,0,0,32765
0,0,0,0,32765
2.04724,0.437501,0.334389,11,32765
2.15504,0.453004,0.351436,11,32765
0,0,0,0,32765
2.12909,0.432894,0.345832,12,32765
2.10148,0.420179,0.340768,12,32765
2.12232,0.417082,0.343364,13,32765
2.11402,0.408203,0.341624,14,32765
2.01841,0.382719,0.325471,14,32765
2.07803,0.38679,0.334323,15,32765
2.06963,0.378104,0.332521,16,32765
2.0223,0.362551,0.324424,17,32765
2.04303,0.35925,0.327083,18,32765
2.06376,0.355808,0.329707,18,32765
2.05523,0.34734,0.327842,19,32765
2.01747,0.334113,0.321044,19,32765
2.06736,0.33542,0.328483,19,32765
2.00998,0.319376,0.318739,19,32765
2.02083,0.314281,0.31995,18,32765
1.99263,0.303091,0.314881,19,32765
2.02301,0.300795,0.319171,18,32765
1.9947,0.289708,0.314413,18,32765
1.99575,0.282994,0.313849,18,32765
1.9967,0.276263,0.313777,18,32765
1.93893,0.261733,0.304041,17,32765
1.96924,0.259198,0.308248,18,32765
1.99949,0.256633,0.312711,18,32765
1.98072,0.247661,0.309551,17,32765
1.94238,0.236405,0.302753,19,32765
1.9824,0.234796,0.308798,19,32765
1.95378,0.224797,0.303804,18,32765
1.93487,0.216228,0.300714,18,32765
1.94543,0.210921,0.302036,17,32765
1.94619,0.204473,0.301526,16,32765
1.92719,0.19613,0.298432,17,32765
1.92789,0.189772,0.298068,17,32765
1.94819,0.185303,0.301042,17,32765
1.90944,0.175253,0.294843,17,32765
1.86084,0.164582,0.286876,17,32765
1.87121,0.159362,0.288371,17,32765
1.89145,0.154833,0.291259,16,32765
1.81315,0.142419,0.278946,18,32765
1.7939,0.135103,0.275798,18,32765
1.82391,0.131352,0.280379,18,32765
1.82435,0.125514,0.280177,18,32765
1.80501,0.118269,0.277219,18,32765
1.81527,0.113048,0.278616,18,32765
1.81562,0.107138,0.278667,19,32765
1.80614,0.100591,0.276808,18,32765
1.79656,0.094258,0.275447,19,32765
1.77712,0.0873678,0.272406,18,32765
1.78725,0.0820614,0.274067,18,32765
1.79739,0.0766205,0.27556,19,32765
1.77786,0.0699653,0.272618,19,32765
1.76819,0.0638891,0.271158,18,32765
1.76836,0.0581134,0.271348,18,32765
1.76852,0.0523692,0.271465,19,32765
1.78843,0.047066,0.274586,18,32765
1.7688,0.0407185,0.271667,18,32765
1.72936,0.0342106,0.265779,18,32765
1.74921,0.0290165,0.268937,18,32765
1.72949,0.0232251,0.266141,18,32765
1.75915,0.0180074,0.271019,18,32765
1.72951,0.0120823,0.266746,18,32765
1.73937,0.00642483,0.268632,18,32765
1.72942,0.000666493,0.267622,18,32765
1.71951,-0.00494087,0.266229,18,32765
1.73915,-0.0105901,0.269908,18,32765
1.69954,-0.0158836,0.264045,18,32765
1.729,-0.0217007,0.269449,18,32765
9.19157,2.99775,1.47547,11,32765
9.32287,3.00838,1.49729,11,32765
0,0,0,0,32765
0,0,0,0,32765
0,0,0,0,32765
0,0,0,0,32765
0,0,0,0,32765
0,0,0,0,32765
0,0,0,0,32765
0,0,0,0,32765
0,0,0,0,32765
0,0,0,0,32765
0,0,0,0,32765
0,0,0,0,32765
0,0,0,0,32765
0,0,0,0,32765
0,0,0,0,32765
0,0,0,0,32765
0,0,0,0,32765
0,0,0,0,32765
0,0,0,0,32765
0,0,0,11,32765
0,0,0,11,32765
2.22778,0.546477,0.347491,13,32765
2.11429,0.511248,0.329254,14,32765
2.20259,0.524827,0.342396,16,32765
2.20435,0.517541,0.342192,16,32765
2.11942,0.490086,0.328457,18,32765
2.1211,0.483104,0.327959,19,32765
2.12271,0.476181,0.327617,19,32765
2.11467,0.467154,0.32563,19,32765
2.09696,0.455916,0.322182,20,32765
2.07915,0.444783,0.319083,19,32765
2.07099,0.435786,0.317307,20,32765
2.07255,0.428832,0.316591,20,32765
2.00611,0.408303,0.306102,19,32765
2.06567,0.413431,0.314632,20,32765
2.03798,0.400905,0.309677,19,32765
2.01019,0.388535,0.305089,19,32765
1.96297,0.372566,0.297251,18,32765
2.03235,0.37865,0.307027,19,32765
1.99472,0.364762,0.30092,19,32765
2.01543,0.361656,0.303564,19,32765
2.01669,0.354944,0.30311,19,32765
1.99844,0.344858,0.299706,19,32765
1.97035,0.333292,0.295023,19,32765
1.94224,0.321936,0.29008,19,32765
1.9531,0.317155,0.291238,19,32765
1.9835,0.315436,0.295166,18,32765
1.91615,0.298248,0.284669,19,32765
1.91719,0.291853,0.284253,19,32765
1.9182,0.285439,0.28393,19,32765
1.89959,0.276109,0.280906,19,32765
1.8908,0.268315,0.278924,19,32765
1.9015,0.263285,0.280301,19,32765
1.87302,0.253016,0.275476,20,32765
1.85428,0.244236,0.272215,21,32765
1.84526,0.236997,0.270648,20,32765
1.92459,0.240798,0.282073,17,32765
1.86652,0.227313,0.272795,19,32765
1.85743,0.220125,0.271293,19,32765
1.85821,0.213921,0.270905,19,32765
1.85891,0.20785,0.27087,20,32765
1.83993,0.199583,0.26781,19,32765
1.81112,0.190371,0.263039,19,32765
1.82159,0.185462,0.264423,20,32765
1.81239,0.178472,0.262651,19,32765
1.79327,0.170627,0.259734,19,32765
1.8037,0.165597,0.26105,19,32765
1.81415,0.160493,0.262118,19,32765
1.78508,0.152057,0.257823,19,32765
1.78559,0.146188,0.257683,19,32765
1.76635,0.138754,0.254663,19,32765
1.7668,0.133064,0.254549,18,32765
1.7771,0.127974,0.256005,19,32765
1.76765,0.121597,0.254387,19,32765
1.7384,0.113879,0.250192,19,32765
1.75854,0.109479,0.252921,19,32765
1.74899,0.103162,0.251549,19,32765
1.72961,0.0962756,0.248377,19,32765
1.72989,0.0906975,0.248523,19,32765
1.71041,0.0840171,0.245669,18,32765
1.72054,0.078918,0.247232,18,32765
1.72079,0.0732657,0.247211,18,32765
1.72101,0.0676292,0.247294,18,32765
1.68164,0.0606565,0.241662,19,32765
1.6917,0.0554789,0.243265,18,32765
1.67207,0.0493902,0.240531,18,32765
1.6821,0.0441352,0.242037,18,32765
1.65254,0.037903,0.237872,19,32765
1.67242,0.0329343,0.240898,18,32765
1.6725,0.0275854,0.241013,18,32765
1.66265,0.0221611,0.239821,18,32765
1.65277,0.0167442,0.238691,18,32765
1.66267,0.0114311,0.240403,18,32765
1.63296,0.00584187,0.236449,18,32765
1.6428,0.000432843,0.238374,18,32765
1.63287,-0.0048997,0.237067,18,32765
1.64266,-0.0102206,0.239088,18,32765
1.63268,-0.0154843,0.237909,18,32765
1.61273,-0.0204731,0.23577,18,32765
9.29319,3.01943,1.52698,12,32765
9.20007,2.95706,1.5043,11,32765
0,0,0,0,32765
0,0,0,0,32765
0,0,0,0,32765
0,0,0,0,32765
0,0,0,0,32765
0,0,0,0,32765
0,0,0,0,32765
0,0,0,54,32765
0,0,0,0,32765
0,0,0,0,32765
0,0,0,0,32765
0,0,0,0,32765
0,0,0,0,32765
0,0,0,0,32765
0,0,0,0,32765
0,0,0,0,32765
2.25879,0.59007,0.345368,12,32765
2.26086,0.582672,0.344406,13,32765
2.20532,0.56068,0.334944,15,32765
2.23604,0.560707,0.338579,16,32765
2.25724,0.558023,0.340572,17,32765
2.21106,0.538921,0.332835,17,32765
2.26104,0.543178,0.33937,18,32765
2.2051,0.522129,0.330197,18,32765
2.18759,0.510507,0.326694,18,32765
2.20866,0.507734,0.328833,18,32765
2.18139,0.494042,0.324122,18,32765
2.16375,0.482584,0.320793,17,32765
2.18476,0.479691,0.32298,18,32765
2.16707,0.468239,0.31965,17,32765
2.17843,0.462883,0.320435,18,32765
2.14127,0.447495,0.314373,17,32765
2.20097,0.452416,0.322426,19,32765
2.14425,0.433586,0.313507,18,32765
2.11661,0.420873,0.308607,18,32765
2.09857,0.410186,0.305514,17,32765
2.06111,0.395833,0.299259,17,32765
2.10136,0.396314,0.304652,17,32765
2.07347,0.383957,0.300361,17,32765
2.06507,0.375328,0.298358,18,32765
2.02737,0.361507,0.292343,17,32765
2.03837,0.356508,0.29337,17,32765
2.03959,0.349746,0.293006,18,32765
2.01145,0.338098,0.288694,18,32765
2.0419,0.336359,0.292554,17,32765
2.03328,0.328018,0.290835,17,32765
2.00505,0.31673,0.286265,18,32765
2.00613,0.310118,0.285976,19,32765
1.99741,0.301913,0.284272,18,32765
2.00822,0.296696,0.285492,18,32765
1.99945,0.288478,0.28388,18,32765
1.96123,0.276299,0.277918,18,32765
1.98179,0.272418,0.280521,18,32765
1.96309,0.263183,0.277484,17,32765
1.90506,0.248991,0.268971,18,32765
1.97468,0.251417,0.278411,16,32765
1.91657,0.237586,0.269851,17,32765
1.9567,0.236047,0.275153,18,32765
1.94767,0.228471,0.273452,17,32765
1.91892,0.218766,0.269068,17,32765
1.93937,0.214561,0.27151,18,32765
1.90069,0.203952,0.265834,18,32765
1.9211,0.199666,0.26831,18,32765
1.9218,0.193314,0.267952,18,32765
1.85345,0.180253,0.258166,18,32765
1.8837,0.176798,0.261781,17,32765
1.87443,0.169653,0.260242,17,32765
1.83556,0.15998,0.254435,17,32765
1.83611,0.153957,0.25416,17,32765
1.807,0.145598,0.249916,18,32765
1.82727,0.141208,0.252249,17,32765
1.81786,0.134552,0.250757,18,32765
1.79859,0.127181,0.247588,18,32765
1.79902,0.121242,0.247426,18,32765
1.80936,0.115896,0.248391,17,32765
1.81968,0.110479,0.249317,18,32765
1.7904,0.102849,0.244933,18,32765
1.78089,0.0964637,0.243175,18,32765
1.7911,0.0912499,0.244437,18,32765
1.78151,0.0850479,0.242858,18,32765
1.78183,0.0792938,0.242445,18,32765
1.77221,0.0731182,0.240875,18,32765
1.75271,0.0665627,0.237633,18,32765
1.76287,0.0612111,0.238652,18,32765
1.7433,0.0548386,0.235604,17,32765
1.73363,0.0487952,0.233745,18,32765
1.71402,0.0427276,0.230693,18,32765
1.71421,0.0371042,0.230259,18,32765
1.7441,0.032053,0.233824,18,32765
1.70459,0.0258299,0.228274,18,32765
1.71464,0.0203843,0.229116,18,32765
1.69494,0.0147243,0.225979,18,32765
1.68514,0.00925079,0.224098,18,32765
1.68524,0.00393843,0.223495,18,32765
1.69524,-0.00141451,0.224182,18,32765
1.70521,-0.00693666,0.224951,18,32765
1.70526,-0.0123941,0.224381,18,32765
1.70531,-0.0178761,0.223586,18,32765
1.68551,-0.0228818,0.220267,18,32765
0,0,0,0,32765
0,0,0,0,32765
0,0,0,0,32765
0,0,0,0,32765
0,0,0,0,32765
0,0,0,0,32765
0,0,0,0,32765
0,0,0,0,32765
0,0,0,0,32765
2.38464,0.699624,0.352328,12,32765
2.32051,0.672538,0.341338,14,32765
2.29431,0.656745,0.336076,16,32765
2.3061,0.651865,0.33669,17,32765
2.27974,0.636344,0.331566,18,32765
2.27242,0.626219,0.329192,19,32765
2.24591,0.611042,0.324061,19,32765
2.24797,0.603739,0.323474,19,32765
2.25006,0.596389,0.322547,19,32765
2.21374,0.579035,0.316491,19,32765
2.18699,0.564347,0.31145,18,32765
2.20812,0.562097,0.313474,19,32765
2.15239,0.540408,0.30459,19,32765
2.1543,0.53324,0.303718,18,32765
2.16573,0.528527,0.304592,18,32765
2.11939,0.509779,0.297167,18,32765
2.16932,0.514288,0.303421,19,32765
2.14211,0.500504,0.298768,19,32765
2.14385,0.493434,0.29805,19,32765
2.10683,0.477732,0.29229,19,32765
2.07943,0.464336,0.287824,18,32765
2.09073,0.459591,0.288515,19,32765
2.09231,0.452621,0.288059,20,32765
2.05516,0.437202,0.282119,18,32765
2.08576,0.436404,0.285755,19,32765
2.03871,0.419548,0.278663,19,32765
2.04981,0.414965,0.279611,19,32765
2.06095,0.410273,0.280308,19,32765
2.00394,0.392132,0.272124,18,32765
2.0345,0.391162,0.275497,18,32765
2.03583,0.38438,0.275252,19,32765
1.98836,0.368602,0.268609,18,32765
2.01891,0.367338,0.27198,19,32765
