x, y, z, intensity, ring
0.895174,0.00280883,0.0930391,16,32765
0.875318,-0.000140813,0.0906527,15,32765
0.88529,-0.00301279,0.0913961,16,32765
0.855478,-0.00568468,0.0878939,16,32765
0.855479,-0.00851184,0.0876489,16,32765
0.895259,-0.0118563,0.0914889,16,32765
0.875342,-0.0144569,0.0892626,16,32765
0.865375,-0.0171377,0.0879367,16,32765
0.875269,-0.0202234,0.0888542,16,32765
0.895118,-0.0236312,0.0905827,15,32765
0.855277,-0.0254194,0.086346,15,32765
0.885042,-0.0292568,0.089137,16,32765
0.855122,-0.0311381,0.0859998,16,32765
0.884854,-0.035186,0.0888507,16,32765
0.874797,-0.0377121,0.0877962,16,32765
0.894571,-0.0414952,0.0895637,16,32765
0.924256,-0.0458912,0.0924378,17,32765
0.934065,-0.0493977,0.0931759,17,32765
0.92397,-0.0518727,0.092139,16,32765
0.894008,-0.0531222,0.0890434,16,32765
0.913707,-0.0572956,0.0908612,16,32765
0.883738,-0.0583163,0.0877853,16,32765
0.933188,-0.0646777,0.0926088,16,32765
0.923036,-0.067071,0.0916832,16,32765
0.922814,-0.0701476,0.0916171,16,32765
0.912668,-0.0724188,0.0905092,16,32765
0.922342,-0.0762464,0.0914951,16,32765
0.912173,-0.0784589,0.0904648,16,32765
0.931751,-0.0832492,0.0922492,16,32765
0.921567,-0.0854217,0.0911953,15,32765
0.911379,-0.08754,0.0901437,15,32765
0.980406,-0.0974056,0.0970392,15,32765
0.970184,-0.0996339,0.0960034,15,32765
0.989645,-0.104926,0.0979419,16,32765
0.94973,-0.103867,0.0939373,15,32765
0.998833,-0.1126,0.0987593,16,32765
0.9589,-0.111309,0.0949807,15,32765
0.948661,-0.113288,0.0938519,16,32765
0.968025,-0.118836,0.0959431,16,32765
0.957754,-0.12076,0.0949993,15,32765
0.996824,-0.129044,0.0989412,15,32765
1.02599,-0.136278,0.101859,16,32765
1.01565,-0.138375,0.100993,16,32765
1.00534,-0.140377,0.0999783,16,32765
1.02455,-0.146561,0.102064,15,32765
1.0339,-0.151449,0.102992,16,32765
1.01369,-0.151987,0.101166,16,32765
1.02301,-0.156899,0.102187,16,32765
1.0323,-0.161867,0.103179,15,32765
1.04157,-0.166938,0.104207,16,32765
1.05082,-0.171995,0.105307,15,32765
1.04042,-0.173843,0.104433,16,32765
1.03983,-0.177296,0.104482,16,32765
1.04905,-0.182424,0.105422,15,32765
1.02883,-0.182476,0.103454,15,32765
1.05759,-0.191191,0.106529,16,32765
1.03737,-0.191111,0.104638,16,32765
1.05628,-0.198229,0.106646,15,32765
1.04583,-0.199863,0.105779,15,32765
1.09402,-0.21281,0.110639,15,32765
1.06401,-0.210638,0.1078,15,32765
1.08281,-0.218076,0.10981,15,32765
1.08209,-0.221688,0.109744,15,32765
1.08133,-0.225273,0.109864,16,32765
1.10004,-0.233028,0.111886,15,32765
1.08951,-0.234594,0.11101,16,32765
1.06929,-0.233949,0.109009,16,32765
1.08792,-0.241836,0.111092,16,32765
1.09682,-0.247654,0.112046,16,32765
1.11537,-0.255769,0.114117,16,32765
1.08545,-0.25272,0.111056,16,32765
1.11365,-0.263145,0.114173,16,32765
1.11279,-0.266779,0.114161,15,32765
1.14092,-0.277457,0.117096,15,32765
1.09169,-0.269244,0.112294,16,32765
1.08115,-0.270398,0.111329,16,32765
1.09955,-0.278818,0.113337,16,32765
1.12756,-0.289818,0.116228,15,32765
1.09772,-0.285972,0.113255,15,32765
1.1064,-0.292078,0.114287,15,32765
1.11507,-0.298226,0.115254,15,32765
1.1333,-0.307044,0.117254,15,32765
1.14189,-0.313402,0.118212,15,32765
1.13126,-0.314511,0.117153,16,32765
1.16854,-0.329014,0.121064,14,32765
1.22491,-0.349127,0.126951,14,32765
1.19508,-0.344829,0.123979,14,32765
1.24175,-0.362589,0.128763,14,32765
1.25012,-0.36939,0.129782,13,32765
1.28708,-0.384787,0.133651,14,32765
1.2954,-0.391719,0.134475,14,32765
1.25614,-0.38407,0.130399,14,32765
1.32149,-0.408592,0.137213,14,32765
1.30118,-0.406882,0.135171,14,32765
1.34733,-0.426106,0.139793,14,32765
1.346,-0.430361,0.139563,13,32765
1.3542,-0.437459,0.140251,14,32765
1.33398,-0.435363,0.138009,13,32765
1.37048,-0.451945,0.141524,13,32765
0.796727,0.00941209,0.0716819,15,32765
0.836569,0.00706439,0.0755178,16,32765
0.836572,0.0042964,0.0756856,15,32765
0.856484,0.00154239,0.0776719,15,32765
0.796709,-0.0012032,0.0724802,15,32765
0.846481,-0.00411261,0.077156,16,32765
0.836498,-0.00681201,0.0763168,16,32765
0.846421,-0.00961306,0.0773275,15,32765
0.836416,-0.0122491,0.0765355,15,32765
0.846319,-0.0151869,0.0775485,16,32765
0.806423,-0.0171787,0.0740721,15,32765
0.856138,-0.0210974,0.0786265,15,32765
0.856051,-0.0239212,0.078766,16,32765
0.865916,-0.0270696,0.0797336,16,32765
0.855872,-0.0295324,0.0788138,16,32765
0.845801,-0.0319727,0.0780902,15,32765
0.845691,-0.034763,0.0780866,16,32765
0.835621,-0.0371545,0.0771775,16,32765
0.855378,-0.0409251,0.0790804,16,32765
0.875124,-0.0448143,0.0809342,16,32765
0.865019,-0.0471686,0.0801078,16,32765
0.884741,-0.0511593,0.081947,16,32765
0.90445,-0.0552377,0.0837763,16,32765
0.9142,-0.0588085,0.084733,16,32765
0.904074,-0.0610931,0.0837705,16,32765
0.903852,-0.0641305,0.0839019,16,32765
0.893692,-0.0664225,0.0830869,16,32765
0.903393,-0.0701597,0.0840166,16,32765
0.913073,-0.0739879,0.0849932,16,32765
0.922744,-0.0778444,0.0859244,16,32765
0.932405,-0.0817537,0.0868207,16,32765
0.96188,-0.0875741,0.0895415,16,32765
0.941747,-0.0888638,0.0878418,16,32765
0.931543,-0.0910131,0.0868564,15,32765
0.931228,-0.094081,0.0869623,16,32765
0.940811,-0.0982321,0.0878882,16,32765
0.960282,-0.103525,0.0896768,15,32765
0.950037,-0.105665,0.0886833,16,32765
0.979352,-0.112253,0.0914811,15,32765
0.95919,-0.113171,0.0897007,15,32765
0.958813,-0.116333,0.0896858,16,32765
0.948554,-0.11826,0.0886574,14,32765
0.967918,-0.123889,0.0904835,12,32765
0.987248,-0.129686,0.0923239,14,32765
1.02628,-0.138277,0.0960534,15,32765
1.02581,-0.141698,0.0961082,15,32765
1.00561,-0.142317,0.0942589,16,32765
1.01498,-0.14711,0.0952432,16,32765
1.02434,-0.151981,0.0960988,16,32765
0.974592,-0.147917,0.0916067,16,32765
1.01344,-0.157318,0.0953397,16,32765
1.0129,-0.160716,0.0954279,16,32765
1.00253,-0.162495,0.094446,15,32765
1.00199,-0.165832,0.0944282,15,32765
0.991625,-0.167435,0.0935139,15,32765
1.00086,-0.172478,0.0944724,15,32765
1.02969,-0.181037,0.0972878,16,32765
0.999673,-0.179189,0.0945821,16,32765
1.03825,-0.18966,0.0983506,16,32765
1.02783,-0.191187,0.097486,15,32765
1.0272,-0.194575,0.0974989,15,32765
1.02654,-0.197969,0.0975926,16,32765
1.05519,-0.207089,0.100413,16,32765
1.06425,-0.212567,0.101419,16,32765
1.10257,-0.223984,0.105237,14,32765
1.0433,-0.215579,0.0997862,15,32765
1.04257,-0.219071,0.0997725,15,32765
1.04183,-0.222516,0.0999223,16,32765
1.08,-0.234395,0.103773,16,32765
1.07921,-0.237911,0.103892,15,32765
1.03955,-0.232783,0.100209,15,32765
1.08731,-0.24726,0.104994,15,32765
1.05738,-0.244068,0.102412,15,32765
1.07594,-0.252083,0.104388,15,32765
1.08479,-0.25787,0.105541,15,32765
1.07425,-0.259113,0.104677,15,32765
1.04436,-0.255547,0.102003,15,32765
1.05317,-0.261343,0.103089,16,32765
1.0716,-0.26965,0.105152,15,32765
1.06105,-0.270659,0.104478,16,32765
1.09868,-0.284105,0.108531,15,32765
1.0881,-0.285192,0.10772,15,32765
1.08713,-0.288747,0.108039,15,32765
1.10539,-0.297449,0.110157,15,32765
1.07561,-0.293123,0.107471,15,32765
1.05542,-0.291312,0.10591,15,32765
1.09281,-0.305439,0.109914,15,32765
1.15881,-0.327932,0.117109,14,32765
1.20553,-0.345455,0.122266,14,32765
1.21394,-0.35208,0.12364,13,32765
1.17457,-0.34479,0.12005,14,32765
1.1734,-0.348626,0.120388,13,32765
1.24848,-0.375301,0.128587,15,32765
1.22819,-0.373485,0.12713,14,32765
1.25549,-0.386108,0.130599,14,32765
1.33973,-0.416716,0.139892,13,32765
1.38579,-0.435922,0.145456,13,32765
1.31797,-0.419187,0.139051,13,32765
1.2787,-0.411122,0.13565,13,32765
1.29628,-0.421212,0.138339,14,32765
1.35158,-0.443878,0.145268,13,32765
0.867136,0.010317,0.0697769,15,32765
0.887079,0.00756027,0.0716479,16,32765
0.877118,0.00456785,0.0710188,16,32765
0.877113,0.00163737,0.0712075,16,32765
0.827258,-0.00119978,0.0673976,16,32765
0.877072,-0.00421411,0.0716087,16,32765
0.877047,-0.00710048,0.0716805,16,32765
0.867045,-0.0098112,0.0709705,16,32765
0.876963,-0.0128117,0.0719097,17,32765
0.876908,-0.01571,0.0720152,16,32765
0.827014,-0.0175981,0.0681008,16,32765
0.876769,-0.0215909,0.0721848,17,32765
0.886643,-0.0247664,0.0731496,16,32765
0.87659,-0.0273992,0.0723801,16,32765
0.886457,-0.030589,0.0731992,16,32765
0.866417,-0.0327585,0.0717518,16,32765
0.896177,-0.0368505,0.0742222,16,32765
0.866179,-0.0385305,0.071758,16,32765
0.875993,-0.0419345,0.0726498,16,32765
0.875846,-0.0448799,0.0726645,16,32765
0.875684,-0.0477842,0.072759,16,32765
0.885472,-0.0512415,0.0735834,16,32765
0.905196,-0.0553296,0.0752248,16,32765
0.914954,-0.0589094,0.0760876,16,32765
0.894875,-0.0605284,0.0743925,16,32765
0.914537,-0.0649526,0.0761786,16,32765
0.924243,-0.0687635,0.0771174,16,32765
0.904137,-0.070292,0.0754655,16,32765
0.933691,-0.0757415,0.0780079,16,32765
0.893713,-0.0754804,0.0746957,16,32765
0.933171,-0.0819157,0.0779879,16,32765
0.922971,-0.0841314,0.0771102,16,32765
0.952441,-0.0899817,0.0797459,16,32765
0.962061,-0.0941108,0.080514,16,32765
0.941906,-0.0952793,0.078961,16,32765
0.941581,-0.0984381,0.0789619,17,32765
0.961065,-0.103744,0.0805626,16,32765
0.970619,-0.108096,0.0813227,16,32765
0.980149,-0.112495,0.0821792,16,32765
1.00945,-0.119263,0.0847408,13,32765
0.969484,-0.117789,0.0814026,13,32765
0,-0,0,0,32765
0,-0,0,0,32765
0,-0,0,0,32765
0,-0,0,0,32765
0.898305,-0.124264,0.0755451,13,32765
1.01629,-0.144037,0.0855062,16,32765
1.00593,-0.146012,0.0847358,16,32765
1.02516,-0.152327,0.0863283,16,32765
1.03448,-0.15724,0.0872944,16,32765
0.984707,-0.153086,0.0831685,16,32765
0.98418,-0.156395,0.0832544,15,32765
0.993493,-0.161274,0.0840322,16,32765
1.04211,-0.172735,0.0881738,16,32765
1.04154,-0.176133,0.088186,16,32765
1.03111,-0.177965,0.0873879,16,32765
1.0305,-0.181461,0.0874249,16,32765
1.0495,-0.188414,0.089168,16,32765
1.02926,-0.188314,0.0875604,16,32765
1.03843,-0.193464,0.0884583,16,32765
1.04758,-0.198751,0.0893062,16,32765
1.03712,-0.200329,0.0885665,15,32765
1.05601,-0.207582,0.0902702,15,32765
1.06508,-0.213074,0.0911821,16,32765
1.03507,-0.210611,0.0887631,15,32765
1.08313,-0.224174,0.0930925,16,32765
1.06288,-0.223701,0.0914014,16,32765
1.07186,-0.229305,0.0923944,15,32765
1.04187,-0.226493,0.0899864,15,32765
1.06058,-0.234188,0.0917855,16,32765
1.07924,-0.242069,0.0935323,15,32765
1.06871,-0.243432,0.0927912,15,32765
1.0873,-0.251393,0.0947152,16,32765
1.08646,-0.254972,0.0948136,15,32765
1.07592,-0.25619,0.0941781,16,32765
1.09443,-0.264425,0.0959549,16,32765
1.08386,-0.265659,0.0952665,16,32765
1.08297,-0.269192,0.0954126,17,32765
1.09173,-0.27518,0.0964393,17,32765
1.11011,-0.283656,0.0984327,16,32765
1.08022,-0.279806,0.0961146,15,32765
1.08891,-0.285893,0.0971141,15,32765
1.06869,-0.284334,0.0957091,16,32765
1.07736,-0.290404,0.0967723,16,32765
1.09563,-0.299093,0.0986925,16,32765
1.12342,-0.310615,0.10167,16,32765
1.13199,-0.316938,0.102698,15,32765
1.17884,-0.334177,0.107504,14,32765
1.15855,-0.332569,0.106062,14,32765
1.21484,-0.352954,0.111725,14,32765
1.17544,-0.345646,0.108511,14,32765
1.2411,-0.369383,0.115045,15,32765
1.21126,-0.364748,0.112748,13,32765
1.26721,-0.386026,0.118598,14,32765
1.2945,-0.398801,0.121802,14,32765
1.27416,-0.397017,0.12038,14,32765
1.30133,-0.410074,0.123642,14,32765
1.29997,-0.41419,0.124204,14,32765
1.31757,-0.424365,0.126636,14,32765
1.33512,-0.434599,0.129159,14,32765
1.35259,-0.444994,0.131862,14,32765
0.807123,0.00915229,0.0675924,15,32765
0.807183,0.00642789,0.0671935,15,32765
0.857061,0.00396878,0.0709261,15,32765
0.837159,0.00113641,0.069018,16,32765
0.867092,-0.00167947,0.0710485,15,32765
0.8372,-0.00442283,0.0683802,15,32765
0.82724,-0.00711322,0.0672615,16,32765
0.837195,-0.00997508,0.0678552,16,32765
0.817249,-0.0123916,0.0659644,16,32765
0.827186,-0.015278,0.0665619,16,32765
0.817183,-0.017799,0.0655362,16,32765
0.827095,-0.0207734,0.0661995,16,32765
0.85693,-0.0243643,0.0683898,16,32765
0.876789,-0.0277968,0.0697718,16,32765
0.846822,-0.0296222,0.0671974,16,32765
0.836772,-0.0319978,0.066243,16,32765
0.856594,-0.0355971,0.0676788,16,32765
0.836567,-0.0375451,0.0659256,16,32765
0.866318,-0.0417524,0.0681966,15,32765
0.866184,-0.0446593,0.0680449,15,32765
0.875996,-0.048043,0.0687192,16,32765
0.865886,-0.0503421,0.0678714,16,32765
0.87568,-0.0538021,0.0684772,16,32765
0.875507,-0.056638,0.0684085,16,32765
0.855431,-0.0581633,0.0667387,16,32765
0.90497,-0.0645008,0.0704878,16,32765
0.914691,-0.0682452,0.0712888,16,32765
0.904522,-0.0705155,0.0704769,16,32765
0.914232,-0.0742923,0.0711401,16,32765
0.884181,-0.0748117,0.0687519,16,32765
0.844208,-0.0742334,0.06559,16,32765
0.903534,-0.082479,0.0701624,16,32765
0.93303,-0.0883308,0.0724774,16,32765
0.893046,-0.0875247,0.0693466,16,32765
0.912589,-0.0925246,0.0708494,16,32765
0.932111,-0.0976267,0.0723772,15,32765
0.882218,-0.0953613,0.0685385,16,32765
0.961161,-0.107154,0.0747476,16,32765
0.921182,-0.10577,0.071673,16,32765
0,-0,0,0,32765
0,-0,0,0,32765
0,-0,0,0,32765
0,-0,0,0,32765
0,-0,0,0,32765
0.948528,-0.128103,0.074056,11,32765
0.948099,-0.131233,0.0740636,15,32765
0.987154,-0.139951,0.0770743,16,32765
1.00641,-0.146114,0.0786649,16,32765
0.976325,-0.145033,0.0765199,15,32765
0.956111,-0.145311,0.0750759,16,32765
0.975325,-0.151586,0.0765671,16,32765
0.974794,-0.154905,0.0766867,16,32765
0.954566,-0.155059,0.0752363,16,32765
0.993374,-0.164774,0.0784681,16,32765
0.973154,-0.164777,0.0769368,15,32765
0.952952,-0.164611,0.0754038,16,32765
0.991673,-0.174659,0.0786084,16,32765
0.981258,-0.176212,0.0779878,16,32765
1.00029,-0.183014,0.0795288,16,32765
1.02907,-0.19184,0.0819202,16,32765
1.02842,-0.195247,0.082095,15,32765
0.998397,-0.19298,0.0797634,16,32765
1.00752,-0.198254,0.0805885,16,32765
0.997083,-0.199603,0.0798956,15,32765
0.996406,-0.20295,0.0799116,15,32765
0.985961,-0.204236,0.0791749,16,32765
1.00477,-0.211657,0.0808281,16,32765
1.03329,-0.221325,0.0832152,16,32765
1.03254,-0.224757,0.0832908,16,32765
1.01231,-0.22392,0.0817675,15,32765
1.03103,-0.231581,0.0833575,15,32765
1.0497,-0.239378,0.0850652,15,32765
1.01977,-0.236086,0.0826275,15,32765
1.01899,-0.239406,0.0827818,15,32765
1.01819,-0.242765,0.0827517,16,32765
1.02709,-0.248426,0.0835526,16,32765
1.07466,-0.263698,0.087586,17,32765
1.05443,-0.262454,0.0860028,16,32765
1.03422,-0.261041,0.084499,17,32765
1.02371,-0.261957,0.0836303,16,32765
1.04215,-0.270313,0.0852086,16,32765
1.03163,-0.271134,0.0844572,15,32765
1.03074,-0.274504,0.0844348,15,32765
1.05872,-0.285577,0.0868939,16,32765
1.02894,-0.281146,0.0844688,17,32765
1.10488,-0.305757,0.0907975,15,32765
1.11349,-0.312038,0.091539,14,32765
1.0837,-0.307523,0.0890347,14,32765
1.14019,-0.327508,0.0938751,14,32765
1.22528,-0.356238,0.100891,14,32765
1.13808,-0.334785,0.0938026,14,32765
1.18479,-0.352606,0.0976297,14,32765
1.16458,-0.350646,0.0959292,14,32765
1.17301,-0.357232,0.0966213,14,32765
1.23856,-0.381509,0.10212,14,32765
1.2564,-0.391342,0.103447,14,32765
1.18862,-0.374299,0.0978495,13,32765
1.27296,-0.405248,0.104631,14,32765
1.27172,-0.409179,0.104397,13,32765
1.36524,-0.444056,0.111907,14,32765
1.2976,-0.426439,0.106166,13,32765
0.83764,0.00956464,0.0621966,17,32765
0.857643,0.00689177,0.0632536,17,32765
0.827772,0.00388745,0.0606461,17,32765
0.847746,0.00120087,0.0618454,17,32765
0.85775,-0.00161646,0.0621432,17,32765
0.877704,-0.00459668,0.0633595,17,32765
0.867733,-0.00742752,0.0623199,17,32765
0.897641,-0.0106662,0.0642365,18,32765
0.877676,-0.0132851,0.0625135,18,32765
0.877643,-0.016193,0.062294,18,32765
0.857656,-0.0186696,0.0606433,18,32765
0.887515,-0.0222855,0.0626129,18,32765
0.887451,-0.0252326,0.0624032,17,32765
0.857467,-0.0271903,0.0600959,17,32765
0.887296,-0.0310501,0.0619871,17,32765
0.89717,-0.0343255,0.0625079,18,32765
0.877127,-0.0364739,0.0609741,17,32765
0.88698,-0.0398373,0.0614769,17,32765
0.886849,-0.0427774,0.0613915,17,32765
0.896674,-0.0462732,0.0619242,17,32765
0.896525,-0.0492167,0.0618139,17,32765
0.886403,-0.051588,0.0610586,16,32765
0.88624,-0.0545099,0.0608822,16,32765
0.886064,-0.0573855,0.0608128,17,32765
0.895832,-0.0609815,0.0613756,17,32765
0.895636,-0.0639127,0.0612459,16,32765
0.86557,-0.0646605,0.0592295,16,32765
0.905138,-0.0706535,0.0619156,16,32765
0.914852,-0.0744397,0.0624847,16,32765
0.904662,-0.0766466,0.0617357,15,32765
0.904409,-0.0796351,0.0616587,15,32765
0.894207,-0.0817404,0.0609243,16,32765
0.923725,-0.0875727,0.0629571,16,32765
0.923433,-0.0906317,0.062909,16,32765
0.933053,-0.0947359,0.0635464,16,32765
0.912888,-0.0957531,0.0621822,16,32765
0.942321,-0.102009,0.064222,15,32765
1.00146,-0.111814,0.0683286,14,32765
0.872235,-0.100301,0.0595413,11,32765
0,-0,0,0,32765
0,-0,0,0,32765
0,-0,0,0,32765
0,-0,0,0,32765
0.910012,-0.119996,0.062289,13,32765
0.978812,-0.132402,0.0670579,16,32765
0.968486,-0.134269,0.0663885,15,32765
0.948287,-0.134657,0.0649614,15,32765
0.967574,-0.140702,0.0663622,15,32765
0.976961,-0.145364,0.0672083,16,32765
0.966596,-0.147144,0.0666326,15,32765
0.946383,-0.147329,0.0652178,16,32765
0.995131,-0.158397,0.0687369,16,32765
0.974878,-0.158621,0.0674769,16,32765
1.00386,-0.16679,0.0696524,16,32765
1.01313,-0.171832,0.0703589,16,32765
1.00272,-0.173498,0.0696985,16,32765
1.01196,-0.178532,0.0704791,16,32765
0.991705,-0.17839,0.0692701,15,32765
1.00093,-0.183443,0.0699374,15,32765
1.01011,-0.188627,0.0706746,15,32765
0.999667,-0.190115,0.0701586,15,32765
1.02841,-0.199124,0.0722367,16,32765
1.02773,-0.202581,0.0722809,16,32765
1.04662,-0.209882,0.0737519,16,32765
1.04591,-0.213403,0.073769,16,32765
1.01588,-0.210802,0.0717491,16,32765
1.02492,-0.21628,0.0725263,15,32765
1.03393,-0.221852,0.0732503,15,32765
1.05268,-0.229544,0.0747096,16,32765
1.02267,-0.226613,0.0726833,16,32765
1.0122,-0.227755,0.0720087,15,32765
1.04061,-0.23773,0.0742199,16,32765
1.03983,-0.24116,0.0741439,15,32765
1.02931,-0.242267,0.0736071,15,32765
1.01881,-0.243349,0.0728829,16,32765
1.04709,-0.253722,0.0749786,16,32765
1.02687,-0.252426,0.0736786,16,32765
1.05506,-0.263087,0.0757591,15,32765
1.04451,-0.264117,0.0751393,15,32765
1.04364,-0.267544,0.0750591,16,32765
1.07172,-0.278494,0.0771448,15,32765
1.08046,-0.284491,0.0778794,16,32765
1.08917,-0.290599,0.0785515,15,32765
1.07859,-0.291475,0.0779502,15,32765
1.11613,-0.305533,0.0806746,17,32765
1.07667,-0.298504,0.077906,15,32765
1.09491,-0.307403,0.0792503,14,32765
1.12269,-0.319183,0.0811944,14,32765
1.12165,-0.322787,0.0813058,13,32765
1.16849,-0.340366,0.0847008,13,32765
1.14827,-0.33842,0.0833182,14,32765
1.16632,-0.347764,0.0845949,14,32765
1.18431,-0.357263,0.0858542,14,32765
1.2118,-0.369749,0.0878344,14,32765
1.24875,-0.385382,0.0906009,14,32765
1.28564,-0.401213,0.0931179,14,32765
1.26536,-0.399226,0.0916205,14,32765
1.28312,-0.409269,0.0927326,14,32765
1.28186,-0.41324,0.0924971,14,32765
1.29005,-0.420411,0.0929176,14,32765
1.29825,-0.427481,0.0933,14,32765
0.818499,0.0107049,0.0484301,16,32765
0.818515,0.00802683,0.0486744,16,32765
0.798562,0.00519175,0.0476678,16,32765
0.838494,0.00267286,0.0502033,16,32765
0.838483,-0.00014709,0.0504555,16,32765
0.818506,-0.00287765,0.0493849,17,32765
0.818486,-0.00558945,0.0494998,16,32765
0.818458,-0.00825171,0.049581,17,32765
0.818416,-0.0109545,0.0497451,16,32765
0.828351,-0.0137802,0.050437,17,32765
0.838273,-0.0167642,0.0511674,17,32765
0.838206,-0.0195684,0.0512687,18,32765
0.838135,-0.0223491,0.0512851,17,32765
0.838052,-0.025111,0.0513702,17,32765
0.837961,-0.0278799,0.051418,17,32765
0.827884,-0.0303013,0.0508908,17,32765
0.837749,-0.0334699,0.0515388,17,32765
0.857572,-0.0371192,0.0528504,17,32765
0.837498,-0.0390356,0.051696,17,32765
0.847332,-0.0422871,0.0523517,17,32765
0.867123,-0.0461176,0.0535746,17,32765
0.856995,-0.0483968,0.0530807,17,32765
0.82694,-0.0494138,0.0512658,16,32765
0.856659,-0.0540143,0.0530755,16,32765
0.896304,-0.0595105,0.0556493,17,32765
0.856276,-0.059708,0.0531625,16,32765
0.875982,-0.0640473,0.0543506,16,32765
0.865807,-0.0662154,0.0537987,16,32765
0.845679,-0.0675682,0.0525475,16,32765
0.825548,-0.0687408,0.0514353,16,32765
0.894922,-0.0775318,0.0557087,15,32765
0.894658,-0.080517,0.0557108,15,32765
0.914254,-0.0853747,0.0570124,14,32765
0.884152,-0.0855635,0.0552573,15,32765
0.923582,-0.0924722,0.0578311,16,32765
0.933197,-0.0965897,0.0584201,15,32765
0.962645,-0.102892,0.0602301,15,32765
0.932536,-0.102818,0.0583578,13,32765
0,-0,0,0,32765
0,-0,0,0,32765
0,-0,0,0,32765
0,-0,0,0,32765
0,-0,0,0,32765
0.900598,-0.117573,0.0565695,13,32765
0.870518,-0.116595,0.0548106,16,32765
0.919556,-0.126298,0.058017,15,32765
0.948779,-0.133548,0.0598539,16,32765
0.958211,-0.138133,0.0604257,16,32765
0.947857,-0.139946,0.0598592,16,32765
0.957253,-0.144556,0.0605829,16,32765
0.956769,-0.147719,0.0606049,16,32765
0.966133,-0.152461,0.0611776,16,32765
0.955774,-0.154064,0.0604948,16,32765
0.974944,-0.160534,0.0617563,16,32765
0.944866,-0.158835,0.06,16,32765
0.973835,-0.1671,0.0618302,16,32765
0.953602,-0.166914,0.0606888,15,32765
0.972697,-0.173555,0.0619666,16,32765
0.962301,-0.174983,0.0612978,16,32765
0.961712,-0.178145,0.0614327,16,32765
0.980719,-0.185065,0.0627814,16,32765
0.960483,-0.184626,0.0615286,15,32765
0.959866,-0.187787,0.0615969,16,32765
0.988593,-0.196836,0.0635484,15,32765
0.968376,-0.196113,0.0623452,16,32765
1.0166,-0.209361,0.065591,17,32765
1.00612,-0.210698,0.0651037,16,32765
0.995647,-0.211927,0.0646113,15,32765
0.994931,-0.215235,0.0646937,16,32765
0.994216,-0.218483,0.0648028,15,32765
1.01296,-0.226116,0.0661926,15,32765
1.00246,-0.227268,0.0657469,16,32765
1.01141,-0.232838,0.0665455,16,32765
1.00092,-0.233899,0.0659773,16,32765
1.01955,-0.241803,0.0674759,16,32765
1.01874,-0.245126,0.0676508,16,32765
1.01791,-0.248489,0.0678469,15,32765
1.01709,-0.251805,0.0679996,15,32765
1.01625,-0.255141,0.0681278,15,32765
1.04441,-0.26581,0.0704197,15,32765
1.02418,-0.264265,0.069387,16,32765
1.004,-0.262543,0.0681788,16,32765
1.04171,-0.276001,0.0710882,15,32765
1.05044,-0.281972,0.0718574,15,32765
1.03988,-0.282739,0.071536,16,32765
1.05816,-0.291468,0.0731607,15,32765
1.09561,-0.305697,0.0760498,14,32765
1.06578,-0.301102,0.0744722,14,32765
1.09355,-0.312807,0.0767539,14,32765
1.1692,-0.338478,0.0825053,14,32765
1.13937,-0.333786,0.0807828,14,32765
1.1765,-0.348856,0.08401,14,32765
1.17534,-0.352633,0.0843706,14,32765
1.20282,-0.365085,0.0868452,14,32765
1.23978,-0.380571,0.0900601,14,32765
1.24807,-0.387423,0.0912172,14,32765
1.26582,-0.397378,0.0932496,13,32765
1.25501,-0.398374,0.0930272,14,32765
1.29167,-0.414558,0.0965468,14,32765
1.33776,-0.434007,0.100695,14,32765
1.26999,-0.416422,0.0965821,14,32765
0.818918,0.0107643,0.0407063,16,32765
0.848898,0.00837528,0.0424489,17,32765
0.848912,0.00556405,0.0426408,17,32765
0.848918,0.00274546,0.0427948,17,32765
0.838922,-0.000113774,0.0425436,17,32765
0.848897,-0.00295634,0.0431857,17,32765
0.858863,-0.00584236,0.0438142,17,32765
0.858835,-0.00864155,0.0438994,17,32765
0.828835,-0.0110827,0.0425343,17,32765
0.868732,-0.0144458,0.0446735,17,32765
0.848703,-0.0169724,0.0437708,16,32765
0.85862,-0.0200503,0.0443895,17,32765
0.86853,-0.0231708,0.0449226,17,32765
0.868445,-0.0260387,0.0450108,17,32765
0.868351,-0.0289137,0.0450604,17,32765
0.858265,-0.0314415,0.0446305,17,32765
0.868132,-0.0347181,0.0451856,17,32765
0.877984,-0.0380433,0.0457915,17,32765
0.877849,-0.0409628,0.0458698,17,32765
0.867733,-0.0433568,0.0453899,17,32765
0.887531,-0.0472617,0.0464242,17,32765
0.907305,-0.051304,0.0475965,18,32765
0.897161,-0.0536811,0.0471134,17,32765
0.877049,-0.0553754,0.0460222,17,32765
0.876854,-0.0583005,0.0461251,17,32765
0.886618,-0.0619121,0.0466354,17,32765
0.936205,-0.0685503,0.0492039,18,32765
0.906095,-0.0693994,0.0477024,18,32765
0.8959,-0.0716886,0.0471629,17,32765
0.915551,-0.0763515,0.0483489,17,32765
0.895395,-0.0776929,0.0472334,16,32765
0.905076,-0.0815823,0.0477604,16,32765
0.904794,-0.0846251,0.0478234,16,32765
0.914437,-0.0886359,0.0484565,15,32765
0.904197,-0.0906773,0.0480183,15,32765
0.784695,-0.0813514,0.0416588,11,32765
0,-0,0,11,32765
0,-0,0,0,32765
0,-0,0,0,32765
0,-0,0,0,32765
0,-0,0,0,32765
0,-0,0,0,32765
0.911364,-0.116066,0.0484219,15,32765
0.95057,-0.124311,0.050639,16,32765
0.950144,-0.12748,0.0507549,16,32765
0.949706,-0.130666,0.0508502,16,32765
0.96904,-0.136639,0.0518744,16,32765
0.958698,-0.138446,0.0512935,15,32765
0.948337,-0.140264,0.0508214,16,32765
0.928117,-0.140405,0.0498599,16,32765
0.976988,-0.151109,0.0525347,16,32765
0.937027,-0.148132,0.0503618,16,32765
0.956251,-0.154418,0.0513636,16,32765
0.965576,-0.159278,0.0519074,16,32765
0.965029,-0.162518,0.0520252,15,32765
0.974316,-0.167486,0.0525115,16,32765
0.924564,-0.162126,0.0499639,15,32765
0.973174,-0.173958,0.0526484,16,32765
0.96277,-0.17539,0.0520738,15,32765
0.991635,-0.184025,0.0538073,16,32765
0.951759,-0.179932,0.0517688,16,32765
0.990363,-0.190722,0.0539066,16,32765
0.979926,-0.192067,0.0534429,16,32765
0.949896,-0.189483,0.0519032,16,32765
0.949265,-0.192602,0.0519576,16,32765
1.0073,-0.207834,0.0552678,16,32765
0.957728,-0.200941,0.0527217,15,32765
1.00588,-0.214508,0.055553,16,32765
0.995399,-0.215743,0.0550963,16,32765
1.02394,-0.22544,0.0568294,15,32765
1.04267,-0.233188,0.0580349,15,32765
1.01266,-0.230017,0.0566008,15,32765
1.04107,-0.240122,0.0583988,16,32765
1.0111,-0.23673,0.0568342,16,32765
1.02002,-0.242377,0.0575985,16,32765
1.03862,-0.250388,0.0588744,16,32765
1.03778,-0.253825,0.0590746,16,32765
1.00786,-0.250001,0.05757,16,32765
1.04576,-0.263056,0.0599164,16,32765
1.02553,-0.261509,0.0591464,16,32765
1.02465,-0.264896,0.0594182,15,32765
1.03343,-0.270762,0.060083,15,32765
1.04218,-0.276661,0.0609323,16,32765
1.05091,-0.282647,0.0616079,15,32765
1.04997,-0.28604,0.0619493,15,32765
1.07788,-0.297479,0.0639603,15,32765
1.13456,-0.317182,0.067624,14,32765
1.11429,-0.315421,0.0669213,14,32765
1.10364,-0.316309,0.0666163,14,32765
1.12178,-0.325387,0.0681255,13,32765
1.16861,-0.343024,0.0713515,14,32765
1.19615,-0.355383,0.073627,14,32765
1.12806,-0.339114,0.0698504,14,32765
1.1938,-0.363062,0.0744083,14,32765
1.24987,-0.384424,0.078442,14,32765
1.23909,-0.385394,0.0783047,14,32765
1.22829,-0.386359,0.0783237,14,32765
1.27458,-0.405388,0.0818463,14,32765
1.25424,-0.40334,0.0813056,14,32765
1.32886,-0.431974,0.0868281,14,32765
1.31796,-0.433008,0.0871284,15,32765
0.768862,0.00981527,0.0406872,16,32765
0.798866,0.00756658,0.0418946,17,32765
0.798906,0.00484852,0.0415466,17,32765
0.80892,0.00216857,0.0417679,17,32765
0.808936,-0.000488077,0.0414946,18,32765
0.82892,-0.0031888,0.0422004,17,32765
0.828918,-0.00591,0.0419576,17,32765
0.81892,-0.00853935,0.0412014,17,32765
0.828884,-0.011412,0.0414936,18,32765
0.828855,-0.0141658,0.0412243,17,32765
0.828814,-0.0169001,0.0410161,17,32765
0.818771,-0.0194285,0.0404595,17,32765
0.78876,-0.021353,0.0387601,16,32765
0.808657,-0.0245928,0.0396117,17,32765
0.828544,-0.0279644,0.0404152,16,32765
0.828457,-0.0307026,0.0402084,17,32765
0.828357,-0.0334207,0.0400888,16,32765
0.848204,-0.0370425,0.0409507,17,32765
0.828131,-0.0388855,0.0398404,16,32765
0.828002,-0.0416536,0.0397229,16,32765
0.807919,-0.0433046,0.0386259,16,32765
0.85764,-0.048803,0.0408978,16,32765
0.857474,-0.0516219,0.0409002,17,32765
0.847342,-0.0537643,0.0402618,17,32765
0.857128,-0.057249,0.0406636,17,32765
0.846973,-0.059399,0.0400967,17,32765
0.82685,-0.0607694,0.0390771,17,32765
0.866485,-0.0665842,0.0408609,17,32765
0.866262,-0.0694525,0.0408225,17,32765
0.856075,-0.0714863,0.0403181,17,32765
0.855837,-0.0743042,0.0402823,17,32765
0.865533,-0.0780478,0.0407644,17,32765
0.86527,-0.0809524,0.0406833,16,32765
0.845107,-0.0819213,0.0397935,14,32765
0,-0,0,0,32765
0,-0,0,0,32765
0,-0,0,0,32765
0,-0,0,0,32765
0,-0,0,0,32765
0,-0,0,0,32765
0,-0,0,0,32765
0.842622,-0.104448,0.0397317,13,32765
0.891811,-0.113541,0.0422056,16,32765
0.90134,-0.117792,0.0425637,16,32765
0.920737,-0.123464,0.0435937,16,32765
0.88073,-0.121133,0.0417382,16,32765
0.949547,-0.133828,0.0452787,16,32765
0.919447,-0.132689,0.0437116,16,32765
0.918996,-0.135764,0.0437505,16,32765
0.888901,-0.134349,0.0424839,15,32765
0.937798,-0.144975,0.0449039,16,32765
0.937307,-0.148113,0.0449224,16,32765
0.907218,-0.14646,0.0436551,16,32765
0.955996,-0.157641,0.0460532,16,32765
0.906206,-0.152575,0.0437185,16,32765
0.945065,-0.162396,0.0456095,16,32765
0.934675,-0.163823,0.0452156,16,32765
0.963613,-0.172216,0.0468089,16,32765
0.923725,-0.168271,0.0449203,15,32765
0.952624,-0.176792,0.0463949,16,32765
0.942209,-0.178105,0.0460447,16,32765
0.961222,-0.185003,0.0471771,15,32765
0.960604,-0.188177,0.0472183,15,32765
0.940378,-0.187476,0.0462778,16,32765
0.969118,-0.196559,0.0476987,16,32765
0.968458,-0.199745,0.0478671,16,32765
0.958011,-0.200929,0.0473616,16,32765
0.976867,-0.208278,0.0484875,16,32765
0.94687,-0.205234,0.0470689,16,32765
0.965678,-0.212731,0.0480782,16,32765
0.935709,-0.209435,0.0467586,15,32765
0.98371,-0.223607,0.0491449,16,32765
0.963496,-0.222364,0.0482611,16,32765
1.00166,-0.234633,0.0503023,17,32765
1.00088,-0.237938,0.0503073,16,32765
0.980669,-0.236545,0.0493426,16,32765
0.989584,-0.24214,0.0499115,15,32765
0.97908,-0.243012,0.0494675,16,32765
1.01702,-0.255966,0.0515051,16,32765
1.02585,-0.261756,0.052039,16,32765
0.986313,-0.255104,0.0500775,16,32765
1.03378,-0.270987,0.0525561,16,32765
1.01358,-0.269256,0.0516279,15,32765
1.0127,-0.272556,0.051558,16,32765
1.02144,-0.278464,0.0520499,15,32765
1.05905,-0.292378,0.0540673,14,32765
1.1062,-0.309223,0.0565239,14,32765
1.08597,-0.307371,0.0555773,13,32765
1.13297,-0.324707,0.0579038,14,32765
1.14148,-0.331236,0.0583642,14,32765
1.11166,-0.326449,0.0568996,13,32765
1.1585,-0.344164,0.0593755,14,32765
1.15743,-0.347777,0.0591747,14,32765
1.17544,-0.357259,0.0601082,14,32765
1.19337,-0.366943,0.0609991,14,32765
1.18265,-0.367801,0.0604278,13,32765
1.20057,-0.377443,0.0613546,14,32765
1.20892,-0.384206,0.0617212,14,32765
1.24577,-0.400185,0.0633529,13,32765
1.22548,-0.398066,0.0619837,14,32765
1.22424,-0.40188,0.0618832,14,32765
0.80917,0.0103793,0.0351687,17,32765
0.849177,0.00808895,0.0365038,17,32765
0.859206,0.0052546,0.0365589,17,32765
0.82926,0.00225582,0.0349781,17,32765
0.849257,-0.000484851,0.035534,17,32765
0.859256,-0.00328361,0.0356216,17,32765
0.849259,-0.00603934,0.0349586,17,32765
0.849245,-0.00884587,0.0346986,17,32765
0.829238,-0.0114133,0.0336718,17,32765
0.849187,-0.0145157,0.0342073,17,32765
0.859133,-0.0175268,0.034394,17,32765
0.849083,-0.0201621,0.0339293,17,32765
0.819055,-0.0221928,0.0325042,17,32765
0.838956,-0.0255403,0.0331625,16,32765
0.8189,-0.0276702,0.0322004,17,32765
0.838783,-0.0311233,0.0327764,17,32765
0.868634,-0.0350911,0.0338216,17,32765
0.868516,-0.0379811,0.033715,17,32765
0.878374,-0.041303,0.033947,17,32765
0.878236,-0.0442453,0.0338224,17,32765
0.868113,-0.0466009,0.0332878,17,32765
0.867959,-0.0494663,0.0331741,17,32765
0.867791,-0.052325,0.0331766,17,32765
0.877596,-0.055773,0.0333894,17,32765
0.887378,-0.0593659,0.0336945,16,32765
0.877211,-0.0616212,0.0332185,17,32765
0.867037,-0.0638296,0.0327613,16,32765
0.88675,-0.0682568,0.0334127,16,32765
0.856637,-0.0687985,0.0322486,16,32765
0.826531,-0.0691386,0.0310897,14,32765
0.886032,-0.07706,0.0333002,15,32765
0.895722,-0.0809122,0.0336887,14,32765
0,-0,0,11,32765
0,-0,0,0,32765
0,-0,0,0,32765
0,-0,0,0,32765
0,-0,0,0,32765
0,-0,0,0,32765
0,-0,0,0,32765
0,-0,0,0,32765
0.882954,-0.106715,0.0332303,16,32765
0.912351,-0.113302,0.0343351,16,32765
0.911965,-0.116324,0.0344752,16,32765
0.921486,-0.120651,0.0347366,16,32765
0.921073,-0.123742,0.0348314,16,32765
0.890949,-0.12277,0.0337277,16,32765
0.900419,-0.127145,0.034347,16,32765
0.929668,-0.13442,0.0353257,16,32765
0.939096,-0.138999,0.0357415,16,32765
0.91886,-0.139143,0.0351388,16,32765
0.928258,-0.143776,0.035576,16,32765
0.93764,-0.148451,0.0359732,17,32765
0.937133,-0.151582,0.0361297,16,32765
0.936615,-0.154745,0.0361549,16,32765
0.945938,-0.159574,0.0365766,16,32765
0.955241,-0.164465,0.036948,16,32765
0.954683,-0.167657,0.0370312,16,32765
0.95411,-0.170852,0.0371951,16,32765
0.904381,-0.165071,0.0352997,16,32765
0.923476,-0.17172,0.036107,16,32765
0.932712,-0.176658,0.0366182,16,32765
0.961548,-0.185431,0.037948,16,32765
0.960928,-0.188613,0.0379895,16,32765
0.940693,-0.187911,0.0372376,15,32765
0.969439,-0.197016,0.0383762,16,32765
0.939421,-0.194143,0.037377,16,32765
0.99744,-0.209617,0.0396904,16,32765
0.967413,-0.206676,0.0386812,16,32765
0.937412,-0.203592,0.037545,16,32765
0.926958,-0.204612,0.0371914,16,32765
0.955507,-0.214297,0.0385065,15,32765
1.01325,-0.230787,0.0408138,16,32765
0.983268,-0.227387,0.039728,16,32765
0.972785,-0.228333,0.0394236,16,32765
0.981744,-0.233864,0.0398232,16,32765
0.980967,-0.237099,0.0398356,15,32765
0.999587,-0.245088,0.040706,15,32765
0.989069,-0.245994,0.040357,15,32765
0.978566,-0.246793,0.0400371,16,32765
1.01647,-0.259896,0.0416661,16,32765
1.01562,-0.263225,0.0416688,16,32765
1.02441,-0.269086,0.0420897,15,32765
1.02352,-0.27246,0.0421448,16,32765
1.01298,-0.273198,0.0416777,15,32765
1.041,-0.284386,0.0428697,15,32765
1.04971,-0.290402,0.0433199,14,32765
1.07763,-0.301866,0.0445116,14,32765
1.06703,-0.302642,0.0441505,14,32765
1.12366,-0.322714,0.0464058,14,32765
1.12258,-0.326436,0.0463765,14,32765
1.08318,-0.318756,0.0447981,14,32765
1.19709,-0.35638,0.0495801,14,32765
1.15771,-0.348597,0.0477931,14,32765
1.19483,-0.363924,0.0493283,14,32765
1.165,-0.358981,0.0480605,14,32765
1.19246,-0.371641,0.0491589,14,32765
1.2199,-0.384339,0.0502906,14,32765
1.25678,-0.400274,0.0517377,14,32765
1.20798,-0.38888,0.0494757,14,32765
1.28274,-0.417563,0.0521721,14,32765
1.3194,-0.434055,0.0536102,14,32765
0.759612,0.010917,0.0216942,17,32765
0.809613,0.00897339,0.0233638,17,32765
0.819627,0.00636819,0.0239044,17,32765
0.779655,0.0034595,0.022952,17,32765
0.809647,0.000855813,0.0239105,17,32765
0.789646,-0.0017864,0.0235875,17,32765
0.829614,-0.00459615,0.0248871,17,32765
0.809602,-0.00716625,0.0243527,17,32765
0.779587,-0.00949742,0.023531,16,32765
0.789542,-0.012284,0.0239226,17,32765
0.809482,-0.015272,0.0246138,17,32765
0.799429,-0.0177445,0.0244618,17,32765
0.809356,-0.0206499,0.0248384,17,32765
0.829264,-0.0238947,0.0254856,17,32765
0.819186,-0.0263352,0.0253043,16,32765
0.829082,-0.029407,0.025664,17,32765
0.828978,-0.0321393,0.0257516,17,32765
0.818878,-0.0344631,0.0255064,17,32765
0.818758,-0.0371913,0.0255412,17,32765
0.808643,-0.0394688,0.0252826,17,32765
0.828469,-0.0432103,0.0259109,17,32765
0.818338,-0.0454321,0.0256585,16,32765
0.82816,-0.0487365,0.0259909,17,32765
0.857918,-0.0533707,0.0270011,17,32765
0.837783,-0.0549382,0.0264842,17,32765
0.837597,-0.0577083,0.0264625,16,32765
0.847372,-0.0611784,0.0268051,17,32765
0.857127,-0.0647686,0.0271654,17,32765
0.836978,-0.0660499,0.0265464,17,32765
0.876596,-0.0721563,0.0278151,14,32765
0.836513,-0.0716914,0.0265825,13,32765
0,-0,0,12,32765
0,-0,0,0,32765
0,-0,0,0,32765
0,-0,0,0,32765
0,-0,0,0,32765
0,-0,0,0,32765
0,-0,0,0,32765
0,-0,0,0,32765
0,-0,0,11,32765
0.853491,-0.102008,0.0273548,15,32765
0.892824,-0.109735,0.0286898,16,32765
0.872619,-0.110209,0.0281168,16,32765
0.86234,-0.11178,0.0278211,16,32765
0.891685,-0.118607,0.0288208,16,32765
0.901183,-0.122957,0.029157,16,32765
0.880969,-0.123219,0.0284754,16,32765
0.880546,-0.126215,0.0284261,16,32765
0.870227,-0.127715,0.0281909,16,32765
0.919215,-0.138058,0.0297396,16,32765
0.889104,-0.136592,0.0289251,16,32765
0.898513,-0.141138,0.0292144,16,32765
0.888162,-0.142609,0.028837,16,32765
0.877811,-0.143973,0.0286396,16,32765
0.897039,-0.150215,0.0292562,16,32765
0.935934,-0.159955,0.0306776,16,32765
0.9354,-0.16305,0.0306843,16,32765
0.895485,-0.159203,0.0293351,15,32765
0.924447,-0.167544,0.0304587,16,32765
0.894387,-0.165217,0.0295795,16,32765
0.942941,-0.177444,0.0312286,16,32765
0.932534,-0.178675,0.0309186,15,32765
0.922127,-0.179838,0.0306626,16,32765
0.93132,-0.18486,0.0311293,16,32765
0.950293,-0.1919,0.0319044,16,32765
0.930072,-0.19101,0.0313347,16,32765
0.929432,-0.194087,0.0314143,16,32765
0.92878,-0.19717,0.0315046,16,32765
0.967197,-0.208668,0.032975,16,32765
0.917678,-0.201192,0.0314344,15,32765
0.98527,-0.219518,0.0339798,15,32765
1.00402,-0.227222,0.03475,16,32765
0.944814,-0.217141,0.0328195,16,32765
0.953819,-0.222521,0.0333698,16,32765
0.972525,-0.230268,0.0342227,16,32765
0.95234,-0.22872,0.0336891,15,32765
0.941873,-0.229455,0.0335355,15,32765
0.979924,-0.242115,0.0350713,16,32765
0.94034,-0.23561,0.0338865,15,32765
1.00735,-0.255943,0.0365821,16,32765
0.948439,-0.244259,0.0346438,15,32765
0.986296,-0.257492,0.036311,15,32765
1.00476,-0.265835,0.0373161,16,32765
0.994212,-0.266557,0.0372875,16,32765
1.04154,-0.282936,0.039314,15,32765
0.973157,-0.26777,0.0369498,14,32765
1.03003,-0.28702,0.039518,14,32765
1.03871,-0.293043,0.0401389,14,32765
1.08579,-0.310117,0.0423734,14,32765
1.08476,-0.313632,0.0427191,14,32765
1.06454,-0.311547,0.0422275,14,32765
1.10183,-0.326378,0.0442305,14,32765
1.13904,-0.341378,0.046287,14,32765
1.14749,-0.347932,0.0470242,14,32765
1.15591,-0.354537,0.0478179,14,32765
1.19292,-0.370074,0.0498955,14,32765
1.21077,-0.379864,0.0512852,14,32765
1.2286,-0.389726,0.0525201,14,32765
1.21783,-0.390501,0.0528632,14,32765
1.23557,-0.400513,0.0542583,14,32765
1.24379,-0.407435,0.0555811,14,32765
0.819765,0.0118211,0.0156738,17,32765
0.809797,0.00900891,0.015725,17,32765
0.849809,0.00663193,0.0167629,17,32765
0.839824,0.00374949,0.0167958,17,32765
0.829832,0.000893893,0.0166735,17,32765
0.829825,-0.00186629,0.0169545,17,32765
0.83981,-0.00464735,0.0172654,17,32765
0.849786,-0.0075226,0.0175394,17,32765
0.819763,-0.00999333,0.0170048,17,32765
0.829719,-0.0129216,0.0173066,17,32765
0.82967,-0.0156712,0.0173944,17,32765
0.839605,-0.0186607,0.0177635,16,32765
0.829542,-0.021195,0.0176246,17,32765
0.829467,-0.0239365,0.0176585,17,32765
0.859357,-0.0276699,0.0184287,17,32765
0.829285,-0.029462,0.017837,17,32765
0.849162,-0.0329766,0.0183566,17,32765
0.849046,-0.0357936,0.0184242,17,32765
0.848921,-0.0386284,0.0184603,17,32765
0.85877,-0.0419894,0.0187336,17,32765
0.868609,-0.0453849,0.0189558,17,32765
0.878432,-0.0488568,0.0192379,17,32765
0.858304,-0.050603,0.0188209,17,32765
0.878084,-0.0547262,0.0193311,17,32765
0.85794,-0.0563649,0.0190056,16,32765
0.897645,-0.0619616,0.0198664,17,32765
0.887464,-0.0641942,0.0196747,16,32765
0.887242,-0.0671719,0.0197212,16,32765
0.857114,-0.0677685,0.0190696,14,32765
0,-0,0,0,32765
0,-0,0,0,32765
0,-0,0,11,32765
0,-0,0,0,32765
0,-0,0,0,32765
0,-0,0,0,32765
0,-0,0,0,32765
0,-0,0,0,32765
0,-0,0,0,32765
0,-0,0,0,32765
0.903678,-0.105135,0.0203015,17,32765
0.903317,-0.10818,0.0203666,17,32765
0.902949,-0.111203,0.0204301,17,32765
0.912489,-0.115478,0.0207224,17,32765
0.892276,-0.115896,0.0202966,16,32765
0.921612,-0.122837,0.0210152,16,32765
0.911287,-0.124589,0.0208055,16,32765
0.900962,-0.126274,0.0205379,16,32765
0.92032,-0.132186,0.0209379,17,32765
0.909977,-0.133823,0.020801,17,32765
0.899637,-0.135396,0.0205231,16,32765
0.909054,-0.139945,0.020897,17,32765
0.908577,-0.143014,0.0208648,16,32765
0.908085,-0.146111,0.0208074,16,32765
0.907586,-0.149165,0.0209348,16,32765
0.90708,-0.152213,0.0209078,16,32765
0.936122,-0.160321,0.0217253,16,32765
0.886344,-0.154822,0.0205884,16,32765
0.93503,-0.166581,0.0216728,16,32765
0.904953,-0.164355,0.0211418,16,32765
0.91422,-0.169235,0.0214668,16,32765
0.933297,-0.175999,0.0219523,16,32765
0.922891,-0.1772,0.0217367,16,32765
0.93211,-0.182169,0.0220384,16,32765
0.941297,-0.187236,0.0224127,16,32765
0.950466,-0.192342,0.0227662,16,32765
0.949824,-0.19548,0.0228565,16,32765
0.919812,-0.192486,0.0222287,16,32765
0.958278,-0.203866,0.0232681,16,32765
0.947823,-0.204924,0.023172,16,32765
0.927601,-0.203801,0.0228207,16,32765
0.956169,-0.21349,0.0237403,16,32765
0.926198,-0.210058,0.0231036,16,32765
0.954713,-0.219887,0.0239283,16,32765
0.963712,-0.225311,0.024387,16,32765
0.962958,-0.228493,0.0245576,15,32765
0.981653,-0.236268,0.0252096,15,32765
0.942025,-0.229987,0.0244017,15,32765
0.960671,-0.237871,0.0250551,16,32765
0.988967,-0.248329,0.0260295,16,32765
0.988132,-0.251603,0.0262753,15,32765
0.977624,-0.252321,0.0261957,16,32765
1.00579,-0.26315,0.0272323,16,32765
1.00491,-0.266453,0.0275259,14,32765
0.994362,-0.267176,0.0275919,15,32765
1.04169,-0.283593,0.0291483,14,32765
1.06003,-0.292309,0.0298889,14,32765
1.05906,-0.295753,0.0302731,14,32765
1.03886,-0.293724,0.0299747,14,32765
1.11477,-0.319091,0.0325818,14,32765
1.07532,-0.311581,0.0318015,14,32765
1.09347,-0.320712,0.0326416,13,32765
1.11156,-0.329984,0.0337004,14,32765
1.14878,-0.34505,0.0353855,14,32765
1.2146,-0.369087,0.0378188,14,32765
1.21339,-0.372985,0.0382412,14,32765
1.174,-0.365003,0.0375263,14,32765
1.23001,-0.386748,0.0399583,14,32765
1.26687,-0.402749,0.0416385,14,32765
1.24655,-0.400588,0.041781,14,32765
1.27377,-0.413803,0.0433251,14,32765
1.25346,-0.411506,0.0435916,14,32765
0.799721,0.0113093,0.0178541,17,32765
0.789766,0.00849546,0.017256,17,32765
0.809792,0.00600597,0.0173346,17,32765
0.799818,0.00326967,0.0167587,17,32765
0.819826,0.000654346,0.0168729,17,32765
0.789837,-0.00194411,0.0159511,17,32765
0.809826,-0.00466345,0.0161176,17,32765
0.789815,-0.00715714,0.0155342,17,32765
0.809784,-0.010134,0.0157073,17,32765
0.819747,-0.0130579,0.015644,17,32765
0.809707,-0.0156097,0.0152017,17,32765
0.81965,-0.0185069,0.0152333,17,32765
0.839578,-0.0216708,0.0154786,18,32765
0.819518,-0.0238376,0.0149039,17,32765
0.809444,-0.0262393,0.0145741,17,32765
0.83933,-0.0300197,0.0149697,17,32765
0.839226,-0.0328462,0.0148371,17,32765
0.809147,-0.034352,0.0141613,17,32765
0.848984,-0.0388679,0.0146999,17,32765
0.82888,-0.0406839,0.0142629,17,32765
0.838729,-0.0439187,0.0143052,17,32765
0.828595,-0.0461621,0.0141103,16,32765
0.838423,-0.0494751,0.0141075,16,32765
0.868193,-0.0541248,0.0145221,17,32765
0.858033,-0.0563521,0.0142962,17,32765
0.857843,-0.0591852,0.0142593,17,32765
0.84767,-0.0613192,0.0139857,17,32765
0,-0,0,0,32765
0,-0,0,0,32765
0,-0,0,0,32765
0,-0,0,0,32765
0,-0,0,0,32765
0,-0,0,0,32765
0,-0,0,0,32765
0,-0,0,0,32765
0,-0,0,0,32765
0,-0,0,11,32765
0,-0,0,0,32765
0.814724,-0.0919136,0.0132834,15,32765
0.854143,-0.0992229,0.0139352,17,32765
0.883585,-0.105673,0.0145142,17,32765
0.833613,-0.102493,0.0136157,16,32765
0.853098,-0.107822,0.0140644,16,32765
0.862647,-0.111957,0.0143178,16,32765
0.852359,-0.113501,0.0142275,16,32765
0.861877,-0.117736,0.0143587,16,32765
0.881281,-0.123426,0.0144741,16,32765
0.861075,-0.123486,0.0141746,16,32765
0.910111,-0.133676,0.0151223,16,32765
0.870103,-0.130813,0.0144434,16,32765
0.889415,-0.136819,0.014861,17,32765
0.849437,-0.133613,0.0143026,16,32765
0.898345,-0.144374,0.0152651,16,32765
0.907722,-0.148999,0.015508,16,32765
0.917079,-0.15368,0.0157853,16,32765
0.896842,-0.153409,0.0154736,16,32765
0.847065,-0.14785,0.0148842,16,32765
0.876079,-0.156006,0.0157127,16,32765
0.905066,-0.164301,0.0161522,16,32765
0.875014,-0.161877,0.0157238,16,32765
0.923596,-0.174053,0.0166291,16,32765
0.903372,-0.173346,0.0164476,16,32765
0.892977,-0.174435,0.0162838,16,32765
0.911999,-0.181325,0.0167248,16,32765
0.930982,-0.188348,0.0172506,16,32765
0.861791,-0.177362,0.0160956,15,32765
0.870974,-0.182316,0.0162993,16,32765
0.880137,-0.18731,0.0165602,16,32765
0.908822,-0.196591,0.0171704,16,32765
0.917927,-0.201756,0.0174356,16,32765
0.966037,-0.215713,0.0184669,17,32765
0.897064,-0.203421,0.0171952,16,32765
0.92561,-0.213144,0.0177728,16,32765
0.973573,-0.227605,0.0187632,16,32765
0.943629,-0.223898,0.018307,15,32765
0.933165,-0.224661,0.0181517,15,32765
0.951833,-0.232528,0.0185787,16,32765
0.970478,-0.240447,0.0189065,16,32765
0.940577,-0.236384,0.0183976,16,32765
0.988239,-0.251803,0.0194639,16,32765
0.968043,-0.250054,0.0191326,16,32765
0.976883,-0.255782,0.0193557,14,32765
0.995385,-0.264045,0.0197123,15,32765
0.984867,-0.264675,0.0195873,14,32765
1.03225,-0.280936,0.0206323,14,32765
0.963874,-0.265661,0.0192516,14,32765
1.02078,-0.284938,0.0204329,14,32765
1.01985,-0.288265,0.0204216,14,32765
1.01888,-0.291665,0.0203926,14,32765
1.02752,-0.297777,0.0206877,14,32765
1.05534,-0.309543,0.0211228,14,32765
1.09267,-0.32434,0.0219618,14,32765
1.07248,-0.322071,0.0215208,14,32765
1.10971,-0.337123,0.0222215,14,32765
1.09908,-0.337689,0.02193,14,32765
1.12664,-0.350107,0.0224364,14,32765
1.21138,-0.380631,0.0239614,14,32765
1.2197,-0.387486,0.0240056,14,32765
1.16137,-0.372978,0.0226824,14,32765
1.20776,-0.392004,0.0234771,14,32765
1.23505,-0.405067,0.0237475,14,32765
0.819849,0.0116297,0.0105663,17,32765
0.839886,0.00906477,0.0104252,17,32765
0.79992,0.00595539,0.00957486,17,32765
0.829938,0.00340996,0.00955842,17,32765
0.819949,0.000665252,0.00913844,17,32765
0.859948,-0.00211175,0.00925268,17,32765
0.829941,-0.00478073,0.00868673,17,32765
0.819923,-0.00743751,0.00838953,17,32765
0.829894,-0.0103998,0.00826618,17,32765
0.819858,-0.01308,0.00790938,17,32765
0.809814,-0.015638,0.00756135,17,32765
0.849747,-0.0192204,0.00777303,17,32765
0.7997,-0.0206792,0.00719559,17,32765
0.829616,-0.0241766,0.00725668,17,32765
0.859515,-0.0279158,0.00736184,17,32765
0.849425,-0.03044,0.00713033,17,32765
0.839326,-0.0329151,0.00691389,17,32765
0.849204,-0.0361247,0.0068432,17,32765
0.869059,-0.0398673,0.00683966,17,32765
0.868923,-0.0427363,0.00674421,17,32765
0.848808,-0.0445376,0.00645815,16,32765
0.818702,-0.0457051,0.00620601,16,32765
0.868459,-0.0513539,0.00640552,17,32765
0.868284,-0.0542435,0.00631639,17,32765
0.868099,-0.0571328,0.00625672,16,32765
0.798074,-0.0551775,0.00571907,13,32765
0,-0,0,0,32765
0,-0,0,0,32765
0,-0,0,0,32765
0,-0,0,0,32765
0,-0,0,0,32765
0,-0,0,0,32765
0,-0,0,0,32765
0,-0,0,0,32765
0,-0,0,0,32765
0,-0,0,0,32765
0.81539,-0.0866473,0.00555518,12,32765
0.864797,-0.0948241,0.00583203,16,32765
0.864472,-0.0977379,0.00588948,17,32765
0.864144,-0.100603,0.00589351,17,32765
0.883654,-0.105912,0.00612208,17,32765
0.883299,-0.108839,0.00603426,17,32765
0.873003,-0.110579,0.00609408,17,32765
0.882544,-0.11479,0.00625545,17,32765
0.882157,-0.117726,0.00633253,17,32765
0.881753,-0.120715,0.00629769,16,32765
0.891242,-0.125096,0.00615156,17,32765
0.890825,-0.128034,0.00617837,17,32765
0.890383,-0.131066,0.00630878,17,32765
0.909709,-0.137069,0.00642685,17,32765
0.899352,-0.138654,0.00644763,17,32765
0.918631,-0.144817,0.00669998,17,32765
0.888524,-0.143112,0.00661363,17,32765
0.868304,-0.142845,0.00653877,16,32765
0.887544,-0.149061,0.00679286,16,32765
0.906745,-0.155448,0.0069722,17,32765
0.89636,-0.156802,0.0071726,17,32765
0.915503,-0.163389,0.00765375,17,32765
0.924787,-0.168255,0.00764423,17,32765
0.914384,-0.169538,0.00766598,16,32765
0.923638,-0.174449,0.00777063,17,32765
0.942691,-0.181295,0.00811603,17,32765
0.912641,-0.178675,0.0078781,16,32765
0.921842,-0.183692,0.00804709,16,32765
0.911418,-0.184803,0.00812446,16,32765
0.900996,-0.185847,0.00815883,16,32765
0.919936,-0.192997,0.00835843,16,32765
0.929062,-0.198167,0.00852985,16,32765
0.908848,-0.19704,0.00840874,16,32765
0.908186,-0.200065,0.00848883,16,32765
0.917269,-0.205286,0.00867911,16,32765
0.916585,-0.208317,0.00871422,16,32765
0.93537,-0.215879,0.00891714,16,32765
0.924908,-0.216718,0.00887682,15,32765
0.924184,-0.219782,0.00898172,15,32765
0.952615,-0.229866,0.00929991,16,32765
0.951838,-0.233059,0.00934913,16,32765
0.960775,-0.238586,0.00939409,16,32765
0.979362,-0.246693,0.00964508,15,32765
0.978546,-0.249904,0.00976228,16,32765
0.968036,-0.250625,0.00971645,15,32765
0.9672,-0.253828,0.00974836,15,32765
1.0147,-0.269787,0.010209,15,32765
1.00416,-0.270481,0.0101799,14,32765
1.02258,-0.278946,0.0104602,14,32765
1.03132,-0.284906,0.0105263,14,32765
1.04001,-0.290977,0.0106519,14,32765
1.03905,-0.294374,0.0106409,14,32765
1.07651,-0.308878,0.0110049,14,32765
1.07549,-0.312403,0.0111129,14,32765
1.08407,-0.31871,0.0110639,14,32765
1.12136,-0.333634,0.0115289,14,32765
1.10114,-0.331452,0.0112752,14,32765
1.16704,-0.355369,0.0118907,14,32765
1.17546,-0.362003,0.0118819,14,32765
1.14565,-0.356851,0.0115259,14,32765
1.17314,-0.369482,0.0116343,14,32765
1.12432,-0.358026,0.0110288,14,32765
1.21837,-0.392211,0.0117564,14,32765
1.23617,-0.402177,0.0118027,14,32765
1.23493,-0.405987,0.0115192,14,32765
0.779902,0.0122177,-0.00175666,16,32765
0.799938,0.00986374,-0.00155263,17,32765
0.769968,0.006919,-0.00131428,17,32765
0.799986,0.00452487,-0.00114405,17,32765
0.799997,0.00179442,-0.000964634,17,32765
0.789999,-0.000854843,-0.000796149,17,32765
0.769992,-0.00334765,-0.000688441,17,32765
0.779977,-0.00596229,-0.000552387,17,32765
