x, y, z, intensity, ring
1.24192,-0.40061,-0.11514,16,32765
1.2786,-0.416898,-0.117841,15,32765
1.30572,-0.430305,-0.119691,16,32765
1.16384,0.022043,-0.117871,15,32765
1.15391,0.0178945,-0.117356,14,32765
1.1937,0.0144351,-0.121924,15,32765
1.20367,0.0104663,-0.123194,16,32765
1.18375,0.00624846,-0.121603,15,32765
1.10416,0.00205831,-0.113701,14,32765
1.17374,-0.00182112,-0.121365,15,32765
1.15381,-0.00568732,-0.119559,15,32765
1.21344,-0.0100365,-0.125943,16,32765
1.16364,-0.0135373,-0.121049,15,32765
1.11384,-0.0166972,-0.116116,15,32765
1.13366,-0.0207997,-0.118288,14,32765
1.14349,-0.0248113,-0.119637,15,32765
1.16326,-0.0291822,-0.121926,15,32765
1.17308,-0.0334714,-0.12313,15,32765
1.18289,-0.0378363,-0.124245,15,32765
1.11316,-0.0394281,-0.117116,15,32765
1.13288,-0.0440009,-0.11932,15,32765
1.10291,-0.0465333,-0.116287,15,32765
1.1226,-0.0512003,-0.118496,15,32765
1.17208,-0.0573649,-0.123875,15,32765
1.11229,-0.0581961,-0.117614,15,32765
1.1915,-0.0664041,-0.126205,16,32765
1.11185,-0.0657406,-0.117742,16,32765
1.13145,-0.0708311,-0.120005,16,32765
1.15105,-0.0760052,-0.122114,15,32765
1.11109,-0.0771863,-0.118015,15,32765
1.12074,-0.0817068,-0.119035,15,32765
1.1502,-0.0877304,-0.122259,15,32765
1.18955,-0.094747,-0.126491,15,32765
1.17931,-0.0978775,-0.125513,15,32765
1.13935,-0.0984084,-0.121244,15,32765
1.139,-0.102287,-0.121308,15,32765
1.14856,-0.107106,-0.122247,15,32765
1.10857,-0.107274,-0.118147,15,32765
1.14779,-0.115004,-0.122315,16,32765
1.12761,-0.116837,-0.120159,16,32765
1.1371,-0.12172,-0.121212,15,32765
1.14658,-0.126615,-0.12215,15,32765
1.14614,-0.130525,-0.122183,15,32765
1.19508,-0.14023,-0.127364,16,32765
1.14524,-0.138357,-0.121997,16,32765
1.13488,-0.14109,-0.120968,15,32765
1.10482,-0.141181,-0.117669,15,32765
1.15364,-0.151421,-0.122872,16,32765
1.19255,-0.160619,-0.127019,16,32765
1.14275,-0.157853,-0.12169,15,32765
1.15205,-0.163122,-0.122776,15,32765
1.16136,-0.16846,-0.123543,15,32765
1.1706,-0.173909,-0.124689,15,32765
1.14051,-0.173463,-0.121404,15,32765
1.17923,-0.183501,-0.125445,16,32765
1.15895,-0.184494,-0.123254,16,32765
1.17796,-0.191659,-0.125217,16,32765
1.1773,-0.195733,-0.125155,15,32765
1.17663,-0.199725,-0.12509,16,32765
1.15637,-0.200349,-0.122773,15,32765
1.16547,-0.206058,-0.123797,15,32765
1.11584,-0.201183,-0.118427,15,32765
1.17384,-0.215803,-0.12459,16,32765
1.16335,-0.217908,-0.12344,16,32765
1.17239,-0.223701,-0.124366,14,32765
1.11305,-0.216307,-0.118052,15,32765
1.15135,-0.22778,-0.122094,15,32765
1.17008,-0.235664,-0.123957,15,32765
1.11082,-0.22767,-0.117685,15,32765
1.09057,-0.227373,-0.115545,15,32765
1.18711,-0.251716,-0.125713,16,32765
1.12793,-0.243148,-0.119374,15,32765
1.1174,-0.244851,-0.11822,16,32765
1.15541,-0.257282,-0.122218,15,32765
1.17394,-0.265603,-0.124218,16,32765
1.13425,-0.260704,-0.120017,15,32765
1.11401,-0.260011,-0.117844,15,32765
1.15184,-0.273007,-0.121832,15,32765
1.15092,-0.276884,-0.12172,15,32765
1.15,-0.280735,-0.12161,16,32765
1.15871,-0.287029,-0.12251,16,32765
1.1481,-0.288452,-0.121462,15,32765
1.14713,-0.292332,-0.121374,16,32765
1.16544,-0.301109,-0.123258,16,32765
1.13556,-0.297438,-0.120111,15,32765
1.17303,-0.311449,-0.124104,16,32765
1.17201,-0.31532,-0.123998,15,32765
1.17095,-0.319251,-0.123917,16,32765
1.13154,-0.312526,-0.119725,15,32765
1.1784,-0.329706,-0.124786,16,32765
1.12945,-0.320048,-0.11964,15,32765
1.1284,-0.323777,-0.119506,15,32765
1.18465,-0.344137,-0.125578,16,32765
1.12625,-0.331197,-0.119475,15,32765
1.14423,-0.340584,-0.121437,15,32765
1.12404,-0.338651,-0.119365,15,32765
1.18004,-0.35971,-0.125347,16,32765
1.15983,-0.357698,-0.123463,16,32765
1.12071,-0.349561,-0.119271,15,32765
1.11957,-0.353148,-0.119332,15,32765
1.16581,-0.37187,-0.124492,15,32765
1.16463,-0.375597,-0.124365,16,32765
1.14447,-0.373165,-0.122646,15,32765
1.15273,-0.37989,-0.123656,15,32765
1.09311,0.0206779,-0.121137,15,32765
1.08319,0.0167619,-0.120499,15,32765
1.08319,0.0130523,-0.120972,15,32765
1.07326,0.00927623,-0.120089,15,32765
1.10306,0.00575411,-0.123839,15,32765
1.07323,0.00192383,-0.120757,16,32765
1.08311,-0.00176858,-0.122331,15,32765
1.10295,-0.00553676,-0.124816,15,32765
1.08303,-0.00906632,-0.122745,15,32765
1.07303,-0.0126008,-0.121865,15,32765
1.00341,-0.0151613,-0.114183,15,32765
1.09275,-0.0201896,-0.124452,16,32765
1.08271,-0.0236419,-0.123616,16,32765
1.04287,-0.0263159,-0.119266,15,32765
1.03283,-0.0296321,-0.118272,15,32765
1.05257,-0.0338436,-0.120611,15,32765
1.112,-0.0395835,-0.127617,15,32765
1.06221,-0.0414539,-0.122025,15,32765
1.05213,-0.0445966,-0.120986,15,32765
1.09165,-0.050013,-0.125662,15,32765
1.09147,-0.0536541,-0.125788,15,32765
1.05159,-0.0552565,-0.121249,15,32765
1.07122,-0.0599514,-0.123708,16,32765
1.08093,-0.0641754,-0.124805,15,32765
1.10051,-0.0691731,-0.127251,16,32765
1.0507,-0.069656,-0.121522,15,32765
1.06036,-0.0739517,-0.122775,15,32765
1.11955,-0.0819364,-0.129626,15,32765
1.08954,-0.0834225,-0.126244,16,32765
1.08925,-0.0870876,-0.126259,15,32765
1.09885,-0.0915421,-0.127477,15,32765
1.07875,-0.0935204,-0.125132,15,32765
1.06852,-0.096311,-0.124044,15,32765
1.08798,-0.101828,-0.126231,16,32765
1.09749,-0.106587,-0.127492,16,32765
1.06747,-0.107342,-0.123998,16,32765
1.05723,-0.109936,-0.122806,15,32765
1.0766,-0.115653,-0.1251,15,32765
1.05647,-0.117077,-0.122697,16,32765
1.0758,-0.122946,-0.125021,15,32765
1.05565,-0.124302,-0.122651,15,32765
1.05523,-0.127926,-0.122555,15,32765
1.09421,-0.136504,-0.127157,15,32765
1.09375,-0.140249,-0.127015,15,32765
1.10312,-0.145287,-0.128111,16,32765
1.06325,-0.143694,-0.123487,16,32765
1.08245,-0.150032,-0.125698,16,32765
1.05242,-0.14952,-0.122303,16,32765
1.05193,-0.153103,-0.122047,16,32765
1.02191,-0.15233,-0.118711,16,32765
1.06068,-0.161862,-0.123144,15,32765
1.08958,-0.170117,-0.12643,16,32765
1.09879,-0.175502,-0.127474,15,32765
1.07859,-0.176076,-0.125081,16,32765
1.08778,-0.181451,-0.12616,16,32765
1.05778,-0.180146,-0.122692,15,32765
1.08655,-0.188875,-0.125881,16,32765
1.04676,-0.18568,-0.12133,16,32765
1.09502,-0.198081,-0.126833,15,32765
1.11388,-0.205454,-0.129031,15,32765
1.07414,-0.201859,-0.1244,15,32765
1.09298,-0.209233,-0.126557,15,32765
1.07276,-0.209161,-0.124204,15,32765
1.08181,-0.214721,-0.125238,15,32765
1.09082,-0.220418,-0.126174,15,32765
1.08034,-0.222146,-0.124974,16,32765
1.09904,-0.229884,-0.12715,15,32765
1.08854,-0.231567,-0.125887,15,32765
1.07806,-0.233153,-0.124613,15,32765
1.08698,-0.238959,-0.125613,16,32765
1.08617,-0.24265,-0.125505,15,32765
1.07565,-0.244155,-0.124335,16,32765
1.05545,-0.243378,-0.122006,16,32765
1.10301,-0.258279,-0.127481,16,32765
1.0828,-0.257474,-0.12514,15,32765
1.09159,-0.263461,-0.126149,15,32765
1.08106,-0.264759,-0.124929,16,32765
1.09946,-0.273232,-0.127043,16,32765
1.09854,-0.276892,-0.127016,15,32765
1.04947,-0.268308,-0.121364,15,32765
1.08707,-0.281769,-0.125672,15,32765
1.09574,-0.287934,-0.126696,15,32765
1.10438,-0.294169,-0.127732,16,32765
1.06503,-0.287465,-0.123192,16,32765
1.08324,-0.296291,-0.125336,15,32765
1.05353,-0.291919,-0.121887,15,32765
1.10996,-0.311561,-0.128523,15,32765
1.07069,-0.304378,-0.124021,15,32765
1.06014,-0.305174,-0.122786,15,32765
1.08775,-0.31701,-0.126099,15,32765
1.07717,-0.31779,-0.124967,15,32765
1.07612,-0.321348,-0.124907,15,32765
1.07505,-0.324939,-0.124859,16,32765
1.1025,-0.337163,-0.128092,15,32765
1.07289,-0.33196,-0.124906,15,32765
1.07184,-0.335404,-0.124767,15,32765
1.07075,-0.338844,-0.124825,15,32765
1.05071,-0.336243,-0.122708,15,32765
1.04964,-0.339612,-0.122592,16,32765
1.0674,-0.349169,-0.125083,16,32765
1.03798,-0.343186,-0.121757,16,32765
0.982064,0.0197255,-0.12354,15,32765
0.972243,0.0161576,-0.12199,15,32765
0.972326,0.0128217,-0.12173,15,32765
0.972384,0.00951088,-0.121569,15,32765
1.02207,0.00650328,-0.127436,15,32765
0.962549,0.00283218,-0.119967,15,32765
0.962583,-0.000501072,-0.119724,15,32765
1.01221,-0.00402918,-0.12578,15,32765
1.02212,-0.00758646,-0.126926,15,32765
0.982414,-0.0106409,-0.121855,15,32765
1.02208,-0.0145411,-0.126689,15,32765
1.00219,-0.0176989,-0.124118,15,32765
1.00214,-0.0211228,-0.123935,15,32765
0.982226,-0.0240825,-0.121456,15,32765
0.992064,-0.0277001,-0.122647,15,32765
1.06142,-0.033263,-0.131106,15,32765
1.00179,-0.0348131,-0.123675,15,32765
1.00169,-0.038196,-0.12353,15,32765
1.0313,-0.0428276,-0.127226,15,32765
1.02123,-0.0458845,-0.126022,15,32765
1.01118,-0.0488898,-0.124597,15,32765
1.02091,-0.0528823,-0.125854,16,32765
1.02073,-0.0563993,-0.125789,16,32765
1.04035,-0.0610558,-0.128253,15,32765
1.00053,-0.0621006,-0.123248,16,32765
1.01022,-0.0661433,-0.124446,16,32765
1.0298,-0.0709053,-0.126828,16,32765
0.989968,-0.0715406,-0.121838,16,32765
1.0293,-0.077909,-0.126758,16,32765
1.01913,-0.0807313,-0.125496,16,32765
0.989176,-0.0818326,-0.121794,15,32765
1.00867,-0.0870071,-0.124123,15,32765
1.02813,-0.0922683,-0.126636,15,32765
1.0377,-0.0967116,-0.127735,15,32765
1.04726,-0.101187,-0.128897,15,32765
1.01728,-0.101812,-0.125206,15,32765
1.02681,-0.106287,-0.126342,16,32765
1.00671,-0.107686,-0.123868,16,32765
0.996467,-0.11005,-0.122645,15,32765
1.03554,-0.117947,-0.127454,15,32765
1.01542,-0.119192,-0.124942,15,32765
1.01501,-0.122668,-0.124917,16,32765
1.03429,-0.128583,-0.127293,16,32765
1.01418,-0.129607,-0.124663,15,32765
1.03342,-0.135653,-0.127047,16,32765
1.01328,-0.136532,-0.124572,16,32765
1.05215,-0.145446,-0.129345,16,32765
1.032,-0.146296,-0.126814,16,32765
1.04131,-0.151282,-0.127995,16,32765
1.05063,-0.156289,-0.129013,16,32765
1.04029,-0.158388,-0.127738,16,32765
1.02013,-0.158937,-0.125205,15,32765
1.01958,-0.16244,-0.125202,16,32765
1.06802,-0.173967,-0.131068,16,32765
1.01847,-0.169487,-0.124887,15,32765
1.01789,-0.172975,-0.12479,16,32765
1.0271,-0.178127,-0.125829,15,32765
1.03628,-0.183305,-0.126952,16,32765
1.03567,-0.186822,-0.126869,16,32765
1.0253,-0.188516,-0.125412,16,32765
1.01491,-0.190195,-0.124041,15,32765
1.02402,-0.19554,-0.125098,15,32765
1.01362,-0.19712,-0.123734,16,32765
1.02271,-0.202479,-0.124793,16,32765
1.03178,-0.207884,-0.12573,15,32765
1.01164,-0.20744,-0.12309,15,32765
1.01093,-0.210905,-0.123012,16,32765
1.02966,-0.218515,-0.125097,15,32765
1.02893,-0.222053,-0.124863,16,32765
1.0088,-0.221275,-0.122306,16,32765
1.01776,-0.226872,-0.123261,15,32765
1.00734,-0.228102,-0.121843,15,32765
1.03563,-0.238187,-0.125066,15,32765
1.03484,-0.241706,-0.124816,15,32765
1.02439,-0.24288,-0.123408,16,32765
1.01395,-0.244014,-0.121916,15,32765
1.03245,-0.252154,-0.123983,15,32765
1.02198,-0.253225,-0.122573,15,32765
1.04044,-0.261485,-0.124557,15,32765
1.04924,-0.267368,-0.125333,15,32765
1.04839,-0.270824,-0.125057,15,32765
1.05713,-0.276826,-0.125834,15,32765
1.04664,-0.277789,-0.124372,15,32765
1.02656,-0.276127,-0.121732,15,32765
1.04486,-0.284779,-0.123581,15,32765
1.0631,-0.293553,-0.125462,15,32765
1.04302,-0.291756,-0.122799,15,32765
1.04208,-0.295252,-0.122454,15,32765
1.06978,-0.306975,-0.125412,15,32765
1.04975,-0.304932,-0.122663,15,32765
1.02018,-0.299988,-0.118952,15,32765
1.05733,-0.314688,-0.122962,15,32765
1.0849,-0.326712,-0.125883,15,32765
1.05537,-0.321531,-0.122088,16,32765
1.09238,-0.336658,-0.125928,15,32765
1.05339,-0.328403,-0.120955,15,32765
1.09029,-0.343815,-0.124774,14,32765
1.06082,-0.338228,-0.121054,15,32765
1.09763,-0.3539,-0.12472,15,32765
1.06819,-0.348233,-0.120833,15,32765
1.04825,-0.345451,-0.118044,15,32765
0.861964,0.0172828,-0.116703,15,32765
0.951233,0.0157655,-0.12848,15,32765
0.911678,0.0119721,-0.122884,15,32765
0.991015,0.00962935,-0.133404,15,32765
0.971264,0.00610826,-0.130418,15,32765
0.961374,0.00274832,-0.129041,15,32765
0.961411,-0.000590219,-0.128799,15,32765
0.961418,-0.0039262,-0.128689,15,32765
0.961409,-0.00724444,-0.128607,15,32765
0.951486,-0.0104226,-0.127144,15,32765
0.911812,-0.013093,-0.121766,15,32765
0.882044,-0.0157024,-0.117697,15,32765
0.961287,-0.0204074,-0.128102,15,32765
0.931486,-0.0229889,-0.124116,15,32765
0.941316,-0.0264443,-0.125402,15,32765
0.931327,-0.0293548,-0.123971,15,32765
0.970858,-0.0339231,-0.129169,15,32765
0.970756,-0.0372109,-0.129029,15,32765
0.950812,-0.0396849,-0.12642,15,32765
0.940766,-0.042476,-0.12512,15,32765
0.970345,-0.0471382,-0.128878,15,32765
0.910773,-0.0473954,-0.121019,15,32765
0.940306,-0.05219,-0.124905,15,32765
0.989598,-0.0583342,-0.1315,16,32765
0.969623,-0.0604435,-0.128754,15,32765
0.919955,-0.0604901,-0.122164,15,32765
0.998871,-0.0690642,-0.132616,16,32765
0.93932,-0.0681609,-0.124631,15,32765
0.929191,-0.0706182,-0.123361,15,32765
0.928942,-0.0738829,-0.123321,15,32765
0.958322,-0.0795955,-0.127212,15,32765
1.00743,-0.0872419,-0.133662,16,32765
0.977494,-0.0880659,-0.129805,15,32765
0.957459,-0.0895773,-0.127074,15,32765
0.957156,-0.0928348,-0.127023,15,32765
0.956836,-0.0961257,-0.126983,15,32765
0.946652,-0.0983583,-0.125599,15,32765
0.995602,-0.106896,-0.132097,15,32765
0.985376,-0.109229,-0.13078,15,32765
0.975152,-0.111478,-0.129427,15,32765
0.915695,-0.107881,-0.121507,15,32765
0.984218,-0.119381,-0.130628,16,32765
0.885429,-0.110476,-0.117521,15,32765
0.963741,-0.123606,-0.127772,15,32765
0.992806,-0.13079,-0.131648,15,32765
0.962883,-0.130205,-0.127685,15,32765
0.982078,-0.136244,-0.13023,16,32765
0.952166,-0.135458,-0.126218,16,32765
0.941884,-0.137321,-0.124892,16,32765
0.990464,-0.147858,-0.131218,15,32765
0.999762,-0.152752,-0.132449,16,32765
1.00904,-0.15776,-0.133626,15,32765
0.979115,-0.156538,-0.12973,15,32765
0.968796,-0.158354,-0.128293,16,32765
0.968265,-0.161692,-0.128133,16,32765
0.967716,-0.165017,-0.12804,15,32765
0.967169,-0.168312,-0.127888,15,32765
0.956842,-0.169836,-0.126526,15,32765
0.975784,-0.176625,-0.129029,15,32765
0.965462,-0.178124,-0.127493,16,32765
0.964868,-0.181436,-0.127324,16,32765
0.954514,-0.182891,-0.125912,15,32765
0.973375,-0.189939,-0.128315,16,32765
0.943559,-0.187445,-0.124344,16,32765
0.972114,-0.196527,-0.127952,16,32765
0.981179,-0.201876,-0.128971,16,32765
0.98049,-0.205247,-0.128895,16,32765
0.979809,-0.208638,-0.128627,16,32765
0.988807,-0.214114,-0.129676,16,32765
0.968727,-0.213201,-0.126939,16,32765
0.96802,-0.216511,-0.126728,16,32765
0.967315,-0.219776,-0.126492,16,32765
1.00526,-0.23198,-0.131269,16,32765
0.975522,-0.228615,-0.127245,16,32765
0.945825,-0.225003,-0.123242,16,32765
0.945097,-0.228205,-0.122935,16,32765
0.99253,-0.243216,-0.128962,16,32765
1.00137,-0.248945,-0.129967,16,32765
0.990946,-0.249879,-0.128403,16,32765
0.96132,-0.245781,-0.124317,16,32765
0.979746,-0.253936,-0.126545,16,32765
0.988536,-0.259725,-0.127438,16,32765
0.968525,-0.257911,-0.124668,16,32765
0.98686,-0.26633,-0.126792,16,32765
0.976441,-0.267016,-0.125162,16,32765
1.00428,-0.278232,-0.128477,16,32765
1.0225,-0.286966,-0.130529,16,32765
0.973839,-0.276833,-0.124105,15,32765
0.982486,-0.28286,-0.124943,15,32765
1.03879,-0.30275,-0.131716,15,32765
0.999747,-0.294955,-0.126523,16,32765
0.998819,-0.298257,-0.126109,15,32765
1.0264,-0.310118,-0.129331,15,32765
1.01595,-0.310546,-0.127668,16,32765
1.00552,-0.310912,-0.125959,16,32765
1.02352,-0.320146,-0.127759,16,32765
1.01305,-0.320515,-0.126073,16,32765
0.974244,-0.311649,-0.120932,15,32765
1.01109,-0.327071,-0.125021,16,32765
1.00065,-0.32729,-0.123233,16,32765
0.99966,-0.330524,-0.122611,16,32765
0.941623,0.0188284,-0.124464,15,32765
0.951526,0.0158351,-0.126287,15,32765
0.882125,0.0116777,-0.117554,15,32765
0.862288,0.00848461,-0.115273,15,32765
0.891987,0.00574778,-0.119695,14,32765
0.971243,0.00298626,-0.130683,15,32765
0.901836,-0.000246555,-0.121624,15,32765
0.92161,-0.00340246,-0.124591,15,32765
0.911646,-0.00642144,-0.123531,15,32765
0.842229,-0.00879228,-0.114339,14,32765
0.901612,-0.0124754,-0.122642,15,32765
0.951074,-0.0164269,-0.129568,15,32765
0.90145,-0.01873,-0.123031,15,32765
0.911255,-0.0221216,-0.124597,14,32765
0.881429,-0.0244705,-0.120761,14,32765
0.940731,-0.029346,-0.129092,15,32765
0.920808,-0.0318498,-0.126483,15,32765
0.930565,-0.0353695,-0.128055,15,32765
0.910637,-0.0376969,-0.125373,15,32765
0.930281,-0.0416919,-0.128215,15,32765
0.880639,-0.0424534,-0.121546,15,32765
0.910148,-0.0469359,-0.125809,15,32765
0.909983,-0.0499994,-0.125823,15,32765
0.880135,-0.051322,-0.121775,15,32765
0.929383,-0.0573851,-0.128667,15,32765
0.929165,-0.0605835,-0.128769,15,32765
0.938825,-0.0644571,-0.130204,15,32765
0.928706,-0.0669897,-0.128909,15,32765
0.898837,-0.0679439,-0.124805,15,32765
0.947966,-0.0749448,-0.131695,15,32765
0.957584,-0.0789892,-0.133015,15,32765
0.917836,-0.0788918,-0.127491,15,32765
0.917546,-0.0820325,-0.127596,15,32765
0.946856,-0.087903,-0.131671,15,32765
0.946535,-0.091178,-0.131754,15,32765
0.916647,-0.0914968,-0.127617,15,32765
0.926194,-0.0957053,-0.12886,15,32765
0.975095,-0.104197,-0.135766,15,32765
0.925528,-0.102123,-0.128722,15,32765
0.964534,-0.109787,-0.134241,15,32765
0.924818,-0.108456,-0.128643,15,32765
0.914608,-0.110408,-0.127285,15,32765
0.933898,-0.115968,-0.129948,15,32765
0.874559,-0.111622,-0.121606,15,32765
0.92329,-0.121098,-0.128341,15,32765
0.952336,-0.128256,-0.132316,15,32765
0.873399,-0.120656,-0.121309,15,32765
0.931854,-0.131994,-0.129331,15,32765
0.931423,-0.135142,-0.129183,15,32765
0.950562,-0.141302,-0.131776,15,32765
0.940283,-0.143137,-0.130308,15,32765
0.93002,-0.144903,-0.128711,15,32765
0.939308,-0.149708,-0.129954,15,32765
0.909471,-0.148113,-0.125795,15,32765
0.899212,-0.149571,-0.124281,15,32765
0.937789,-0.159296,-0.129526,16,32765
0.937254,-0.162552,-0.129351,15,32765
0.965953,-0.171052,-0.133328,15,32765
0.926384,-0.167345,-0.127706,15,32765
0.964805,-0.177703,-0.132943,16,32765
0.935012,-0.175466,-0.128703,16,32765
0.953903,-0.182365,-0.131193,16,32765
0.924112,-0.179925,-0.127057,15,32765
0.913789,-0.181175,-0.12556,16,32765
0.971461,-0.196103,-0.133444,16,32765
0.922266,-0.189474,-0.126586,15,32765
0.950735,-0.198718,-0.130437,15,32765
0.950069,-0.201984,-0.130273,16,32765
0.939707,-0.203132,-0.128795,15,32765
0.89064,-0.195686,-0.12193,15,32765
0.93835,-0.209485,-0.12851,16,32765
0.937654,-0.212642,-0.128407,16,32765
0.927289,-0.213604,-0.126918,15,32765
0.936239,-0.218982,-0.128076,15,32765
0.9548,-0.226764,-0.130517,16,32765
0.934759,-0.225341,-0.127854,16,32765
0.943643,-0.230839,-0.129042,15,32765
0.92364,-0.229264,-0.126201,15,32765
0.913276,-0.229911,-0.124772,16,32765
0.931726,-0.237873,-0.127289,16,32765
0.940537,-0.243455,-0.12853,16,32765
0.949323,-0.249132,-0.12969,16,32765
0.938902,-0.249782,-0.128346,16,32765
0.928494,-0.250367,-0.126948,15,32765
0.94678,-0.258715,-0.129516,16,32765
0.965049,-0.267147,-0.131961,16,32765
0.954623,-0.267672,-0.130561,16,32765
0.963278,-0.273535,-0.131813,16,32765
0.886139,-0.254789,-0.121408,15,32765
0.923378,-0.268842,-0.126476,15,32765
0.941499,-0.277507,-0.12911,16,32765
0.931064,-0.277823,-0.127803,16,32765
0.94914,-0.286664,-0.130221,16,32765
0.929235,-0.283948,-0.127655,15,32765
0.909366,-0.281098,-0.125049,16,32765
0.898987,-0.281059,-0.123805,15,32765
0.945346,-0.298907,-0.130288,16,32765
0.906554,-0.289926,-0.125312,16,32765
0.87731,-0.283721,-0.121366,16,32765
0.923478,-0.301989,-0.128029,15,32765
0.931902,-0.308023,-0.12954,16,32765
0.881014,0.0175817,-0.124921,15,32765
0.871102,0.0144536,-0.123987,15,32765
0.86118,0.0113489,-0.123042,15,32765
0.871061,0.00851005,-0.124821,15,32765
0.821532,0.00522799,-0.118141,15,32765
0.851196,0.00254043,-0.122716,15,32765
0.831368,-0.000310494,-0.120115,15,32765
0.84122,-0.00319843,-0.121814,15,32765
0.811479,-0.00581347,-0.117763,15,32765
0.831216,-0.00878567,-0.12084,14,32765
0.860834,-0.0120321,-0.125377,15,32765
0.860763,-0.0149967,-0.125546,15,32765
0.860676,-0.0180214,-0.125748,15,32765
0.850686,-0.0207972,-0.124502,15,32765
0.850576,-0.0237687,-0.124722,16,32765
0.840575,-0.0263832,-0.12344,15,32765
0.840466,-0.0292409,-0.12354,15,32765
0.860105,-0.0328743,-0.126642,15,32765
0.840213,-0.0349686,-0.12377,15,32765
0.849956,-0.0382899,-0.125332,15,32765
0.859681,-0.041652,-0.126937,15,32765
0.879272,-0.0455663,-0.130015,15,32765
0.839601,-0.0463532,-0.124185,15,32765
0.839432,-0.0491779,-0.124237,15,32765
0.858999,-0.0532828,-0.127206,15,32765
0.878539,-0.0575407,-0.130226,15,32765
0.858588,-0.0592096,-0.12736,15,32765
0.8781,-0.0636158,-0.130358,15,32765
0.858146,-0.0651471,-0.127439,15,32765
0.887495,-0.0704618,-0.131863,15,32765
0.867539,-0.0718616,-0.128885,15,32765
0.887003,-0.0765574,-0.131777,15,32765
0.857162,-0.0769483,-0.127482,15,32765
0.847051,-0.0789567,-0.12598,15,32765
0.856607,-0.0828474,-0.127519,15,32765
0.86616,-0.0868022,-0.128967,15,32765
0.86587,-0.0898257,-0.128845,15,32765
0.8262,-0.0886332,-0.123032,15,32765
0.855411,-0.0947542,-0.127252,15,32765
0.874731,-0.0999502,-0.130215,15,32765
0.864576,-0.101781,-0.12864,15,32765
0.854403,-0.103534,-0.127188,15,32765
0.844237,-0.105233,-0.125659,15,32765
0.883143,-0.113144,-0.131366,15,32765
0.833715,-0.10976,-0.123981,15,32765
0.921582,-0.124578,-0.13699,15,32765
0.881967,-0.122293,-0.131066,15,32765
0.861972,-0.122548,-0.128008,15,32765
0.851782,-0.124043,-0.126417,15,32765
0.851359,-0.127021,-0.126304,16,32765
0.850923,-0.130009,-0.126204,16,32765
0.850494,-0.132995,-0.125984,15,32765
0.87935,-0.140661,-0.130224,16,32765
0.85935,-0.140457,-0.127237,15,32765
0.87841,-0.146639,-0.12997,16,32765
0.858413,-0.146338,-0.126936,15,32765
0.887169,-0.154418,-0.131098,16,32765
0.857395,-0.152372,-0.126717,16,32765
0.837418,-0.151815,-0.123624,16,32765
0.885566,-0.16369,-0.130682,16,32765
0.865587,-0.163015,-0.127614,16,32765
0.874771,-0.16783,-0.128871,16,32765
0.874211,-0.170812,-0.128757,15,32765
0.854225,-0.169964,-0.125746,16,32765
0.873048,-0.176859,-0.128487,16,32765
0.882152,-0.181871,-0.129736,16,32765
0.900916,-0.188967,-0.132448,16,32765
0.871241,-0.185875,-0.128024,16,32765
0.851272,-0.18466,-0.125044,16,32765
0.870004,-0.191821,-0.127664,16,32765
0.840378,-0.188268,-0.123366,15,32765
0.859056,-0.195498,-0.126108,16,32765
0.868052,-0.200656,-0.127369,16,32765
0.886667,-0.20811,-0.130043,16,32765
0.905236,-0.215741,-0.13268,16,32765
0.875637,-0.211822,-0.128421,16,32765
0.86532,-0.212415,-0.126889,15,32765
0.874228,-0.217753,-0.128101,15,32765
0.883112,-0.223089,-0.129398,15,32765
0.844009,-0.216225,-0.123672,15,32765
0.862458,-0.224019,-0.126417,16,32765
0.871293,-0.229447,-0.127681,15,32765
0.908782,-0.242606,-0.133259,15,32765
0.850623,-0.230163,-0.124762,16,32765
0.840299,-0.230413,-0.123315,15,32765
0.84909,-0.235861,-0.124564,15,32765
0.848312,-0.238686,-0.12448,15,32765
0.866568,-0.246925,-0.127229,15,32765
0.894284,-0.258021,-0.131458,15,32765
0.874425,-0.255471,-0.128515,15,32765
0.854577,-0.252759,-0.125744,15,32765
0.863209,-0.258468,-0.127138,16,32765
0.843411,-0.255614,-0.124174,15,32765
0.870971,-0.267067,-0.128395,15,32765
0.851184,-0.264026,-0.125602,15,32765
0.869217,-0.272694,-0.128449,15,32765
0.849457,-0.26952,-0.125625,16,32765
0.86739,-0.278365,-0.128641,15,32765
0.857063,-0.278136,-0.127213,15,32765
0.865537,-0.284027,-0.128739,15,32765
0.855205,-0.283657,-0.127526,15,32765
0,0,-0,0,32765
0.820034,0.0143014,-0.127435,15,32765
0.820074,0.011575,-0.127455,15,32765
0.800341,0.00855255,-0.124421,15,32765
0.790481,0.00569764,-0.12291,15,32765
0.770722,0.00291384,-0.119915,15,32765
0.750972,0.000253047,-0.116795,15,32765
0.70157,-0.00215838,-0.109065,14,32765
0.790485,-0.00512498,-0.122911,15,32765
0.790473,-0.00783765,-0.122843,16,32765
0.750926,-0.0100244,-0.116663,15,32765
0.810169,-0.0136025,-0.125865,15,32765
0.829889,-0.0168039,-0.128848,15,32765
0.819954,-0.019451,-0.12727,15,32765
0.800138,-0.0217511,-0.12412,15,32765
0.780321,-0.0238738,-0.120953,15,32765
0.809867,-0.0275354,-0.125526,15,32765
0.799904,-0.0299447,-0.12392,15,32765
0.81955,-0.0334948,-0.126948,15,32765
0.799692,-0.0354272,-0.123846,15,32765
0.79958,-0.0381892,-0.123746,15,32765
0.789592,-0.0404465,-0.122103,15,32765
0.809193,-0.0442526,-0.125095,15,32765
0.79918,-0.0464526,-0.123504,15,32765
0.828613,-0.05101,-0.128059,15,32765
0.788997,-0.0512589,-0.121883,15,32765
0.788842,-0.0539299,-0.121739,15,32765
0.828109,-0.0594466,-0.127676,15,32765
0.818034,-0.0615254,-0.126236,15,32765
0.847391,-0.0667272,-0.130677,15,32765
0.837309,-0.0688971,-0.129101,15,32765
0.837079,-0.0718605,-0.128973,15,32765
0.826986,-0.0739488,-0.12738,15,32765
0.866099,-0.0804965,-0.133389,15,32765
0.816624,-0.0787408,-0.125797,15,32765
0.855705,-0.085464,-0.131776,15,32765
0.855421,-0.088399,-0.131686,15,32765
0.845292,-0.090275,-0.13012,15,32765
0.844986,-0.0931919,-0.130052,15,32765
0.883954,-0.100597,-0.136038,15,32765
0.854151,-0.100205,-0.131472,15,32765
0.834179,-0.100802,-0.128392,15,32765
0.863265,-0.107369,-0.132838,15,32765
0.794256,-0.10159,-0.122215,15,32765
0.872317,-0.11466,-0.134221,15,32765
0.842524,-0.113689,-0.129726,15,32765
0.842138,-0.11659,-0.129652,15,32765
0.831948,-0.118097,-0.128124,16,32765
0.821766,-0.119514,-0.126558,16,32765
0.821369,-0.122353,-0.126424,16,32765
0.82096,-0.125169,-0.126323,16,32765
0.840058,-0.131063,-0.129325,16,32765
0.849363,-0.135577,-0.130774,16,32765
0.839137,-0.136973,-0.129177,16,32765
0.828912,-0.13828,-0.127607,16,32765
0.818703,-0.139496,-0.125965,15,32765
0.827969,-0.144011,-0.127392,16,32765
0.866421,-0.153756,-0.133317,16,32765
0.807536,-0.146176,-0.124168,16,32765
0.855652,-0.157905,-0.131628,15,32765
0.816255,-0.153483,-0.125583,16,32765
0.815764,-0.156254,-0.125352,15,32765
0.824937,-0.160919,-0.12682,15,32765
0.843793,-0.167592,-0.129715,16,32765
0.823867,-0.166582,-0.126468,16,32765
0.862039,-0.177393,-0.132367,16,32765
0.813043,-0.170218,-0.124847,16,32765
0.812483,-0.173001,-0.124665,16,32765
0.802241,-0.173694,-0.123046,16,32765
0.830647,-0.182794,-0.127325,16,32765
0.810751,-0.181292,-0.124158,16,32765
0.829441,-0.188432,-0.126966,16,32765
0.838464,-0.193454,-0.128269,16,32765
0.837824,-0.19633,-0.128083,16,32765
0.837184,-0.199151,-0.127915,15,32765
0.865376,-0.208954,-0.132146,15,32765
0.816656,-0.200118,-0.124606,16,32765
0.806406,-0.200478,-0.122953,16,32765
0.853731,-0.215308,-0.129948,16,32765
0.881779,-0.225538,-0.134157,16,32765
0.833173,-0.216077,-0.126625,15,32765
0.832494,-0.218846,-0.126335,15,32765
0.831809,-0.221624,-0.126001,15,32765
0.878856,-0.237311,-0.133024,15,32765
0.839921,-0.229786,-0.127006,15,32765
0.839196,-0.232578,-0.126717,15,32765
0.857514,-0.240711,-0.129337,15,32765
0.885319,-0.251688,-0.133278,15,32765
0.89404,-0.25738,-0.13434,15,32765
0.874222,-0.254819,-0.13116,15,32765
0.863942,-0.254916,-0.129316,15,32765
0.825216,-0.246431,-0.123248,16,32765
0.833915,-0.252002,-0.124426,15,32765
0.814211,-0.248944,-0.121193,15,32765
0.822918,-0.254495,-0.12222,15,32765
0.85051,-0.266018,-0.125962,16,32765
0.849711,-0.268778,-0.125498,16,32765
0.848917,-0.271531,-0.124947,16,32765
0.866941,-0.280377,-0.127286,15,32765
0.884931,-0.289343,-0.129529,16,32765
0.902926,-0.298376,-0.131519,15,32765
0,0,-0,0,32765
0.818796,0.0142296,-0.135166,16,32765
0.769509,0.0108063,-0.127043,15,32765
0.779401,0.00826507,-0.128708,15,32765
0.769555,0.00547584,-0.127102,16,32765
0.75969,0.00279421,-0.125549,15,32765
0.739971,0.000165808,-0.122243,16,32765
0.710376,-0.00227292,-0.117307,15,32765
0.779424,-0.00515722,-0.128732,16,32765
0.739949,-0.00744297,-0.122151,15,32765
0.759656,-0.0102579,-0.12537,16,32765
0.779348,-0.0132131,-0.128617,16,32765
0.749717,-0.0153114,-0.123655,15,32765
0.769394,-0.018394,-0.126867,15,32765
0.769338,-0.0210642,-0.126787,15,32765
0.749553,-0.0230866,-0.123438,16,32765
0.779058,-0.0266561,-0.128291,16,32765
0.778973,-0.0293374,-0.128218,16,32765
0.788732,-0.0324219,-0.129809,16,32765
0.75905,-0.0338142,-0.124901,16,32765
0.778656,-0.0373903,-0.128047,16,32765
0.758831,-0.039074,-0.124694,16,32765
0.768554,-0.042244,-0.126256,16,32765
0.768414,-0.0448861,-0.126193,15,32765
0.787957,-0.0487429,-0.129411,16,32765
0.797647,-0.0520676,-0.130949,16,32765
0.807335,-0.0554522,-0.132418,16,32765
0.787479,-0.0567896,-0.129045,17,32765
0.81679,-0.0617099,-0.133964,16,32765
0.787071,-0.0622538,-0.129009,15,32765
0.747513,-0.0617789,-0.122508,16,32765
0.806305,-0.0695192,-0.132055,16,32765
0.766745,-0.0688562,-0.125544,16,32765
0.786161,-0.0733771,-0.128711,16,32765
0.795728,-0.0770484,-0.130307,16,32765
0.785651,-0.0787941,-0.128621,15,32765
0.814841,-0.084553,-0.133358,15,32765
0.804741,-0.086296,-0.131701,16,32765
0.824069,-0.0912541,-0.134847,16,32765
0.813949,-0.0930037,-0.133183,16,32765
0.813626,-0.0958328,-0.133152,16,32765
0.803497,-0.0974804,-0.131492,16,32765
0.803164,-0.100289,-0.131412,15,32765
0.793029,-0.101832,-0.129753,16,32765
0.81225,-0.107182,-0.132896,15,32765
0.80209,-0.108654,-0.131322,15,32765
0.791945,-0.110065,-0.129651,16,32765
0.811108,-0.115583,-0.132832,16,32765
0.810717,-0.11836,-0.132773,16,32765
0.820087,-0.122628,-0.134239,16,32765
0.809919,-0.123955,-0.13254,15,32765
0.819236,-0.128299,-0.134131,16,32765
0.789545,-0.126504,-0.129289,16,32765
0.828076,-0.135676,-0.135581,16,32765
0.827606,-0.13858,-0.135513,16,32765
0.827142,-0.141461,-0.135369,16,32765
0.807209,-0.140924,-0.132113,16,32765
0.787292,-0.140234,-0.128866,16,32765
0.796542,-0.144721,-0.130297,16,32765
0.825168,-0.152843,-0.135044,16,32765
0.805253,-0.151973,-0.131805,16,32765
0.804768,-0.154715,-0.131576,16,32765
0.79455,-0.155561,-0.129967,16,32765
0.803708,-0.160216,-0.131467,16,32765
0.783838,-0.159068,-0.128047,16,32765
0.802631,-0.165771,-0.131159,16,32765
0.821397,-0.172594,-0.134234,16,32765
0.801516,-0.171287,-0.130895,16,32765
0.810593,-0.176141,-0.132335,16,32765
0.810016,-0.178901,-0.13217,16,32765
0.7998,-0.179491,-0.130393,16,32765
0.818465,-0.186611,-0.133388,16,32765
0.798612,-0.184925,-0.130084,16,32765
0.798,-0.187673,-0.129906,16,32765
0.797387,-0.190368,-0.129745,16,32765
0.796762,-0.19308,-0.129579,16,32765
0.767356,-0.188713,-0.124707,16,32765
0.785912,-0.196085,-0.127642,17,32765
0.804442,-0.203606,-0.13045,16,32765
0.822912,-0.211236,-0.133396,16,32765
0.812675,-0.211516,-0.131608,16,32765
0.821564,-0.216746,-0.13287,16,32765
0.801796,-0.214391,-0.129457,16,32765
0.801103,-0.217088,-0.129257,16,32765
0.809939,-0.222374,-0.130569,15,32765
0.799717,-0.222428,-0.128757,16,32765
0.799012,-0.225088,-0.128514,16,32765
0.817315,-0.233183,-0.131231,16,32765
0.816584,-0.235918,-0.130892,16,32765
0.806353,-0.235872,-0.129071,16,32765
0.805626,-0.238554,-0.12868,16,32765
0.795424,-0.238378,-0.126796,16,32765
0.794671,-0.240995,-0.126567,16,32765
0.831744,-0.255207,-0.13218,16,32765
0.830975,-0.257898,-0.131793,15,32765
0.81134,-0.254666,-0.128346,16,32765
0.810576,-0.257308,-0.127903,16,32765
0.828651,-0.265987,-0.130338,15,32765
0.827848,-0.26868,-0.129919,15,32765
0.817648,-0.268289,-0.127958,15,32765
0,-0,-0,0,32765
7.66995,2.49039,1.48654,30,32765
7.73419,2.48435,1.49599,29,32765
7.80798,2.48084,1.50659,29,32765
7.84433,2.46431,1.51103,29,32765
7.87174,2.44421,1.51193,29,32765
7.92695,2.43313,1.51929,29,32765
7.95427,2.41285,1.51994,29,32765
8.01917,2.40368,1.52815,29,32765
8.07485,2.39107,1.53399,29,32765
8.11146,2.37283,1.53687,31,32765
8.16677,2.36046,1.54329,28,32765
8.44903,2.41282,1.59285,13,32765
8.4857,2.39391,1.59489,13,32765
8.47492,2.36114,1.5888,12,32765
8.40742,2.31255,1.57068,12,32765
8.39634,2.28015,1.56459,12,32765
8.43279,2.26048,1.56687,13,32765
8.49761,2.24835,1.57496,13,32765
8.4674,2.21081,1.56445,13,32765
8.49415,2.18819,1.56506,13,32765
8.43487,2.14338,1.55064,12,32765
8.41362,2.10866,1.54296,13,32765
8.45927,2.09067,1.54675,13,32765
8.37058,2.04011,1.52768,13,32765
8.38727,2.01508,1.5267,13,32765
8.34629,1.9764,1.5157,13,32765
8.35334,1.94875,1.51265,13,32765
8.32173,1.91217,1.50375,13,32765
8.32821,1.88483,1.50243,13,32765
8.37314,1.86589,1.50767,13,32765
8.34117,1.82999,1.49832,13,32765
8.32826,1.79847,1.49267,12,32765
8.3536,1.77544,1.49467,13,32765
8.29226,1.73417,1.4802,13,32765
8.32714,1.71298,1.48368,13,32765
8.33288,1.68594,1.48243,13,32765
8.2903,1.64896,1.47252,13,32765
8.2188,1.60648,1.45619,13,32765
8.34025,1.60173,1.47617,13,32765
8.26834,1.5597,1.46066,13,32765
8.29294,1.53639,1.46295,13,32765
8.27891,1.50516,1.45801,12,32765
8.30368,1.48078,1.45936,13,32765
8.32821,1.45637,1.46159,13,32765
8.23609,1.41213,1.44328,13,32765
8.21164,1.38068,1.4371,13,32765
8.26488,1.36245,1.44413,13,32765
8.18182,1.32138,1.42822,13,32765
8.31293,1.3143,1.44892,12,32765
8.35644,1.29236,1.45469,13,32765
8.35107,1.26281,1.45251,18,32765
8.30663,1.22734,1.44358,16,32765
8.3889,1.21084,1.45608,17,32765
8.39322,1.18283,1.45419,17,32765
8.35827,1.1494,1.44633,17,32765
8.3815,1.12477,1.44974,16,32765
8.32675,1.08948,1.43827,17,32765
8.39892,1.07075,1.44905,14,32765
0,0,0,0,32765
0,0,0,0,32765
0,0,0,0,32765
0,0,0,0,32765
0,0,0,0,32765
0,0,0,0,32765
0,0,0,0,32765
0,0,0,0,32765
0,0,0,0,32765
0,0,0,0,32765
0,0,0,0,32765
0,0,0,0,32765
14.8358,1.24769,2.52059,14,32765
14.8894,1.20252,2.52641,14,32765
14.972,1.15973,2.5394,13,32765
14.9763,1.11015,2.53585,13,32765
14.8821,1.05346,2.51626,13,32765
15.0233,1.01441,2.53871,12,32765
15.0074,0.964373,2.53172,12,32765
14.9912,0.914412,2.52619,11,32765
0,0,0,0,32765
8.21273,0.447275,1.38078,16,32765
8.17505,0.418505,1.37236,17,32765
8.17659,0.391675,1.37111,17,32765
8.17814,0.365095,1.36922,17,32765
8.15986,0.337723,1.36419,17,32765
7.93444,0.302554,1.325,13,32765
7.91596,0.276024,1.31993,14,32765
7.93686,0.25066,1.32133,13,32765
7.90835,0.22404,1.31464,13,32765
7.90934,0.198314,1.31279,14,32765
7.92009,0.172863,1.3127,14,32765
7.8715,0.146784,1.30321,13,32765
7.89216,0.121679,1.30347,14,32765
7.89273,0.0961991,1.30212,14,32765
7.83427,0.0700293,1.28952,13,32765
7.87433,0.0451406,1.29357,14,32765
7.85505,0.0199842,1.28819,14,32765
7.87527,-0.00491722,1.28861,14,32765
7.79677,-0.0295253,1.27262,14,32765
7.85623,-0.0546334,1.27996,14,32765
7.62962,-0.0773892,1.2393,14,32765
7.61994,-0.101401,1.23479,14,32765
7.67275,2.49409,1.40873,38,32765
7.71833,2.48202,1.41418,36,32765
7.78282,2.47559,1.42242,35,32765
7.8286,2.46208,1.4283,35,32765
7.85602,2.44201,1.42901,35,32765
7.91129,2.43097,1.43591,35,32765
7.9669,2.41931,1.4415,35,32765
8.01303,2.40444,1.44574,35,32765
8.08766,2.39745,1.45452,35,32765
8.12432,2.37913,1.45711,36,32765
8.17971,2.36672,1.46306,39,32765
8.31079,2.37586,1.48287,15,32765
8.41377,2.37612,1.49649,14,32765
8.40288,2.34352,1.49062,13,32765
8.4017,2.31339,1.48502,13,32765
8.41912,2.28871,1.48416,13,32765
8.44611,2.26638,1.48448,14,32765
8.43477,2.23401,1.47863,14,32765
8.44259,2.20657,1.47519,14,32765
8.42159,2.17169,1.4673,14,32765
8.44815,2.14892,1.4685,14,32765
8.39816,2.10688,1.45612,14,32765
8.4247,2.08419,1.45623,14,32765
8.41249,2.05234,1.45132,14,32765
8.36209,2.01099,1.43869,15,32765
8.42658,1.99735,1.44627,14,32765
8.37606,1.95592,1.43333,14,32765
8.33479,1.91699,1.42315,14,32765
8.38938,1.90046,1.43003,14,32765
8.34776,1.86197,1.42014,14,32765
8.3157,1.82609,1.41117,14,32765
8.32203,1.79877,1.40898,14,32765
8.28949,1.76341,1.401,14,32765
8.33422,1.74451,1.40512,14,32765
8.30152,1.70922,1.39693,14,32765
8.30725,1.68222,1.39568,14,32765
8.2936,1.65104,1.3911,14,32765
8.29945,1.62363,1.38848,14,32765
8.30485,1.59627,1.38791,14,32765
8.24248,1.55611,1.37476,14,32765
8.2671,1.53284,1.37687,14,32765
8.27244,1.50518,1.37535,14,32765
8.23894,1.47038,1.36684,14,32765
8.26346,1.44616,1.3689,14,32765
8.26842,1.41875,1.36761,14,32765
8.23421,1.38549,1.3601,14,32765
8.23884,1.35914,1.35863,14,32765
8.20436,1.32595,1.35158,14,32765
8.25768,1.30647,1.35824,13,32765
8.33048,1.2892,1.36845,13,32765
8.32509,1.2597,1.36637,20,32765
8.31962,1.23003,1.36431,19,32765
8.37271,1.20923,1.37126,20,32765
8.37702,1.18124,1.36938,20,32765
8.36154,1.1505,1.36508,20,32765
8.36525,1.12319,1.36511,20,32765
8.34955,1.09302,1.36058,20,32765
8.3337,1.06295,1.35636,17,32765
0,0,0,0,32765
0,0,0,0,32765
0,0,0,0,32765
0,0,0,0,32765
0,0,0,0,32765
0,0,0,0,32765
0,0,0,33,32765
0,0,0,0,32765
0,0,0,14,32765
0,0,0,0,32765
0,0,0,18,32765
0,0,0,16,32765
14.8982,1.25288,2.38634,16,32765
14.8534,1.19948,2.37594,15,32765
14.9164,1.15521,2.38503,15,32765
14.8616,1.10136,2.37206,15,32765
14.8066,1.04776,2.35971,15,32765
14.8889,1.0049,2.37145,14,32765
14.9124,0.957756,2.37094,12,32765
14.8763,0.906826,2.36248,12,32765
15.057,0.868872,2.38827,19,32765
8.17608,0.44488,1.29532,19,32765
8.15805,0.417196,1.2904,20,32765
8.16944,0.390853,1.29072,20,32765
8.14136,0.362937,1.28416,20,32765
8.12303,0.335644,1.27932,20,32765
7.9466,0.302435,1.25004,15,32765
7.9182,0.275484,1.24361,16,32765
7.90949,0.249139,1.24017,16,32765
7.89078,0.222849,1.23531,16,32765
7.872,0.196648,1.23038,16,32765
7.87287,0.171065,1.22866,16,32765
7.85382,0.14565,1.22427,16,32765
7.87447,0.120563,1.22435,16,32765
7.84539,0.0947434,1.2184,15,32765
7.8461,0.0692188,1.21557,15,32765
7.84665,0.0440283,1.21313,16,32765
7.8372,0.0189489,1.20947,17,32765
7.84754,-0.00592779,1.20818,16,32765
7.82819,-0.030706,1.20205,16,32765
7.82841,-0.0555389,1.19974,16,32765
7.60142,-0.0782056,1.16123,16,32765
7.55215,-0.10163,1.1508,15,32765
7.65861,2.49457,1.30705,31,32765
7.71305,2.48572,1.31688,29,32765
7.76791,2.47618,1.32504,28,32765
7.8321,2.46926,1.33541,27,32765
7.88711,2.45831,1.34426,26,32765
7.91393,2.43841,1.3476,26,32765
7.95009,2.42163,1.35211,27,32765
7.99557,2.40775,1.35835,27,32765
8.06001,2.3992,1.36764,27,32765
8.10565,2.38436,1.37362,28,32765
8.17959,2.37753,1.38509,31,32765
8.28227,2.37804,1.40067,15,32765
8.46102,2.39942,1.42898,13,32765
8.46902,2.37144,1.4283,13,32765
8.35326,2.30954,1.40622,12,32765
8.43703,2.30305,1.41845,12,32765
8.49222,2.28864,1.42563,13,32765
8.48078,2.25584,1.42116,13,32765
8.4883,2.22807,1.42004,13,32765
8.45758,2.19009,1.41258,13,32765
8.4649,2.1625,1.41123,13,32765
8.47205,2.13484,1.41043,13,32765
8.44091,2.09741,1.40284,13,32765
8.42871,2.06525,1.39847,13,32765
8.36845,2.02129,1.38629,14,32765
8.41375,2.00259,1.3914,13,32765
8.33394,1.95451,1.37633,13,32765
8.37911,1.93545,1.38155,12,32765
8.32798,1.89475,1.37008,13,32765
8.3536,1.87193,1.3719,13,32765
8.31174,1.83421,1.36204,13,32765
8.34704,1.81288,1.36489,13,32765
8.30483,1.77477,1.35648,13,32765
8.33023,1.75107,1.35847,13,32765
8.31718,1.71915,1.35244,13,32765
8.28408,1.68435,1.3456,13,32765
8.28972,1.65748,1.34423,13,32765
8.31484,1.63405,1.34524,13,32765
8.22333,1.58787,1.32889,13,32765
8.28714,1.57136,1.33631,13,32765
8.23445,1.5327,1.3248,13,32765
8.29795,1.51597,1.33321,13,32765
8.30311,1.48855,1.33201,13,32765
8.24994,1.45068,1.32079,13,32765
8.2745,1.42659,1.32194,13,32765
8.27937,1.39924,1.32069,13,32765
8.27457,1.37035,1.31675,13,32765
8.20119,1.33061,1.30308,13,32765
8.24481,1.31006,1.30745,12,32765
8.27858,1.28749,1.31071,12,32765
8.30264,1.26288,1.312,17,32765
8.29726,1.23369,1.30906,16,32765
8.33079,1.20996,1.31313,17,32765
8.3841,1.18885,1.31847,18,32765
8.38811,1.16058,1.31817,18,32765
8.35307,1.12756,1.30983,18,32765
8.35702,1.09998,1.30814,18,32765
8.39981,1.07811,1.31369,15,32765
0,0,0,0,32765
0,0,0,0,32765
0,0,0,0,32765
0,0,0,0,32765
0,0,0,0,32765
0,0,0,0,32765
0,0,0,0,32765
0,0,0,0,32765
0,0,0,0,32765
0,0,0,0,32765
0,0,0,0,32765
0,0,0,0,32765
14.8712,1.26651,2.29179,14,32765
14.9642,1.22496,2.30428,13,32765
14.8205,1.16412,2.28008,13,32765
14.9032,1.12239,2.29124,14,32765
14.8476,1.06928,2.28244,14,32765
14.8906,1.02447,2.28685,12,32765
15.0713,0.987517,2.31471,12,32765
14.8576,0.925269,2.28041,12,32765
15.1071,0.89146,2.31869,20,32765
8.18193,0.455684,1.25396,16,32765
8.21287,0.430894,1.25919,17,32765
8.19451,0.402863,1.25609,18,32765
8.17592,0.375397,1.25374,17,32765
8.15737,0.347739,1.25062,17,32765
7.95098,0.312901,1.21921,14,32765
7.92228,0.286252,1.21491,14,32765
7.90328,0.259725,1.21273,14,32765
7.904,0.234052,1.21325,14,32765
7.90467,0.208027,1.21364,14,32765
7.84594,0.180617,1.20505,14,32765
7.86612,0.155609,1.20891,14,32765
7.88626,0.13082,1.21249,14,32765
7.88647,0.105906,1.2136,14,32765
7.86678,0.0805275,1.21197,14,32765
7.84703,0.054819,1.21027,14,32765
7.8568,0.0290213,1.21342,15,32765
7.87625,0.0030354,1.21883,15,32765
7.84648,-0.0225463,1.21486,14,32765
7.84593,-0.0477756,1.21765,14,32765
7.6578,-0.0715686,1.18974,14,32765
7.58782,-0.0952349,1.1825,14,32765
7.65964,2.49812,1.22956,36,32765
7.70477,2.48624,1.23742,33,32765
7.77855,2.48274,1.24813,33,32765
7.80515,2.46389,1.25189,33,32765
7.8508,2.45008,1.25876,33,32765
7.87762,2.43027,1.26191,32,32765
7.94218,2.42224,1.27068,33,32765
7.99719,2.41122,1.27806,33,32765
8.0712,2.40549,1.2883,34,32765
8.11692,2.39061,1.2939,34,32765
8.16252,2.37546,1.30019,37,32765
8.19882,2.35694,1.30425,22,32765
8.43481,2.39487,1.33996,14,32765
8.49991,2.38294,1.34833,14,32765
8.40307,2.32608,1.33047,13,32765
8.41072,2.29859,1.3299,13,32765
8.45642,2.28167,1.3351,15,32765
8.44493,2.24893,1.33082,14,32765
8.43331,2.2162,1.32669,14,32765
8.42163,2.1833,1.32262,14,32765
8.42893,2.15578,1.32128,13,32765
8.43606,2.12819,1.32048,14,32765
8.36647,2.08126,1.30727,14,32765
8.431,2.06813,1.31508,14,32765
8.38027,2.0264,1.30504,15,32765
8.33908,1.98701,1.29632,14,32765
8.3746,1.9662,1.30003,14,32765
8.4006,1.94252,1.30188,14,32765
8.35905,1.90387,1.29246,14,32765
8.36543,1.87658,1.29111,14,32765
8.33315,1.84089,1.28319,14,32765
8.30087,1.80476,1.27537,14,32765
8.3456,1.78534,1.28078,14,32765
8.313,1.74925,1.27368,14,32765
8.358,1.72936,1.27672,14,32765
8.3055,1.69042,1.26729,14,32765
8.26267,1.65373,1.25853,14,32765
8.24898,1.62271,1.25346,15,32765
8.29325,1.60294,1.25868,15,32765
8.27944,1.57142,1.25375,14,32765
8.26555,1.53996,1.24867,14,32765
8.29024,1.51599,1.25065,14,32765
8.25644,1.48156,1.24359,14,32765
8.20315,1.44378,1.23294,14,32765
8.24721,1.42317,1.23683,15,32765
8.25206,1.39586,1.23559,15,32765
8.21794,1.36216,1.22737,15,32765
8.17372,1.32729,1.21883,14,32765
8.21736,1.30681,1.22283,13,32765
8.26093,1.28581,1.22727,13,32765
8.32413,1.26718,1.23418,20,32765
8.32853,1.23933,1.23278,20,32765
8.36213,1.21545,1.23657,19,32765
8.37632,1.18865,1.23565,21,32765
8.36073,1.15764,1.23246,21,32765
8.36484,1.12996,1.23027,21,32765
8.34916,1.09971,1.22569,21,32765
8.34293,1.07153,1.22367,18,32765
8.35626,1.04551,1.22471,12,32765
0,0,0,15,32765
0,0,0,0,32765
0,0,0,0,32765
0,0,0,0,32765
0,0,0,16,32765
0,0,0,0,32765
0,0,0,0,32765
0,0,0,0,32765
0,0,0,0,32765
0,0,0,0,32765
0,0,0,0,32765
14.9118,1.27022,2.15375,16,32765
14.8865,1.21877,2.14831,15,32765
14.8018,1.16275,2.13405,14,32765
14.8254,1.11655,2.13593,15,32765
14.8585,1.07,2.14049,14,32765
14.8127,1.01897,2.13174,14,32765
14.9048,0.976383,2.14511,12,32765
14.9673,0.931802,2.15267,12,32765
15.1283,0.892325,2.17583,17,32765
8.15386,0.453871,1.17092,17,32765
8.17495,0.42861,1.17445,20,32765
8.15656,0.40066,1.17154,20,32765
8.15772,0.37418,1.17222,20,32765
8.15892,0.347381,1.17212,21,32765
7.94236,0.312105,1.14125,15,32765
7.97296,0.287583,1.14576,16,32765
7.8847,0.258577,1.13381,16,32765
7.90521,0.233507,1.13718,16,32765
7.8663,0.206397,1.13188,16,32765
7.88666,0.18089,1.13524,16,32765
7.88709,0.155317,1.13607,16,32765
7.81819,0.128949,1.12663,15,32765
7.8085,0.104078,1.1263,17,32765
7.7987,0.0790087,1.12628,15,32765
7.81851,0.0537535,1.13047,16,32765
7.8481,0.0280764,1.13639,17,32765
7.84781,0.00206774,1.13874,17,32765
7.84769,-0.0235483,1.13936,16,32765
7.82737,-0.0487015,1.13927,17,32765
7.64888,-0.0725416,1.11457,16,32765
7.56894,-0.0960853,1.10653,16,32765
7.66759,2.49126,1.25988,30,32765
7.70435,2.47631,1.25974,29,32765
7.76962,2.46941,1.2639,28,32765
7.79715,2.45048,1.26193,27,32765
7.87217,2.44533,1.26686,27,32765
7.91828,2.43168,1.26969,27,32765
7.94552,2.41204,1.26917,27,32765
7.99181,2.39794,1.27062,27,32765
8.03785,2.38365,1.27339,27,32765
8.09361,2.37146,1.27692,28,32765
8.15893,2.36156,1.28181,30,32765
8.24328,2.35657,1.28992,16,32765
8.41322,2.37508,1.31237,12,32765
8.4691,2.36092,1.31626,13,32765
8.42969,2.32001,1.3052,12,32765
8.44727,2.29529,1.30299,13,32765
8.45501,2.26787,1.30078,14,32765
8.42465,2.23015,1.29143,13,32765
8.41304,2.19776,1.28635,13,32765
8.4399,2.17514,1.28569,13,32765
8.38982,2.13302,1.27424,13,32765
8.49311,2.12972,1.28602,13,32765
8.32777,2.05875,1.25649,13,32765
8.37319,2.04087,1.26043,13,32765
8.42837,2.02478,1.26506,13,32765
8.38707,1.98591,1.2559,13,32765
8.3938,1.95882,1.25353,13,32765
8.36204,1.92229,1.24497,13,32765
8.36843,1.89528,1.24342,13,32765
8.35554,1.86355,1.23878,13,32765
8.34269,1.83174,1.23333,13,32765
8.22324,1.7768,1.21296,13,32765
8.34581,1.77335,1.22762,13,32765
8.31315,1.73733,1.22051,13,32765
8.29969,1.70603,1.21584,13,32765
8.34415,1.68726,1.21998,13,32765
8.25283,1.64102,1.20328,13,32765
8.30685,1.62365,1.20933,14,32765
8.2347,1.58147,1.19562,16,32765
8.31789,1.56874,1.20591,15,32765
8.32307,1.54124,1.20567,13,32765
8.23105,1.496,1.18921,13,32765
8.28495,1.47731,1.19467,13,32765
8.24124,1.44138,1.18611,13,32765
8.20715,1.40735,1.17904,13,32765
8.28016,1.39178,1.18841,13,32765
8.21647,1.35348,1.17722,13,32765
8.22109,1.32626,1.17592,13,32765
8.13758,1.28546,1.16182,13,32765
8.35723,1.2919,1.19133,13,32765
8.32253,1.25797,1.18447,17,32765
8.34638,1.2331,1.18653,17,32765
8.42905,1.21613,1.19675,17,32765
8.42348,1.1867,1.19366,19,32765
8.34903,1.14766,1.1818,18,32765
8.37259,1.12247,1.18347,18,32765
8.34692,1.09094,1.17848,17,32765
8.35065,1.06321,1.17736,16,32765
8.42307,1.04416,1.18596,11,32765
0,0,0,0,32765
0,0,0,0,32765
0,0,0,0,32765
0,0,0,15,32765
0,0,0,0,32765
0,0,0,0,32765
0,0,0,0,32765
0,0,0,0,32765
0,0,0,0,32765
0,0,0,0,32765
0,0,0,0,32765
14.9554,1.25401,2.07017,14,32765
14.9102,1.20138,2.06215,13,32765
14.9145,1.15256,2.0589,13,32765
14.9183,1.1042,2.05784,13,32765
14.8828,1.05239,2.04872,13,32765
14.9754,1.00924,2.05962,13,32765
14.9297,0.956304,2.04957,11,32765
15.0816,0.915655,2.06635,11,32765
15.1145,0.868247,2.06772,13,32765
8.22176,0.445341,1.12266,15,32765
8.16383,0.415918,1.11415,15,32765
8.11578,0.38744,1.10635,13,32765
8.12714,0.361668,1.10582,19,32765
8.14821,0.33618,1.10749,19,32765
7.99118,0.303481,1.08344,14,32765
7.90319,0.274418,1.06991,14,32765
7.88446,0.24802,1.06557,14,32765
7.90537,0.222506,1.06587,14,32765
7.94591,0.198078,1.06945,14,32765
7.86751,0.170293,1.0568,14,32765
7.93766,0.145877,1.06416,15,32765
7.89859,0.119689,1.05776,15,32765
7.89924,0.0939092,1.05552,15,32765
7.88989,0.068541,1.05193,14,32765
7.89042,0.0433155,1.04931,14,32765
7.87106,0.0183948,1.04385,15,32765
7.88138,-0.00657624,1.04225,15,32765
7.83208,-0.0318603,1.03321,14,32765
7.83228,-0.0569264,1.03059,15,32765
7.65408,-0.0802344,1.00354,15,32765
7.59473,-0.103103,0.992499,14,32765
7.65875,2.49171,1.18093,36,32765
7.71435,2.48283,1.1834,34,32765
7.76082,2.4699,1.18413,35,32765
7.8261,2.46284,1.1877,36,32765
7.8634,2.44585,1.18625,34,32765
7.90008,2.42931,1.18729,35,32765
7.95573,2.41832,1.19085,36,32765
7.99257,2.40133,1.1905,35,32765
8.03866,2.38702,1.19289,33,32765
8.09446,2.37482,1.19595,35,32765
8.17886,2.37042,1.20308,38,32765
8.20619,2.34902,1.20206,25,32765
8.45253,2.38928,1.23407,14,32765
8.37496,2.3377,1.21805,14,32765
8.40222,2.31543,1.21718,13,32765
8.42933,2.29336,1.21626,13,32765
8.49445,2.28136,1.22232,15,32765
8.44492,2.23836,1.21058,14,32765
8.45247,2.21086,1.20842,14,32765
8.441,2.17818,1.20209,14,32765
8.48685,2.16041,1.20483,14,32765
8.45582,2.12303,1.1966,14,32765
8.42485,2.08535,1.18776,14,32765
8.36453,2.04129,1.1764,14,32765
8.35233,2.00899,1.17111,15,32765
8.44588,2.00229,1.18132,15,32765
8.36581,1.95467,1.16681,14,32765
8.305,1.9115,1.15461,15,32765
8.32102,1.88682,1.15441,15,32765
8.40479,1.87678,1.16335,13,32765
8.34354,1.83411,1.15139,13,32765
8.34986,1.80629,1.14957,12,32765
8.50175,1.80861,1.16707,12,32765
8.40125,1.75779,1.151,12,32765
8.32957,1.71415,1.13854,12,32765
8.33525,1.68739,1.13699,12,32765
8.25351,1.64303,1.12255,19,32765
8.19087,1.60279,1.11228,15,32765
8.26455,1.58898,1.11913,16,32765
8.29916,1.56695,1.12208,19,32765
8.26535,1.53223,1.11657,15,32765
8.2707,1.50484,1.1142,15,32765
8.25636,1.4738,1.11,14,32765
8.2614,1.44645,1.10846,15,32765
8.26636,1.41899,1.10699,15,32765
8.23195,1.38512,1.10132,15,32765
8.14858,1.34368,1.08817,14,32765
8.19231,1.32296,1.09211,15,32765
8.14784,1.28837,1.08406,14,32765
8.24039,1.27509,1.0946,13,32765
8.34283,1.26226,1.10632,19,32765
8.3471,1.23438,1.1056,20,32765
8.3808,1.2103,1.10858,19,32765
8.38501,1.18236,1.10689,23,32765
8.37921,1.15284,1.10484,21,32765
8.39299,1.12619,1.10503,21,32765
8.36728,1.09454,1.10032,20,32765
