x, y, z, intensity, ring
1.40513,-0.25434,-0.185802,19,32765
1.44332,-0.266286,-0.190596,20,32765
1.41319,-0.265739,-0.186485,20,32765
1.41229,-0.270603,-0.186298,20,32765
1.43086,-0.27921,-0.188623,20,32765
1.42993,-0.284066,-0.188439,20,32765
1.41929,-0.28693,-0.18681,20,32765
1.44748,-0.297817,-0.190264,20,32765
1.42705,-0.298725,-0.1876,20,32765
1.43576,-0.305727,-0.188484,20,32765
1.41535,-0.306477,-0.185614,20,32765
1.41434,-0.311274,-0.185331,20,32765
1.42299,-0.318271,-0.18629,20,32765
1.45097,-0.329664,-0.189738,20,32765
1.44023,-0.332356,-0.188068,21,32765
1.42948,-0.335,-0.186458,20,32765
1.44769,-0.344393,-0.188636,20,32765
1.43693,-0.346965,-0.186912,20,32765
1.42616,-0.349475,-0.185304,20,32765
1.44428,-0.359056,-0.187452,20,32765
1.44312,-0.363901,-0.186995,20,32765
1.45159,-0.37113,-0.187719,20,32765
1.45041,-0.375925,-0.187336,20,32765
1.43962,-0.37824,-0.185589,20,32765
1.42881,-0.380483,-0.183916,19,32765
1.43717,-0.387859,-0.184648,20,32765
1.42637,-0.390053,-0.182835,19,32765
1.43469,-0.397475,-0.183538,20,32765
1.44297,-0.40497,-0.184204,20,32765
1.43212,-0.407107,-0.182508,20,32765
1.43081,-0.411931,-0.181956,20,32765
1.45812,-0.424961,-0.184886,20,32765
1.45677,-0.429792,-0.184363,20,32765
1.44591,-0.431762,-0.182558,19,32765
1.45407,-0.439333,-0.18322,19,32765
1.45272,-0.444051,-0.182554,19,32765
1.45136,-0.448769,-0.181808,19,32765
1.47841,-0.462432,-0.18454,20,32765
1.46751,-0.464298,-0.18263,19,32765
1.46609,-0.468986,-0.181984,19,32765
1.46466,-0.473795,-0.181106,19,32765
1.45377,-0.475496,-0.179036,19,32765
1.4712,-0.486431,-0.180447,19,32765
1.45704,0.0291345,-0.192591,17,32765
1.48676,0.0247424,-0.197323,18,32765
1.43717,0.0190254,-0.19152,16,32765
1.55608,0.0153113,-0.208022,16,32765
1.47673,0.00951577,-0.198162,16,32765
1.46678,0.00450986,-0.197358,17,32765
1.47663,-0.000403699,-0.199142,17,32765
1.45674,-0.00537808,-0.196935,17,32765
1.44674,-0.0101905,-0.196038,17,32765
1.44665,-0.015102,-0.196394,17,32765
1.45645,-0.0201526,-0.198113,17,32765
1.4068,-0.0242981,-0.191652,17,32765
1.43638,-0.0298445,-0.196038,16,32765
1.43622,-0.0348656,-0.196375,17,32765
1.41623,-0.0393177,-0.194032,16,32765
1.46556,-0.0457179,-0.201111,17,32765
1.44557,-0.0500008,-0.198565,17,32765
1.42555,-0.0541831,-0.19617,17,32765
1.40555,-0.0581843,-0.19351,17,32765
1.41521,-0.0634249,-0.19505,17,32765
1.42485,-0.0686886,-0.196659,17,32765
1.40479,-0.0724446,-0.194183,18,32765
1.46389,-0.0804338,-0.202412,18,32765
1.44382,-0.0841911,-0.199766,17,32765
1.38419,-0.0854672,-0.191631,18,32765
1.41352,-0.0921643,-0.195893,18,32765
1.39341,-0.095668,-0.193251,19,32765
1.3733,-0.0990593,-0.190621,18,32765
1.3927,-0.105276,-0.193379,17,32765
1.4022,-0.110856,-0.194799,18,32765
1.39195,-0.114819,-0.193351,18,32765
1.38169,-0.118762,-0.191922,18,32765
1.42072,-0.127018,-0.197567,18,32765
1.40056,-0.130023,-0.194764,19,32765
1.40008,-0.134867,-0.194886,19,32765
1.39961,-0.139705,-0.194857,20,32765
1.38929,-0.143558,-0.193289,19,32765
1.38877,-0.148402,-0.193364,19,32765
1.38829,-0.153185,-0.193082,19,32765
1.41727,-0.161319,-0.197252,18,32765
1.38723,-0.162684,-0.192964,19,32765
1.3965,-0.16858,-0.194349,19,32765
1.3861,-0.172121,-0.19287,20,32765
1.38554,-0.17684,-0.192656,20,32765
1.38493,-0.181647,-0.192512,20,32765
1.39414,-0.187756,-0.193699,20,32765
1.41314,-0.195218,-0.196275,19,32765
1.4223,-0.201464,-0.197399,19,32765
1.40204,-0.203424,-0.194454,19,32765
1.41114,-0.209769,-0.195626,20,32765
1.37125,-0.208742,-0.190032,20,32765
1.39013,-0.216591,-0.192389,20,32765
1.40896,-0.224562,-0.194931,20,32765
1.39843,-0.227743,-0.193427,19,32765
1.44656,-0.240615,-0.19993,17,32765
1.42622,-0.242262,-0.196987,17,32765
1.39612,-0.242134,-0.192679,19,32765
1.39527,-0.247075,-0.192584,18,32765
1.42371,-0.257183,-0.196264,19,32765
1.4131,-0.260272,-0.194714,19,32765
1.40252,-0.263199,-0.193054,19,32765
1.40165,-0.267965,-0.192773,19,32765
1.41049,-0.274622,-0.193929,19,32765
1.40957,-0.279472,-0.193682,19,32765
1.3989,-0.282389,-0.19216,19,32765
1.39796,-0.287203,-0.191878,19,32765
1.397,-0.291994,-0.191663,19,32765
1.41541,-0.300915,-0.19408,18,32765
1.40472,-0.30365,-0.192529,18,32765
1.41341,-0.310545,-0.193498,18,32765
1.43171,-0.319627,-0.196077,19,32765
1.41131,-0.32006,-0.193273,19,32765
1.42957,-0.329306,-0.195665,19,32765
1.42849,-0.334117,-0.195415,19,32765
1.42738,-0.339001,-0.195116,20,32765
1.41659,-0.341496,-0.193759,19,32765
1.45398,-0.355681,-0.198829,20,32765
1.43357,-0.355837,-0.195874,19,32765
1.44201,-0.363017,-0.197008,20,32765
1.43121,-0.365392,-0.195526,19,32765
1.4396,-0.372636,-0.19673,19,32765
1.44796,-0.37999,-0.19781,19,32765
1.42751,-0.379771,-0.195138,19,32765
1.43582,-0.387165,-0.196311,19,32765
1.44408,-0.394606,-0.197545,19,32765
1.45235,-0.402043,-0.198594,19,32765
1.47012,-0.412215,-0.201063,19,32765
1.4783,-0.419781,-0.202288,20,32765
1.46737,-0.421909,-0.201041,19,32765
1.45646,-0.42405,-0.199493,19,32765
1.44553,-0.426071,-0.19823,19,32765
1.4726,-0.439414,-0.202138,20,32765
1.45218,-0.438597,-0.199238,20,32765
1.47919,-0.451999,-0.203207,19,32765
1.43983,-0.445073,-0.197995,20,32765
1.46677,-0.45857,-0.201998,21,32765
1.45583,-0.460317,-0.200643,20,32765
1.47315,-0.471129,-0.203631,20,32765
1.46218,-0.472868,-0.202277,20,32765
1.47945,-0.483799,-0.205107,20,32765
1.47786,-0.488481,-0.205431,20,32765
1.44526,0.0288419,-0.204926,18,32765
1.42544,0.0236513,-0.202887,18,32765
1.4452,0.0190453,-0.206484,18,32765
1.46497,0.0143124,-0.209926,18,32765
1.4649,0.00932219,-0.21066,18,32765
1.43516,0.00428329,-0.206905,17,32765
1.47469,-0.000550757,-0.213062,16,32765
1.48451,-0.00564428,-0.214966,15,32765
1.45472,-0.0104217,-0.211113,16,32765
1.41505,-0.0149565,-0.205716,17,32765
1.43472,-0.0200535,-0.208961,17,32765
1.43461,-0.0249945,-0.209244,18,32765
1.43446,-0.0300357,-0.20958,18,32765
1.41451,-0.0345814,-0.207021,18,32765
1.45389,-0.0406279,-0.213187,18,32765
1.40425,-0.0440755,-0.206218,17,32765
1.40407,-0.0488495,-0.206384,18,32765
1.42362,-0.0544127,-0.209615,17,32765
1.41354,-0.0588296,-0.208224,18,32765
1.4133,-0.0636681,-0.208401,18,32765
1.42292,-0.0689413,-0.210103,19,32765
1.41276,-0.0732132,-0.2089,19,32765
1.44214,-0.0796184,-0.213306,19,32765
1.41222,-0.0827347,-0.20901,19,32765
1.3823,-0.0857424,-0.204699,18,32765
1.42146,-0.0930996,-0.210703,18,32765
1.43098,-0.0986826,-0.212267,18,32765
1.41088,-0.102214,-0.209452,18,32765
1.39079,-0.105583,-0.206538,19,32765
1.40027,-0.111173,-0.208051,20,32765
1.40975,-0.116775,-0.209439,20,32765
1.40935,-0.121641,-0.209379,19,32765
1.41875,-0.127363,-0.211004,19,32765
1.39862,-0.13037,-0.208014,19,32765
1.39814,-0.135222,-0.208135,19,32765
1.39767,-0.140067,-0.208105,19,32765
1.3972,-0.144946,-0.207909,19,32765
1.38684,-0.148777,-0.206519,20,32765
1.39619,-0.154656,-0.207699,21,32765
1.39564,-0.159471,-0.207759,20,32765
1.41476,-0.166551,-0.210502,20,32765
1.38472,-0.167797,-0.206133,19,32765
1.40379,-0.17498,-0.208944,20,32765
1.40322,-0.179773,-0.208727,20,32765
1.4026,-0.184656,-0.20858,20,32765
1.43139,-0.193494,-0.212772,20,32765
1.44055,-0.199745,-0.214074,19,32765
1.36152,-0.19357,-0.202194,16,32765
1.39026,-0.20246,-0.206336,15,32765
1.37,-0.204402,-0.203247,15,32765
1.42799,-0.218176,-0.21179,13,32765
1.37839,-0.215544,-0.204181,11,32765
1.49489,-0.239125,-0.22138,11,32765
1.50386,-0.2458,-0.222664,12,32765
1.46402,-0.244398,-0.216617,13,32765
1.42418,-0.242787,-0.210599,18,32765
1.41362,-0.24605,-0.208892,20,32765
1.4225,-0.252799,-0.210235,19,32765
1.41193,-0.255966,-0.208436,20,32765
1.41107,-0.260824,-0.20823,20,32765
1.4005,-0.263755,-0.206476,20,32765
1.41907,-0.272258,-0.209058,20,32765
1.42788,-0.278992,-0.210304,20,32765
1.43665,-0.285848,-0.211482,20,32765
1.41628,-0.286904,-0.208434,20,32765
1.41532,-0.291793,-0.208148,20,32765
1.43372,-0.300721,-0.210778,21,32765
1.41335,-0.30153,-0.207683,21,32765
1.43169,-0.310564,-0.210301,21,32765
1.44034,-0.31757,-0.211355,20,32765
1.43927,-0.322437,-0.211282,20,32765
1.43819,-0.327294,-0.211124,20,32765
1.4564,-0.336656,-0.213697,20,32765
1.43602,-0.337047,-0.210614,20,32765
1.42526,-0.339677,-0.2089,19,32765
1.42411,-0.344502,-0.20886,19,32765
1.4422,-0.354025,-0.211481,20,32765
1.42182,-0.354147,-0.208341,20,32765
1.43026,-0.361306,-0.209568,20,32765
1.42906,-0.366109,-0.209399,20,32765
1.43743,-0.373364,-0.210695,20,32765
1.4362,-0.378209,-0.210463,20,32765
1.45405,-0.38817,-0.213215,20,32765
1.43363,-0.387916,-0.210272,20,32765
1.42278,-0.390132,-0.208795,20,32765
1.45013,-0.402818,-0.212739,20,32765
1.48693,-0.418371,-0.21819,20,32765
1.44745,-0.412446,-0.212515,19,32765
1.45559,-0.419971,-0.213969,20,32765
1.42569,-0.416528,-0.209535,20,32765
1.43379,-0.424073,-0.210971,20,32765
1.45133,-0.434567,-0.213759,19,32765
1.42148,-0.43081,-0.209281,21,32765
1.439,-0.441241,-0.21213,21,32765
1.45647,-0.451778,-0.214918,20,32765
1.47389,-0.462395,-0.217804,19,32765
1.45352,-0.461179,-0.214959,19,32765
1.46136,-0.468984,-0.216732,20,32765
1.441,-0.467636,-0.213886,20,32765
1.43943,-0.472349,-0.214098,19,32765
1.47546,-0.489386,-0.220018,19,32765
0,0,-0,0,32765
1.43259,0.0249844,-0.222627,18,32765
1.42278,0.0200819,-0.221127,17,32765
1.43271,0.0153101,-0.22273,17,32765
1.43275,0.010327,-0.222774,17,32765
1.45251,0.00549147,-0.225993,17,32765
1.41301,0.000476128,-0.219759,16,32765
1.41302,-0.00434716,-0.219666,16,32765
1.38335,-0.00896871,-0.215094,16,32765
1.40309,-0.0139118,-0.218046,15,32765
1.43269,-0.0191255,-0.222581,15,32765
1.42273,-0.0238874,-0.221031,17,32765
1.39303,-0.0282065,-0.216281,17,32765
1.38305,-0.0328089,-0.214672,17,32765
1.38295,-0.0375945,-0.214529,18,32765
1.42236,-0.0435167,-0.220472,17,32765
1.37282,-0.0466759,-0.212782,17,32765
1.41218,-0.0528654,-0.218773,17,32765
1.40212,-0.0573043,-0.217188,17,32765
1.39206,-0.0616697,-0.215584,17,32765
1.4116,-0.0674205,-0.218465,17,32765
1.40153,-0.0717926,-0.216732,18,32765
1.34208,-0.0733946,-0.207474,18,32765
1.39117,-0.080862,-0.214988,18,32765
1.37116,-0.0844094,-0.211908,18,32765
1.39061,-0.0903438,-0.214819,18,32765
1.39033,-0.0950514,-0.214564,19,32765
1.39004,-0.0997854,-0.214313,18,32765
1.37982,-0.103778,-0.212929,19,32765
1.38933,-0.109402,-0.214249,19,32765
1.38895,-0.114288,-0.214156,20,32765
1.37872,-0.118358,-0.212426,20,32765
1.37831,-0.123248,-0.212301,19,32765
1.37788,-0.128063,-0.21221,19,32765
1.34792,-0.12997,-0.207641,19,32765
1.38683,-0.138511,-0.213568,19,32765
1.37654,-0.142251,-0.211909,19,32765
1.40554,-0.150108,-0.216363,19,32765
1.37556,-0.151708,-0.211713,21,32765
1.39468,-0.15872,-0.214638,20,32765
1.38431,-0.162401,-0.213075,19,32765
1.39357,-0.168398,-0.21449,20,32765
1.40281,-0.174474,-0.215862,19,32765
1.3924,-0.178096,-0.214253,20,32765
1.40159,-0.184229,-0.215659,19,32765
1.42053,-0.191685,-0.218723,18,32765
1.45905,-0.201999,-0.22463,14,32765
1.44857,-0.205628,-0.223086,12,32765
0,-0,-0,0,32765
0,-0,-0,0,32765
0,-0,-0,0,32765
0,-0,-0,0,32765
0,-0,-0,0,32765
0,-0,-0,0,32765
1.45303,-0.242396,-0.223688,13,32765
1.42298,-0.242457,-0.218938,16,32765
1.39294,-0.242278,-0.214318,19,32765
1.40185,-0.248774,-0.215705,19,32765
1.42049,-0.257129,-0.218415,19,32765
1.39043,-0.256595,-0.213896,19,32765
1.42845,-0.268595,-0.21977,19,32765
1.39845,-0.267863,-0.214889,20,32765
1.41695,-0.276402,-0.217832,20,32765
1.39662,-0.277394,-0.214701,20,32765
1.36665,-0.276329,-0.209789,20,32765
1.40445,-0.289011,-0.215655,20,32765
1.41315,-0.295855,-0.216997,20,32765
1.42185,-0.302751,-0.218165,19,32765
1.41117,-0.305534,-0.216443,19,32765
1.40051,-0.3082,-0.214676,20,32765
1.40916,-0.315102,-0.215799,19,32765
1.46599,-0.333042,-0.224405,20,32765
1.42635,-0.329095,-0.218205,19,32765
1.41563,-0.331731,-0.216417,19,32765
1.44342,-0.343365,-0.220542,20,32765
1.41345,-0.341292,-0.215839,19,32765
1.44116,-0.353149,-0.219892,19,32765
1.44961,-0.360384,-0.221022,19,32765
1.42928,-0.360459,-0.217554,19,32765
1.43768,-0.367726,-0.218735,19,32765
1.4365,-0.372546,-0.218319,19,32765
1.43533,-0.377321,-0.217819,19,32765
1.42459,-0.379563,-0.215794,19,32765
1.42336,-0.38434,-0.21544,19,32765
1.4126,-0.386458,-0.213601,20,32765
1.44952,-0.401726,-0.218875,21,32765
1.44825,-0.406533,-0.218436,20,32765
1.42793,-0.405949,-0.214965,20,32765
1.43617,-0.413451,-0.215802,20,32765
1.45387,-0.423775,-0.218124,20,32765
1.44307,-0.425793,-0.216,20,32765
1.44176,-0.430546,-0.215329,20,32765
1.4404,-0.435276,-0.214917,20,32765
1.4296,-0.437099,-0.212793,20,32765
1.47558,-0.456336,-0.219154,20,32765
1.44587,-0.45223,-0.214135,19,32765
1.46339,-0.462896,-0.216136,20,32765
1.48089,-0.47367,-0.217963,20,32765
1.48888,-0.481516,-0.218599,20,32765
1.45919,-0.477108,-0.213585,20,32765
1.49547,-0.494185,-0.217828,19,32765
0,0,-0,0,32765
1.47975,0.0257161,-0.244276,15,32765
1.4009,0.019673,-0.231283,16,32765
1.41081,0.0149608,-0.232977,18,32765
1.44045,0.0102497,-0.237909,17,32765
1.43059,0.00526182,-0.236423,17,32765
1.43061,0.000320562,-0.236337,18,32765
1.40102,-0.00448271,-0.231356,17,32765
1.41086,-0.00933522,-0.233022,18,32765
1.4207,-0.0142905,-0.234529,18,32765
1.41079,-0.0190504,-0.232829,17,32765
1.41072,-0.0239174,-0.232814,18,32765
1.41065,-0.0288097,-0.232667,17,32765
1.43028,-0.034194,-0.235843,17,32765
1.38086,-0.0378075,-0.227567,18,32765
1.42021,-0.043743,-0.233882,18,32765
1.37075,-0.0469012,-0.225727,18,32765
1.39032,-0.0523617,-0.228844,19,32765
1.4,-0.0575488,-0.230412,18,32765
1.40966,-0.0627978,-0.231959,19,32765
1.39961,-0.0672078,-0.230161,18,32765
1.38955,-0.0715511,-0.228337,19,32765
1.40902,-0.0774474,-0.231469,19,32765
1.40876,-0.0822912,-0.231353,19,32765
1.37893,-0.0853001,-0.226469,20,32765
1.39834,-0.091279,-0.229565,20,32765
1.38822,-0.0953508,-0.227694,19,32765
1.38793,-0.100092,-0.227442,19,32765
1.38756,-0.104833,-0.227578,20,32765
1.37737,-0.108944,-0.225765,20,32765
1.4065,-0.116242,-0.230508,20,32765
1.39629,-0.120387,-0.228681,20,32765
1.38604,-0.124471,-0.226944,21,32765
1.40526,-0.131162,-0.230071,21,32765
1.39498,-0.135073,-0.228439,21,32765
1.40435,-0.140844,-0.22991,20,32765
1.40388,-0.145676,-0.229761,20,32765
1.39358,-0.149439,-0.228068,20,32765
1.39307,-0.154263,-0.227955,20,32765
1.38273,-0.157994,-0.22625,18,32765
1.37238,-0.161646,-0.224594,17,32765
1.42082,-0.172374,-0.232516,14,32765
1.43982,-0.179786,-0.23558,12,32765
1.42941,-0.183548,-0.233876,11,32765
1.54621,-0.204033,-0.252983,13,32765
1.53571,-0.208033,-0.251434,14,32765
1.55456,-0.216054,-0.2545,13,32765
1.55381,-0.221417,-0.254461,15,32765
1.59213,-0.232441,-0.260748,13,32765
1.55231,-0.232118,-0.254095,13,32765
0,-0,-0,0,32765
0,-0,-0,0,32765
0,-0,-0,0,32765
0,-0,-0,0,32765
1.44101,-0.241292,-0.235952,13,32765
1.47912,-0.252965,-0.242072,14,32765
1.42964,-0.249589,-0.233984,15,32765
1.39963,-0.249304,-0.229096,20,32765
1.41823,-0.257673,-0.231992,21,32765
1.40764,-0.260732,-0.23037,20,32765
1.41647,-0.267326,-0.23185,21,32765
1.41562,-0.272149,-0.231448,21,32765
1.41469,-0.276974,-0.231406,20,32765
1.40407,-0.279896,-0.229671,20,32765
1.42252,-0.288679,-0.232381,21,32765
1.42153,-0.293595,-0.232293,20,32765
1.4302,-0.300517,-0.233725,20,32765
1.41955,-0.303363,-0.231827,20,32765
1.41854,-0.308246,-0.231587,20,32765
1.42717,-0.315207,-0.232871,20,32765
1.40688,-0.315731,-0.229366,20,32765
1.42509,-0.324923,-0.232252,20,32765
1.42403,-0.329747,-0.231956,20,32765
1.43255,-0.336907,-0.233205,20,32765
1.42185,-0.339452,-0.231352,20,32765
1.43033,-0.346613,-0.232617,19,32765
1.43879,-0.353838,-0.233827,20,32765
1.44723,-0.361084,-0.235049,20,32765
1.42693,-0.361158,-0.231394,20,32765
1.44488,-0.370892,-0.234218,21,32765
1.42457,-0.370775,-0.230702,19,32765
1.42341,-0.375525,-0.230205,20,32765
1.42223,-0.380289,-0.229632,20,32765
1.43054,-0.387658,-0.230816,20,32765
1.4293,-0.392426,-0.230416,21,32765
1.43759,-0.39984,-0.231456,21,32765
1.42681,-0.401943,-0.229489,21,32765
1.43505,-0.409426,-0.230418,21,32765
1.43377,-0.414229,-0.229821,21,32765
1.44195,-0.421795,-0.23081,21,32765
1.4596,-0.432204,-0.233139,21,32765
1.43934,-0.43135,-0.22944,19,32765
1.47582,-0.447563,-0.235053,19,32765
1.45555,-0.446612,-0.231316,19,32765
1.43532,-0.44546,-0.227643,19,32765
1.45286,-0.456029,-0.229829,20,32765
1.44207,-0.457768,-0.227548,19,32765
1.46897,-0.471522,-0.231054,20,32765
1.49577,-0.485457,-0.23474,19,32765
1.49432,-0.490321,-0.233854,19,32765
0,-0,-0,0,32765
6.90296,2.24135,1.33788,15,32765
6.89148,2.21366,1.33298,16,32765
6.92689,2.20089,1.33658,16,32765
6.88725,2.16364,1.32667,15,32765
6.91361,2.1467,1.3279,15,32765
6.9208,2.1243,1.32645,15,32765
6.97528,2.11589,1.33287,16,32765
6.96377,2.08733,1.32703,16,32765
6.94286,2.05588,1.31895,15,32765
6.96887,2.03859,1.32038,15,32765
6.99468,2.02169,1.3218,15,32765
6.98251,1.99402,1.31637,16,32765
6.9704,1.96642,1.31009,15,32765
6.99608,1.94913,1.31156,16,32765
7.022,1.93147,1.31185,16,32765
7.00962,1.90356,1.30619,16,32765
7.03525,1.88586,1.3072,16,32765
7.02266,1.8581,1.30159,16,32765
7.05776,1.84275,1.30401,16,32765
7.08322,1.82472,1.3051,16,32765
7.0704,1.79666,1.2998,16,32765
7.08616,1.77596,1.29952,15,32765
7.0924,1.75285,1.29682,16,32765
7.11739,1.73468,1.29897,16,32765
7.10428,1.70683,1.29317,16,32765
7.14849,1.69276,1.29817,16,32765
7.14494,1.66684,1.29383,15,32765
7.13154,1.63869,1.28868,14,32765
7.1563,1.6196,1.29101,15,32765
7.16187,1.59597,1.28957,15,32765
7.16744,1.57248,1.28748,14,32765
7.1729,1.54897,1.2856,15,32765
7.17812,1.52561,1.28434,15,32765
7.22198,1.51034,1.28915,15,32765
7.20785,1.48273,1.28425,14,32765
7.23213,1.46323,1.28661,15,32765
7.21778,1.43564,1.28202,15,32765
7.26155,1.41937,1.28659,14,32765
7.30498,1.40291,1.29294,14,32765
7.30983,1.37889,1.29133,15,32765
7.29508,1.35152,1.28692,18,32765
7.2707,1.32186,1.28046,28,32765
7.27542,1.29741,1.27864,35,32765
7.27991,1.27305,1.27762,34,32765
7.3037,1.25227,1.27989,34,32765
7.28843,1.22545,1.27553,31,32765
7.32171,1.20697,1.27933,32,32765
7.29651,1.1784,1.27368,32,32765
7.31032,1.15579,1.27417,32,32765
7.3338,1.1342,1.27666,33,32765
7.31815,1.10662,1.27285,29,32765
7.36092,1.08761,1.27923,15,32765
7.41345,1.07004,1.28676,14,32765
7.45631,1.05079,1.29186,15,32765
7.45995,1.02587,1.29088,15,32765
7.48279,1.00417,1.29429,15,32765
7.46671,0.976949,1.28971,14,32765
7.48961,0.954828,1.29217,14,32765
7.51248,0.932756,1.29423,14,32765
7.51563,0.907847,1.29365,14,32765
7.53821,0.885679,1.29651,14,32765
7.54141,0.860589,1.29478,14,32765
7.52479,0.83365,1.29033,14,32765
7.5374,0.809798,1.29148,13,32765
7.56969,0.787873,1.29515,14,32765
7.5036,0.756282,1.28318,13,32765
7.1236,0.693969,1.21671,12,32765
6.99843,0.658412,1.1939,13,32765
7.02049,0.637097,1.19554,21,32765
7.03255,0.614627,1.19629,21,32765
7.04453,0.592448,1.19686,21,32765
7.04666,0.569114,1.19567,21,32765
7.04852,0.545978,1.1955,22,32765
7.05057,0.522638,1.19383,22,32765
7.07217,0.500618,1.19577,21,32765
7.0935,0.478971,1.1987,22,32765
7.115,0.457208,1.20028,22,32765
7.11662,0.43409,1.19924,22,32765
7.11818,0.411069,1.1981,22,32765
7.11967,0.387746,1.19701,22,32765
7.14086,0.365561,1.19875,21,32765
7.1422,0.342126,1.19766,22,32765
7.16326,0.319788,1.19931,22,32765
7.20394,0.298159,1.20438,21,32765
7.18535,0.27399,1.1999,22,32765
7.21605,0.251619,1.20323,23,32765
7.22698,0.22824,1.20315,23,32765
7.21809,0.204485,1.1999,22,32765
7.219,0.181005,1.19821,22,32765
7.28885,0.159086,1.20807,19,32765
7.77286,0.144945,1.28688,13,32765
7.8527,0.12107,1.29695,13,32765
7.873,0.0959586,1.29887,13,32765
7.85401,0.0702057,1.29277,13,32765
7.9138,0.0453668,1.30006,13,32765
7.87478,0.0200344,1.29143,13,32765
7.89501,-0.00492954,1.29184,14,32765
7.92507,-0.0300111,1.29356,14,32765
7.91545,-0.0550452,1.28961,16,32765
7.91585,-0.0802926,1.28579,13,32765
7.76799,-0.103372,1.25878,13,32765
6.86707,2.23219,1.2608,18,32765
6.89304,2.21663,1.26297,18,32765
6.9191,2.20086,1.26456,19,32765
6.90759,2.17243,1.26027,18,32765
6.91518,2.14955,1.25787,18,32765
6.9318,2.13,1.25813,17,32765
6.91093,2.09864,1.25044,18,32765
6.92764,2.07875,1.24991,19,32765
6.96332,2.06416,1.25232,19,32765
6.961,2.03847,1.24847,18,32765
6.97737,2.01884,1.24801,18,32765
6.96515,1.99117,1.24277,18,32765
6.97195,1.96893,1.24005,18,32765
6.98816,1.94896,1.23965,18,32765
6.99508,1.92608,1.2364,18,32765
7.01118,1.90596,1.23596,19,32765
7.03684,1.88823,1.23678,19,32765
7.02421,1.86042,1.23136,19,32765
7.03072,1.83757,1.22849,19,32765
7.05618,1.81959,1.22941,19,32765
7.07198,1.79887,1.22929,18,32765
7.08774,1.77813,1.22891,19,32765
7.08441,1.75261,1.22456,18,32765
7.07109,1.72509,1.21991,18,32765
7.08668,1.70427,1.21925,19,32765
7.12133,1.68796,1.22225,18,32765
7.14654,1.66882,1.22294,18,32765
7.15234,1.64503,1.22125,17,32765
7.17715,1.62585,1.2234,17,32765
7.18274,1.60211,1.22195,17,32765
7.16904,1.57429,1.21658,17,32765
7.21307,1.55907,1.22123,18,32765
7.21832,1.53555,1.21997,17,32765
7.19466,1.50598,1.21299,17,32765
7.2288,1.48836,1.21642,17,32765
7.1951,1.45701,1.20883,17,32765
7.25811,1.4449,1.21742,17,32765
7.26323,1.42091,1.21512,17,32765
7.23888,1.39138,1.20976,16,32765
7.27278,1.37304,1.21303,17,32765
7.28708,1.35113,1.21365,17,32765
7.32091,1.33205,1.21715,25,32765
7.2868,1.30046,1.20888,37,32765
7.28156,1.27432,1.20624,40,32765
7.30539,1.25351,1.20832,43,32765
7.30956,1.22991,1.20737,43,32765
7.31367,1.20652,1.20606,44,32765
7.30792,1.18108,1.2039,40,32765
7.31199,1.15685,1.20269,40,32765
7.3355,1.13522,1.205,40,32765
7.33935,1.11054,1.20458,39,32765
7.34314,1.08566,1.20418,27,32765
7.43481,1.07378,1.21765,18,32765
7.41908,1.04616,1.21279,17,32765
7.46182,1.0267,1.21819,17,32765
7.44556,0.999707,1.21503,18,32765
7.46859,0.977694,1.21702,18,32765
7.47193,0.953035,1.21611,17,32765
7.49482,0.930988,1.21798,17,32765
7.48816,0.904914,1.21582,16,32765
7.49115,0.880497,1.21531,16,32765
7.52375,0.858884,1.21836,16,32765
7.53652,0.835223,1.21885,17,32765
7.54915,0.811296,1.21991,16,32765
7.57167,0.788276,1.22172,16,32765
7.57424,0.76356,1.22149,16,32765
7.43934,0.724846,1.19821,14,32765
7.11746,0.669687,1.14493,13,32765
7.0019,0.635452,1.12425,15,32765
7.01396,0.613008,1.12491,26,32765
7.03579,0.591684,1.12697,25,32765
7.06744,0.570728,1.1305,26,32765
7.05945,0.546724,1.12876,26,32765
7.09104,0.525502,1.1318,27,32765
7.07327,0.500525,1.12726,26,32765
7.09463,0.47884,1.13001,27,32765
7.10628,0.456406,1.12984,26,32765
7.13747,0.435084,1.13349,26,32765
7.12916,0.411391,1.13079,26,32765
7.15037,0.389069,1.13282,26,32765
7.16172,0.366245,1.13281,27,32765
7.15319,0.342233,1.13016,26,32765
7.1644,0.319384,1.13006,26,32765
7.19525,0.297308,1.1332,27,32765
7.19636,0.273883,1.13202,26,32765
7.23696,0.251783,1.13661,26,32765
7.2479,0.2283,1.13644,28,32765
7.25873,0.204999,1.13637,26,32765
7.25962,0.18135,1.13467,27,32765
7.26042,0.157757,1.13308,27,32765
7.32035,0.135757,1.14111,20,32765
7.84483,0.120109,1.21974,14,32765
7.85527,0.0948627,1.21994,15,32765
7.85598,0.069306,1.2171,15,32765
7.85654,0.0440838,1.21466,15,32765
7.84708,0.0189728,1.21099,15,32765
7.93649,-0.00599498,1.22188,14,32765
7.87761,-0.0308999,1.20964,15,32765
7.90748,-0.0560999,1.21186,16,32765
7.9375,-0.0816633,1.21257,18,32765
7.86847,-0.105887,1.199,14,32765
6.86084,2.23472,1.17089,16,32765
6.86753,2.21323,1.17252,16,32765
6.91212,2.20338,1.17906,16,32765
6.91898,2.18138,1.17972,17,32765
6.94481,2.1646,1.18366,16,32765
6.9518,2.14197,1.18377,16,32765
6.95869,2.11965,1.1835,16,32765
6.94651,2.09184,1.18013,16,32765
6.9721,2.07536,1.18304,16,32765
6.97881,2.05289,1.18266,16,32765
6.99483,2.03316,1.18447,16,32765
7.0015,2.0103,1.18407,15,32765
7.01761,1.99009,1.1852,16,32765
7.01475,1.96422,1.18303,16,32765
7.02131,1.94128,1.18199,15,32765
7.05625,1.92614,1.18631,16,32765
7.03396,1.89565,1.18083,16,32765
7.0689,1.88029,1.18456,16,32765
7.04653,1.84962,1.17884,16,32765
7.07187,1.83126,1.18114,15,32765
7.08756,1.81064,1.1816,16,32765
7.10312,1.78989,1.18253,15,32765
7.09956,1.76411,1.17991,16,32765
7.11502,1.74337,1.1805,15,32765
7.11126,1.71764,1.17803,16,32765
7.12672,1.69626,1.17856,15,32765
7.13239,1.67272,1.1779,15,32765
7.18622,1.65991,1.18487,15,32765
7.1534,1.62751,1.17684,15,32765
7.15885,1.6042,1.17569,16,32765
7.20286,1.5895,1.18033,15,32765
7.20837,1.56558,1.1787,15,32765
7.1943,1.53744,1.17509,15,32765
7.19956,1.5134,1.17408,15,32765
7.205,1.48926,1.17159,15,32765
7.22921,1.46987,1.17426,15,32765
7.23413,1.44642,1.17306,15,32765
7.25853,1.42646,1.17434,15,32765
7.2439,1.39875,1.17061,14,32765
7.28764,1.38184,1.17514,15,32765
7.29254,1.35738,1.17326,15,32765
7.29714,1.33313,1.17241,15,32765
7.35029,1.31773,1.17916,16,32765
7.29652,1.28303,1.16815,20,32765
7.28156,1.2554,1.16331,22,32765
7.28584,1.23133,1.16221,19,32765
7.29994,1.20894,1.16165,17,32765
7.33329,1.18979,1.16518,16,32765
7.36666,1.17053,1.16819,15,32765
7.37067,1.14629,1.16697,14,32765
7.3747,1.12173,1.16537,14,32765
7.42746,1.10437,1.17183,15,32765
7.40189,1.07504,1.16672,14,32765
7.47428,1.05984,1.17539,15,32765
7.40933,1.02515,1.16436,15,32765
7.48153,1.00992,1.17317,15,32765
7.43608,0.978762,1.16398,15,32765
7.44907,0.956085,1.165,15,32765
7.49143,0.936699,1.17078,15,32765
7.51447,0.914576,1.17125,14,32765
7.53705,0.892691,1.17405,14,32765
7.52059,0.865299,1.16942,14,32765
7.56268,0.845156,1.17538,14,32765
7.56555,0.820249,1.17458,14,32765
7.54888,0.793108,1.16956,14,32765
7.57111,0.770509,1.17241,15,32765
7.57384,0.745531,1.17098,15,32765
7.55661,0.71875,1.16768,14,32765
7.26374,0.666683,1.12162,12,32765
7.07906,0.626109,1.09134,12,32765
7.04168,0.599706,1.08519,19,32765
7.05354,0.577399,1.08615,22,32765
7.06536,0.55497,1.08698,21,32765
7.05733,0.531503,1.08501,21,32765
7.06887,0.509079,1.08666,21,32765
7.09031,0.487809,1.08891,22,32765
7.09182,0.464676,1.08918,21,32765
7.11308,0.442974,1.09175,22,32765
7.13419,0.420984,1.09498,22,32765
7.11601,0.396319,1.09059,22,32765
7.1369,0.374443,1.09422,21,32765
7.15785,0.351898,1.09719,22,32765
7.15886,0.328699,1.09778,22,32765
7.15992,0.305219,1.0977,21,32765
7.20033,0.28336,1.1041,21,32765
7.20117,0.260196,1.10433,22,32765
7.20186,0.236674,1.1051,22,32765
7.23216,0.214158,1.11013,23,32765
7.23277,0.190344,1.11048,22,32765
7.25305,0.166969,1.11398,22,32765
7.25344,0.143489,1.11475,22,32765
7.49096,0.124263,1.15172,15,32765
7.88647,0.105906,1.2136,13,32765
7.88655,0.0807299,1.21502,13,32765
7.93597,0.0554403,1.22398,13,32765
7.88645,0.0291308,1.218,13,32765
7.92566,0.00305444,1.22648,14,32765
7.93542,-0.0228018,1.22863,14,32765
7.92498,-0.048257,1.22992,14,32765
7.91471,-0.0739696,1.22965,15,32765
7.87434,-0.098831,1.22715,13,32765
6.87958,2.24371,1.10434,20,32765
6.90513,2.22821,1.10899,19,32765
6.91217,2.20621,1.10911,19,32765
6.91906,2.18417,1.10977,19,32765
6.90719,2.1556,1.10747,19,32765
6.94251,2.14178,1.11212,20,32765
6.9494,2.11946,1.11184,20,32765
6.97506,2.10304,1.11471,20,32765
6.95336,2.07234,1.10988,20,32765
6.97904,2.05547,1.11251,20,32765
6.96662,2.02743,1.10969,20,32765
7.00177,2.01282,1.11383,20,32765
6.9989,1.98718,1.11185,20,32765
7.01505,1.96666,1.11279,20,32765
7.01209,1.94104,1.11024,19,32765
7.01847,1.91809,1.10975,19,32765
7.06293,1.90569,1.1151,20,32765
7.04063,1.87495,1.10952,19,32765
7.04688,1.85186,1.10859,19,32765
7.07226,1.83347,1.1107,19,32765
7.07839,1.81036,1.10957,19,32765
7.0652,1.78236,1.1059,20,32765
7.10958,1.76859,1.11088,19,32765
7.09625,1.74072,1.10688,19,32765
7.1117,1.71965,1.10749,18,32765
7.13679,1.70053,1.10942,18,32765
7.13285,1.67466,1.10727,18,32765
7.15785,1.65515,1.10929,19,32765
7.16352,1.63157,1.10761,19,32765
7.16899,1.60819,1.10645,18,32765
7.18409,1.58704,1.10625,18,32765
7.17025,1.55894,1.10166,17,32765
7.17548,1.53502,1.10121,17,32765
7.20008,1.51507,1.10316,18,32765
7.22488,1.4949,1.10363,18,32765
7.22976,1.47147,1.10315,18,32765
7.23468,1.44798,1.10195,18,32765
7.2591,1.42799,1.10304,18,32765
7.28329,1.40773,1.1054,17,32765
7.28824,1.38329,1.10365,17,32765
7.27368,1.35517,1.09883,17,32765
7.30748,1.33628,1.10239,18,32765
7.29254,1.3086,1.0984,17,32765
7.30685,1.28603,1.09822,17,32765
7.30161,1.25999,1.09502,16,32765
7.32541,1.23912,1.09684,17,32765
7.32977,1.21495,1.09472,17,32765
7.39248,1.20043,1.10234,18,32765
7.3966,1.17628,1.10069,18,32765
7.4104,1.15343,1.10091,17,32765
7.40466,1.12721,1.09785,17,32765
7.39879,1.10098,1.09516,16,32765
7.41233,1.07739,1.09611,17,32765
7.44562,1.05658,1.09835,16,32765
7.43938,1.03007,1.09664,18,32765
7.45285,1.00676,1.09613,17,32765
7.44655,0.980819,1.09318,17,32765
7.47919,0.960593,1.09699,16,32765
7.4627,0.933707,1.09375,17,32765
7.48574,0.911644,1.09405,16,32765
7.50834,0.889817,1.09666,16,32765
7.5115,0.864739,1.09509,16,32765
7.52414,0.841296,1.09638,16,32765
7.54667,0.818609,1.09845,16,32765
7.55947,0.794591,1.0979,17,32765
7.55221,0.768913,1.09628,16,32765
7.57461,0.745897,1.09771,16,32765
7.57707,0.720944,1.09745,16,32765
7.48092,0.686821,1.08272,14,32765
7.21716,0.638483,1.04277,12,32765
7.091,0.604026,1.02417,15,32765
7.05357,0.577482,1.01792,25,32765
7.05553,0.554242,1.01723,25,32765
7.08696,0.533742,1.02104,26,32765
7.08865,0.510473,1.02118,26,32765
7.09037,0.487745,1.02039,26,32765
7.11164,0.465869,1.02351,27,32765
7.13293,0.444067,1.02589,26,32765
7.13432,0.420809,1.02609,27,32765
7.14575,0.397756,1.02615,26,32765
7.14691,0.37471,1.02675,26,32765
7.16789,0.352095,1.02954,26,32765
7.16891,0.328825,1.03013,26,32765
7.19963,0.306537,1.03431,26,32765
7.18076,0.282177,1.03181,26,32765
7.20139,0.259752,1.03488,26,32765
7.26144,0.238138,1.04419,25,32765
7.26211,0.214511,1.04467,26,32765
7.27262,0.19082,1.04645,27,32765
7.26325,0.166592,1.0455,26,32765
7.27354,0.143235,1.04769,27,32765
7.28378,0.120135,1.04962,25,32765
7.71943,0.102891,1.11345,15,32765
7.83828,0.0794097,1.13199,15,32765
7.83831,0.0538896,1.13333,15,32765
7.88769,0.028218,1.14212,15,32765
7.90719,0.00208338,1.14735,15,32765
7.94665,-0.0238452,1.15372,15,32765
7.90654,-0.0491941,1.15079,15,32765
7.91605,-0.0750754,1.1535,17,32765
7.93502,-0.100733,1.16005,17,32765
6.86888,2.23175,1.12864,17,32765
6.86713,2.20722,1.12284,16,32765
6.88436,2.18805,1.11989,16,32765
6.92976,2.17787,1.12154,17,32765
6.89995,2.14333,1.1104,17,32765
6.90724,2.12119,1.10757,17,32765
6.91449,2.09905,1.10448,17,32765
6.95969,2.08825,1.10653,17,32765
6.93834,2.05759,1.0992,18,32765
6.99296,2.04897,1.10327,16,32765
6.98116,2.02066,1.09677,17,32765
6.98824,1.99778,1.09353,16,32765
7.01419,1.98013,1.09413,17,32765
7.02106,1.95725,1.09121,16,32765
7.02792,1.93422,1.08816,16,32765
7.05371,1.91663,1.08803,16,32765
7.04107,1.88861,1.08325,17,32765
7.06676,1.87069,1.08328,17,32765
7.07308,1.84772,1.08147,16,32765
7.07955,1.82455,1.07846,16,32765
7.10498,1.80636,1.0791,16,32765
7.07279,1.77357,1.07096,16,32765
7.09829,1.7548,1.07099,16,32765
7.12346,1.73626,1.07231,16,32765
7.12948,1.71274,1.0701,16,32765
7.13527,1.68951,1.06846,17,32765
7.14099,1.66646,1.06643,16,32765
7.16609,1.64736,1.06691,16,32765
7.16191,1.62203,1.06415,15,32765
7.17707,1.60071,1.06406,16,32765
7.18264,1.57704,1.06183,16,32765
7.18808,1.55313,1.06027,15,32765
7.19366,1.52854,1.05815,15,32765
7.22798,1.51055,1.06119,16,32765
7.23314,1.48679,1.0596,16,32765
7.22836,1.46164,1.05685,15,32765
7.21394,1.43444,1.05181,15,32765
7.23813,1.41476,1.05374,15,32765
7.24304,1.39102,1.05164,15,32765
7.30612,1.37792,1.05923,15,32765
7.27173,1.34655,1.05338,15,32765
7.27645,1.3225,1.05129,15,32765
7.26151,1.29482,1.04709,15,32765
7.26595,1.2708,1.04574,15,32765
7.28982,1.25005,1.04725,15,32765
7.33302,1.23258,1.05247,15,32765
7.33718,1.20864,1.05123,15,32765
7.36086,1.18749,1.05288,15,32765
7.38446,1.16649,1.05429,15,32765
7.38842,1.14214,1.05323,15,32765
7.39237,1.11738,1.05209,15,32765
7.39614,1.09271,1.05145,15,32765
7.39992,1.06765,1.05064,15,32765
7.43306,1.04717,1.05331,15,32765
7.52492,1.03438,1.06514,15,32765
7.44012,0.997463,1.05167,14,32765
7.46313,0.97543,1.0537,15,32765
7.44682,0.948131,1.04993,15,32765
7.4697,0.925977,1.05173,14,32765
7.51215,0.90623,1.05637,14,32765
7.57428,0.888498,1.06343,14,32765
7.5379,0.859356,1.05695,14,32765
7.58027,0.83864,1.06123,14,32765
7.52399,0.807354,1.05232,14,32765
7.5859,0.788423,1.05948,14,32765
7.58866,0.763343,1.05807,15,32765
7.59124,0.738272,1.05738,14,32765
7.61369,0.714597,1.05809,14,32765
7.59638,0.687541,1.05466,14,32765
7.59881,0.662282,1.05331,14,32765
7.49251,0.628245,1.03714,13,32765
7.16875,0.577618,0.991469,12,32765
7.02266,0.542697,0.969455,13,32765
7.05409,0.522119,0.973044,22,32765
7.08565,0.501038,0.975388,22,32765
7.08736,0.477639,0.97475,22,32765
7.08912,0.454086,0.973206,22,32765
7.09082,0.430508,0.971523,21,32765
7.11214,0.408553,0.972967,22,32765
7.11366,0.385319,0.971351,21,32765
7.11491,0.362479,0.970996,22,32765
7.14584,0.341137,0.974129,23,32765
7.17683,0.319378,0.976514,22,32765
7.15815,0.295332,0.97292,22,32765
7.18909,0.27302,0.974697,22,32765
7.20002,0.250003,0.97472,22,32765
7.22081,0.227144,0.975882,22,32765
7.23173,0.203546,0.975049,22,32765
7.24247,0.180543,0.974777,22,32765
7.24327,0.156781,0.972945,22,32765
7.25389,0.133311,0.972495,23,32765
7.25441,0.109927,0.971491,22,32765
7.26492,0.0863682,0.970763,22,32765
7.27535,0.0632023,0.969993,22,32765
7.34522,0.0403226,0.976805,17,32765
7.89089,0.0184411,1.04648,13,32765
7.93095,-0.0066176,1.0488,13,32765
7.89156,-0.0321022,1.04105,13,32765
7.981,-0.0580073,1.05016,13,32765
7.91186,-0.0829366,1.03733,13,32765
7.93183,-0.107679,1.03655,14,32765
6.86841,2.23458,1.05906,20,32765
6.87604,2.21303,1.0548,20,32765
6.9027,2.1968,1.0532,20,32765
6.8915,2.16873,1.04586,19,32765
6.90883,2.14894,1.04225,20,32765
6.95397,2.13837,1.0451,21,32765
6.95179,2.11315,1.04057,20,32765
6.96861,2.09368,1.03798,20,32765
6.9757,2.07138,1.03515,20,32765
6.9829,2.0487,1.03172,21,32765
6.99958,2.02864,1.02961,20,32765
7.00668,2.00566,1.02636,20,32765
7.00407,1.97984,1.02259,20,32765
7.03,1.96228,1.02244,20,32765
7.02731,1.93654,1.018,20,32765
7.04356,1.91633,1.01631,20,32765
7.04045,1.89086,1.01309,19,32765
7.04701,1.86784,1.01019,20,32765
7.05331,1.84489,1.00839,19,32765
7.06934,1.82423,1.00675,20,32765
7.07558,1.80115,1.00448,19,32765
7.08175,1.77804,1.00215,19,32765
7.08803,1.75445,0.999287,20,32765
7.09397,1.73122,0.99771,19,32765
7.09996,1.70776,0.995509,19,32765
7.12501,1.68915,0.996569,19,32765
7.14037,1.66835,0.995893,18,32765
7.14616,1.64478,0.9935,18,32765
7.16129,1.62385,0.993519,19,32765
7.15712,1.59818,0.990652,18,32765
7.19171,1.58091,0.992439,18,32765
7.18747,1.55484,0.989536,18,32765
7.19304,1.53021,0.987416,17,32765
7.2177,1.51016,0.988846,18,32765
7.22285,1.4864,0.987263,18,32765
7.22777,1.4632,0.985925,18,32765
7.27164,1.44757,0.98901,17,32765
7.25699,1.42005,0.98546,17,32765
7.2619,1.3962,0.983355,17,32765
7.28612,1.37568,0.985111,17,32765
7.31015,1.35515,0.987533,17,32765
7.27587,1.32384,0.980179,17,32765
7.29995,1.30307,0.981416,18,32765
7.3044,1.27889,0.980058,17,32765
7.30879,1.25462,0.978755,18,32765
7.33249,1.23377,0.980982,17,32765
7.34644,1.2114,0.981052,17,32765
7.37015,1.19019,0.982505,17,32765
7.34481,1.16139,0.977215,17,32765
7.41733,1.14774,0.985267,17,32765
7.38208,1.1169,0.978921,17,32765
7.42509,1.09803,0.983477,17,32765
7.44851,1.07566,0.985259,17,32765
7.44243,1.04945,0.982458,17,32765
7.43618,1.0231,0.980498,17,32765
7.479,1.00355,0.984693,17,32765
7.47254,0.977494,0.982659,16,32765
7.48572,0.953877,0.982943,17,32765
7.47912,0.927894,0.980682,16,32765
7.53147,0.909273,0.986235,17,32765
7.49518,0.879888,0.979853,17,32765
7.50799,0.856574,0.980195,16,32765
7.53067,0.833741,0.981536,16,32765
7.54333,0.809975,0.982172,16,32765
7.54613,0.784794,0.981075,16,32765
7.54887,0.759803,0.97967,17,32765
7.57117,0.736742,0.981547,16,32765
7.57387,0.711241,0.979519,15,32765
7.59604,0.68785,0.981389,16,32765
7.58858,0.661687,0.978758,17,32765
7.62052,0.639234,0.981438,16,32765
7.37547,0.594481,0.949024,14,32765
7.10068,0.548887,0.911857,13,32765
7.04314,0.52143,0.903737,17,32765
7.07472,0.500349,0.905802,26,32765
7.08632,0.477614,0.906431,27,32765
7.10786,0.455293,0.907415,27,32765
7.12936,0.432816,0.90825,27,32765
7.13089,0.40956,0.906982,27,32765
7.15221,0.387299,0.907876,27,32765
7.15347,0.364296,0.907519,27,32765
7.17453,0.34232,0.909111,27,32765
7.17581,0.319108,0.907449,27,32765
7.16701,0.295435,0.905295,26,32765
7.19797,0.273056,0.906789,27,32765
7.19899,0.249627,0.905469,26,32765
7.20987,0.226421,0.905199,27,32765
7.22077,0.202819,0.904276,26,32765
7.26127,0.180553,0.907633,26,32765
7.27197,0.156904,0.907034,26,32765
7.28259,0.133301,0.906483,23,32765
7.31288,0.110234,0.909177,28,32765
7.30353,0.0862095,0.905878,20,32765
7.52236,0.0646728,0.93079,16,32765
7.7114,0.0416005,0.951562,15,32765
7.91034,0.0176952,0.973224,15,32765
7.89086,-0.00741391,0.967859,15,32765
7.93081,-0.0331377,0.970211,15,32765
7.91113,-0.0584145,0.965137,15,32765
7.95106,-0.084308,0.966273,15,32765
7.91146,-0.108398,0.958076,14,32765
6.88109,2.24305,0.953593,18,32765
6.90713,2.22664,0.957105,18,32765
6.91411,2.20447,0.957981,18,32765
6.92089,2.18291,0.958469,19,32765
6.92779,2.16124,0.957724,18,32765
6.96308,2.14789,0.96155,17,32765
6.96984,2.12542,0.962475,17,32765
6.94835,2.09399,0.958126,18,32765
6.93626,2.06573,0.954448,18,32765
6.96203,2.04874,0.956645,18,32765
6.99727,2.03465,0.959609,17,32765
6.94652,1.99577,0.952293,17,32765
6.97214,1.97858,0.954227,17,32765
7.01705,1.96625,0.957829,17,32765
7.0331,1.94557,0.959054,17,32765
7.03971,1.92216,0.957833,19,32765
7.04597,1.8992,0.957566,18,32765
7.07139,1.88127,0.959481,18,32765
7.05843,1.85338,0.955563,17,32765
7.07406,1.83298,0.956434,17,32765
7.08018,1.80982,0.955271,17,32765
7.07654,1.78429,0.953121,17,32765
7.13066,1.77315,0.958011,17,32765
7.09797,1.74051,0.952029,17,32765
7.14239,1.72628,0.956197,17,32765
7.1482,1.70257,0.95526,17,32765
7.13466,1.67421,0.951684,17,32765
7.1598,1.65467,0.952584,16,32765
7.1459,1.6266,0.949963,16,32765
7.19011,1.61173,0.953674,16,32765
7.17622,1.58391,0.949323,16,32765
7.19108,1.56289,0.949784,16,32765
7.17716,1.5348,0.944882,15,32765
7.21152,1.51691,0.947557,16,32765
7.22657,1.49441,0.947103,16,32765
7.23164,1.47024,0.94624,16,32765
7.25596,1.45043,0.948133,16,32765
7.25123,1.42466,0.944744,15,32765
7.26571,1.40284,0.945004,16,32765
7.26074,1.37695,0.942441,15,32765
7.28502,1.35638,0.943232,16,32765
7.27984,1.33066,0.940711,16,32765
7.33329,1.31487,0.945536,15,32765
7.29875,1.28367,0.938779,15,32765
7.3422,1.26614,0.942949,15,32765
7.32698,1.23852,0.938919,15,32765
7.31159,1.21137,0.934986,15,32765
7.35492,1.19336,0.938688,15,32765
7.31986,1.16255,0.932226,15,32765
7.40234,1.14995,0.941011,15,32765
7.40631,1.12512,0.939753,15,32765
7.41995,1.10211,0.939845,16,32765
7.43362,1.07884,0.939295,15,32765
7.43729,1.05451,0.937894,15,32765
7.42123,1.02686,0.934584,14,32765
7.4739,1.00884,0.939674,14,32765
7.5168,0.989198,0.942732,14,32765
7.52019,0.964139,0.941677,14,32765
7.55295,0.943387,0.944402,15,32765
7.5464,0.917365,0.941252,15,32765
7.52976,0.890502,0.937753,15,32765
7.49321,0.861473,0.93259,15,32765
7.53558,0.841107,0.936611,15,32765
7.59777,0.822551,0.941957,14,32765
7.58085,0.794913,0.938772,14,32765
7.58364,0.769579,0.937329,14,32765
7.54661,0.740756,0.932524,15,32765
7.60838,0.72175,0.938921,15,32765
7.63056,0.698893,0.940514,14,32765
7.59338,0.670136,0.9348,14,32765
7.63516,0.6484,0.939344,14,32765
7.63737,0.622943,0.938549,14,32765
7.46136,0.583518,0.916087,13,32765
7.15644,0.536188,0.877912,12,32765
7.06913,0.50635,0.866345,14,32765
7.0906,0.484879,0.868226,22,32765
7.12183,0.464067,0.871911,22,32765
7.10358,0.439558,0.868805,22,32765
7.13473,0.418289,0.872165,23,32765
7.13609,0.395008,0.87187,23,32765
7.12742,0.371457,0.870635,22,32765
7.15834,0.34982,0.874198,23,32765
7.16933,0.326936,0.875648,22,32765
7.17034,0.303517,0.875746,22,32765
7.19114,0.280615,0.878206,22,32765
7.22171,0.258222,0.88243,22,32765
7.25221,0.235786,0.886556,24,32765
7.27265,0.212777,0.890081,19,32765
7.27333,0.188982,0.889881,19,32765
7.25403,0.164444,0.887792,24,32765
7.31396,0.142106,0.895917,16,32765
7.32421,0.118466,0.897963,18,32765
7.32447,0.0946758,0.898629,21,32765
7.63225,0.0741286,0.937786,13,32765
7.84074,0.050591,0.964467,14,32765
7.90021,0.0256094,0.973471,14,32765
7.88023,0.000205568,0.972372,14,32765
7.8402,-0.0245448,0.969874,14,32765
7.91926,-0.0499259,0.981476,14,32765
7.91883,-0.0760933,0.983263,14,32765
7.93791,-0.102393,0.98952,14,32765
6.90719,2.25499,0.887779,23,32765
6.89553,2.22627,0.886249,23,32765
6.92144,2.21014,0.889552,23,32765
6.92825,2.18851,0.890039,22,32765
6.93517,2.16678,0.889291,23,32765
6.95156,2.14753,0.890405,21,32765
6.94885,2.12216,0.890112,20,32765
6.96534,2.10221,0.890904,20,32765
6.97228,2.07952,0.889836,22,32765
6.9886,2.05957,0.890629,22,32765
6.99532,2.03705,0.889671,22,32765
6.98269,2.00907,0.887765,22,32765
7.00838,1.99174,0.889507,22,32765
7.03425,1.97391,0.890306,22,32765
7.02165,1.94519,0.887807,22,32765
7.0474,1.92701,0.889002,22,32765
7.04411,1.9014,0.887525,21,32765
7.05038,1.87834,0.886838,21,32765
7.05659,1.85551,0.88552,21,32765
7.09146,1.84006,0.888704,21,32765
7.08798,1.81435,0.886334,21,32765
7.07473,1.78632,0.883074,20,32765
7.10963,1.77036,0.885096,21,32765
7.11546,1.7472,0.884282,21,32765
7.14065,1.72822,0.885679,20,32765
7.11749,1.69757,0.881153,20,32765
7.14258,1.67833,0.882544,19,32765
7.13872,1.65203,0.879678,20,32765
7.13448,1.62618,0.878435,19,32765
7.17873,1.61133,0.881773,19,32765
7.16481,1.58349,0.87761,19,32765
7.18939,1.56457,0.879164,20,32765
7.19485,1.5406,0.876815,19,32765
7.20983,1.51853,0.876842,18,32765
7.20544,1.49197,0.873935,18,32765
7.20077,1.46585,0.871895,18,32765
7.25431,1.45195,0.877135,19,32765
7.24956,1.42613,0.873839,18,32765
7.25431,1.4024,0.872831,17,32765
7.27859,1.38206,0.873877,18,32765
7.26384,1.35412,0.869799,17,32765
7.26841,1.33021,0.868542,17,32765
7.31214,1.31267,0.871735,17,32765
7.31666,1.28837,0.870008,17,32765
7.35038,1.26908,0.872639,17,32765
7.32535,1.23972,0.867634,17,32765
7.35893,1.22064,0.869678,18,32765
7.36311,1.19608,0.86837,18,32765
7.38687,1.17454,0.869206,18,32765
7.37132,1.14644,0.865703,17,32765
7.39492,1.12465,0.866752,18,32765
7.43804,1.10602,0.8702,18,32765
7.38291,1.07266,0.861521,17,32765
7.44556,1.05682,0.867001,17,32765
7.459,1.03318,0.867309,16,32765
7.44284,1.0057,0.863925,16,32765
7.48576,0.986126,0.866616,16,32765
7.49898,0.962392,0.866703,17,32765
7.49233,0.936743,0.864599,16,32765
7.48573,0.910875,0.861558,18,32765
7.52824,0.891169,0.865057,17,32765
7.52126,0.8655,0.863668,16,32765
7.57356,0.846108,0.868443,16,32765
7.54692,0.817762,0.863049,16,32765
7.54972,0.792321,0.862314,16,32765
7.55249,0.767047,0.860877,15,32765
7.58464,0.745075,0.864334,16,32765
7.56735,0.718398,0.861158,16,32765
7.58953,0.695634,0.862568,16,32765
7.59189,0.670459,0.861727,16,32765
7.65351,0.650373,0.868142,16,32765
7.63592,0.623193,0.865101,16,32765
7.65785,0.599208,0.86675,16,32765
7.48146,0.560814,0.846033,15,32765
7.31484,0.524174,0.826323,14,32765
7.18767,0.491698,0.811213,24,32765
7.18921,0.468597,0.811261,26,32765
7.24038,0.448122,0.816162,20,32765
7.25175,0.425207,0.817001,18,32765
7.20352,0.398757,0.811114,27,32765
7.19485,0.374947,0.809972,25,32765
7.28537,0.355961,0.819957,29,32765
7.42544,0.338505,0.835844,18,32765
7.47614,0.316306,0.841533,17,32765
7.24876,0.282671,0.815867,29,32765
7.26944,0.259693,0.818697,23,32765
7.33971,0.238351,0.827021,27,32765
7.38998,0.215885,0.833734,21,32765
7.58935,0.196815,0.855938,16,32765
7.30182,0.165121,0.823789,28,32765
7.31216,0.141622,0.825749,25,32765
7.32242,0.117944,0.8277,20,32765
7.34257,0.0943729,0.830615,27,32765
7.57121,0.0729383,0.857865,15,32765
7.86937,0.0501088,0.892715,16,32765
7.8693,0.0247966,0.894388,15,32765
7.88906,-0.000554192,0.897996,15,32765
7.88874,-0.0255024,0.900411,16,32765
7.89835,-0.0506461,0.903322,15,32765
7.91781,-0.0769847,0.907382,15,32765
7.91707,-0.103074,0.911165,16,32765
6.88757,2.24082,0.911128,18,32765
6.89541,2.21847,0.906456,19,32765
6.90337,2.19559,0.901562,18,32765
6.90147,2.17046,0.896034,19,32765
6.90871,2.14864,0.892837,18,32765
6.94459,2.13536,0.891828,18,32765
6.94235,2.1102,0.887066,17,32765
6.98766,2.09909,0.888226,17,32765
6.94713,2.06248,0.87953,18,32765
6.97326,2.04561,0.878354,19,32765
6.98011,2.02312,0.876083,18,32765
6.9871,2.00042,0.872443,18,32765
7.03223,1.9882,0.874272,18,32765
7.03913,1.96501,0.871167,18,32765
7.046,1.94153,0.868288,18,32765
7.05267,1.91822,0.865958,18,32765
7.05931,1.89509,0.862765,19,32765
7.06576,1.87202,0.860299,18,32765
7.09125,1.85431,0.860295,18,32765
7.11676,1.83645,0.859728,18,32765
7.12295,1.81337,0.857492,18,32765
7.12904,1.79043,0.855096,18,32765
7.09653,1.75766,0.848248,18,32765
7.12189,1.73923,0.84747,18,32765
7.12782,1.71567,0.845635,17,32765
7.14334,1.69432,0.845046,17,32765
7.1297,1.66638,0.84109,17,32765
7.15482,1.64703,0.841375,16,32765
7.17983,1.62784,0.841623,17,32765
7.18534,1.60401,0.840343,16,32765
7.19094,1.5802,0.837493,17,32765
7.19626,1.55657,0.836114,16,32765
7.2017,1.53259,0.833528,16,32765
7.22629,1.51309,0.834375,16,32765
7.24113,1.49133,0.834014,16,32765
7.24619,1.46736,0.83261,16,32765
7.24138,1.44159,0.830135,16,32765
7.26578,1.42136,0.831022,15,32765
7.27075,1.39727,0.828431,16,32765
7.30466,1.37877,0.831435,16,32765
7.28978,1.35127,0.827514,16,32765
7.33339,1.33462,0.830747,16,32765
7.34776,1.31197,0.830183,15,32765
7.31296,1.28084,0.825197,15,32765
7.32719,1.25819,0.824385,16,32765
7.34121,1.23527,0.82512,15,32765
7.36504,1.21406,0.826016,16,32765
7.39862,1.194,0.828509,16,32765
7.38318,1.16597,0.824404,16,32765
7.39694,1.14275,0.824782,15,32765
7.42054,1.12086,0.825715,15,32765
7.3849,1.0905,0.821071,15,32765
7.45756,1.07565,0.827123,15,32765
7.43163,1.04676,0.823189,15,32765
7.44505,1.02372,0.82271,16,32765
7.52739,1.00949,0.830065,14,32765
7.47157,0.976956,0.823159,14,32765
7.47493,0.951972,0.821912,14,32765
7.4781,0.927327,0.821304,14,32765
7.54056,0.90968,0.825899,14,32765
7.50419,0.880016,0.820212,15,32765
7.56634,0.862282,0.82615,15,32765
7.56925,0.837173,0.825308,14,32765
7.57209,0.812283,0.824138,14,32765
7.61441,0.79123,0.827475,14,32765
7.57754,0.762025,0.822045,14,32765
7.61975,0.740776,0.825011,14,32765
7.60262,0.713369,0.82077,14,32765
7.64464,0.691891,0.824068,14,32765
7.60737,0.663057,0.818925,15,32765
7.64928,0.641022,0.822185,15,32765
7.65153,0.615666,0.820644,14,32765
7.68345,0.592334,0.822381,14,32765
7.65572,0.564857,0.818117,14,32765
7.6179,0.537214,0.813221,14,32765
7.63961,0.513752,0.813892,14,32765
7.294,0.466897,0.775943,17,32765
7.33535,0.445443,0.778673,22,32765
7.4263,0.426648,0.786361,16,32765
7.69586,0.416926,0.813899,14,32765
7.35968,0.374516,0.776527,17,32765
7.23182,0.344675,0.761815,26,32765
7.27285,0.322778,0.764138,18,32765
7.28398,0.299299,0.763493,23,32765
7.38446,0.27904,0.772506,16,32765
7.34575,0.2532,0.766803,17,32765
7.26721,0.226676,0.756601,25,32765
7.2581,0.202775,0.754188,19,32765
7.32844,0.18081,0.760403,17,32765
7.35906,0.1577,0.761209,18,32765
7.55859,0.137429,0.780301,14,32765
7.36027,0.110314,0.757824,21,32765
7.34092,0.086467,0.753504,21,32765
7.36132,0.0634775,0.752958,21,32765
7.36159,0.0402145,0.751866,21,32765
7.71019,0.0166841,0.784369,13,32765
7.93925,-0.00869664,0.805428,14,32765
7.89968,-0.0342284,0.79839,14,32765
7.93963,-0.0589509,0.799518,14,32765
7.91984,-0.0833567,0.794265,14,32765
7.97959,-0.109603,0.79654,14,32765
6.90383,2.24964,0.843997,24,32765
6.93059,2.23328,0.841609,24,32765
6.93857,2.21024,0.836688,24,32765
6.93667,2.18495,0.831229,22,32765
6.93446,2.16001,0.826882,23,32765
6.95137,2.14078,0.823324,23,32765
6.97765,2.12423,0.82201,23,32765
6.97543,2.09868,0.8172,21,32765
6.98247,2.07619,0.814531,21,32765
6.9705,2.04797,0.808722,21,32765
7.00598,2.03375,0.80976,22,32765
7.00343,2.00818,0.805006,21,32765
7.02948,1.99048,0.804263,21,32765
7.0268,1.96458,0.800068,22,32765
7.03365,1.9411,0.797191,23,32765
7.0499,1.9204,0.795946,21,32765
7.05653,1.89723,0.792752,21,32765
7.06297,1.87412,0.790286,21,32765
7.06924,1.85136,0.78795,21,32765
7.07549,1.82856,0.785067,21,32765
7.10091,1.81048,0.784972,21,32765
7.10697,1.78757,0.782582,21,32765
7.09371,1.7596,0.778231,21,32765
7.09975,1.73642,0.775156,21,32765
7.13467,1.71987,0.776481,20,32765
7.12118,1.69157,0.772647,20,32765
7.14624,1.67271,0.773072,20,32765
7.14232,1.64657,0.770028,20,32765
7.14794,1.62298,0.768007,19,32765
7.19225,1.60789,0.770893,19,32765
7.19785,1.58402,0.768038,19,32765
7.18373,1.55612,0.764588,19,32765
