x, y, z, intensity, ring
1.56908,-0.25679,-0.0126501,19,32765
1.54846,-0.25886,-0.0124214,19,32765
1.58699,-0.270909,-0.0124902,19,32765
1.56638,-0.27277,-0.0123936,19,32765
1.56543,-0.278177,-0.0117798,19,32765
1.61369,-0.292349,-0.0120768,20,32765
1.5832,-0.292316,-0.0117677,19,32765
1.57237,-0.295837,-0.0114908,19,32765
1.55174,-0.297289,-0.0112702,19,32765
1.5409,-0.300682,-0.0110772,19,32765
1.57913,-0.313569,-0.0112963,19,32765
1.56826,-0.316911,-0.011129,19,32765
1.54761,-0.318081,-0.0108342,19,32765
1.54656,-0.323192,-0.0106373,19,32765
1.54547,-0.328362,-0.0104158,19,32765
1.55415,-0.335603,-0.0101597,19,32765
1.57252,-0.345217,-0.0102201,19,32765
1.56159,-0.348325,-0.00989831,19,32765
1.56043,-0.353489,-0.00958916,19,32765
1.53975,-0.354243,-0.00929376,19,32765
1.52883,-0.357073,-0.00897762,19,32765
1.5179,-0.359855,-0.00860893,19,32765
1.55561,-0.374176,-0.00852246,19,32765
1.51552,-0.369797,-0.00798361,19,32765
1.50458,-0.372383,-0.00754951,19,32765
1.56155,-0.391916,-0.00747854,20,32765
1.52149,-0.387207,-0.00717545,19,32765
1.54926,-0.399694,-0.00696046,19,32765
1.5286,-0.399675,-0.00637706,19,32765
1.49828,-0.397002,-0.0058703,20,32765
1.52596,-0.409661,-0.00560771,19,32765
1.51494,-0.41211,-0.00535584,19,32765
1.51357,-0.417102,-0.00474498,19,32765
1.50257,-0.41938,-0.0041382,19,32765
1.50118,-0.424313,-0.00381154,19,32765
1.49978,-0.429244,-0.00331363,19,32765
1.50798,-0.436923,-0.00279427,19,32765
1.50657,-0.441764,-0.00232996,19,32765
1.48598,-0.440874,-0.00181378,19,32765
1.50371,-0.45138,-0.00110023,19,32765
1.50226,-0.456194,-0.000543176,20,32765
1.48165,-0.455221,2.92253e-06,19,32765
1.49927,-0.465931,0.000609354,19,32765
1.4596,-0.458774,0.0014374,18,32765
1.5153,-0.481617,0.00213009,18,32765
1.47569,-0.474158,0.00292936,17,32765
1.48367,-0.48197,0.00361517,18,32765
1.51067,-0.495944,0.0047388,19,32765
1.63975,0.0251619,-0.0139859,18,32765
1.65981,0.019962,-0.0150823,18,32765
1.63986,0.0142933,-0.0155774,18,32765
1.64989,0.00885438,-0.0163976,18,32765
1.64991,0.00336833,-0.0168575,19,32765
1.63991,-0.00217545,-0.0174822,18,32765
1.64988,-0.00772215,-0.0179272,19,32765
1.63984,-0.0131536,-0.0184055,18,32765
1.62979,-0.0185311,-0.0187942,18,32765
1.62971,-0.0238771,-0.0190312,18,32765
1.61963,-0.0290365,-0.0192757,19,32765
1.62951,-0.0345966,-0.0197702,18,32765
1.61939,-0.0397175,-0.0201187,18,32765
1.64922,-0.0461443,-0.0207413,19,32765
1.61907,-0.0507601,-0.0206847,18,32765
1.63887,-0.0569504,-0.0211529,19,32765
1.6087,-0.0612321,-0.0210575,19,32765
1.62847,-0.0673136,-0.0215244,18,32765
1.60825,-0.071837,-0.0214322,19,32765
1.62798,-0.0780808,-0.0218688,18,32765
1.63769,-0.0840991,-0.0222193,19,32765
1.61743,-0.088505,-0.022185,19,32765
1.61712,-0.0939313,-0.0222535,19,32765
1.62678,-0.0999519,-0.022492,18,32765
1.61646,-0.104662,-0.0225711,19,32765
1.62608,-0.110722,-0.0228306,19,32765
1.61572,-0.115417,-0.022741,19,32765
1.60536,-0.120067,-0.0227062,19,32765
1.59497,-0.124714,-0.0226266,18,32765
1.59454,-0.130081,-0.0227506,19,32765
1.57417,-0.133781,-0.0225035,18,32765
1.59362,-0.140872,-0.0227691,19,32765
1.6031,-0.147083,-0.0229727,19,32765
1.5827,-0.150509,-0.0227696,19,32765
1.60209,-0.157723,-0.0231142,19,32765
1.5916,-0.1621,-0.0228701,19,32765
1.5811,-0.166439,-0.0227817,19,32765
1.57059,-0.170758,-0.0224308,19,32765
1.55012,-0.173859,-0.0221281,19,32765
1.5992,-0.184735,-0.0227613,19,32765
1.56879,-0.186571,-0.0222808,19,32765
1.56816,-0.191788,-0.0221859,18,32765
1.56751,-0.197036,-0.0221323,19,32765
1.57675,-0.203605,-0.0222702,19,32765
1.57607,-0.208876,-0.0219847,19,32765
1.57536,-0.21417,-0.0219547,19,32765
1.56473,-0.218006,-0.0222094,20,32765
1.5739,-0.224637,-0.022141,19,32765
1.57313,-0.229958,-0.0220685,19,32765
1.57234,-0.235273,-0.0221346,20,32765
1.54187,-0.236142,-0.0216002,18,32765
1.57069,-0.24608,-0.0218452,20,32765
1.55997,-0.24985,-0.021468,20,32765
1.55912,-0.255147,-0.0214299,19,32765
1.52867,-0.255381,-0.0211435,19,32765
1.54752,-0.263865,-0.0215012,19,32765
1.53678,-0.267334,-0.0211029,19,32765
1.53586,-0.272573,-0.0207952,19,32765
1.53494,-0.277822,-0.0196705,19,32765
1.55366,-0.286595,-0.0199541,19,32765
1.54286,-0.290001,-0.0195815,19,32765
1.53205,-0.293337,-0.0192788,19,32765
1.52125,-0.296559,-0.0190425,19,32765
1.50062,-0.297806,-0.0187192,18,32765
1.53882,-0.310735,-0.019096,19,32765
1.54758,-0.317879,-0.0189807,19,32765
1.54649,-0.323112,-0.0187687,19,32765
1.53563,-0.326175,-0.0185643,20,32765
1.52475,-0.329234,-0.0183543,19,32765
1.51388,-0.33216,-0.0181561,19,32765
1.53228,-0.341577,-0.0183501,19,32765
1.52137,-0.344529,-0.0179872,19,32765
1.52996,-0.35186,-0.0180304,19,32765
1.49955,-0.350189,-0.0176075,19,32765
1.5081,-0.357507,-0.0175904,19,32765
1.52636,-0.367174,-0.017651,20,32765
1.5057,-0.367499,-0.0174579,18,32765
1.5045,-0.37239,-0.0172727,19,32765
1.50326,-0.377393,-0.0172935,19,32765
1.5214,-0.387203,-0.0174245,19,32765
1.51045,-0.389677,-0.0173618,19,32765
1.51883,-0.397194,-0.0173229,19,32765
1.51751,-0.402204,-0.0172466,19,32765
1.49686,-0.402026,-0.0169206,19,32765
1.50519,-0.409537,-0.0171012,19,32765
1.49419,-0.411833,-0.0168924,19,32765
1.47356,-0.411379,-0.0166901,19,32765
1.47223,-0.416123,-0.0166137,19,32765
1.48047,-0.423712,-0.016731,19,32765
1.4791,-0.428483,-0.0167057,19,32765
1.4777,-0.433257,-0.016741,18,32765
1.50506,-0.44654,-0.0171129,18,32765
1.5228,-0.457048,-0.01737,16,32765
1.52131,-0.461945,-0.0175542,16,32765
1.46249,-0.449161,-0.0168877,17,32765
1.48013,-0.459799,-0.017244,18,32765
1.45957,-0.458527,-0.0171905,19,32765
1.44861,-0.460024,-0.0173072,19,32765
1.45669,-0.4676,-0.017651,19,32765
1.41715,-0.459885,-0.017446,19,32765
1.43466,-0.470671,-0.0180226,19,32765
1.68953,0.02597,-0.0303534,18,32765
1.69959,0.0204712,-0.0314811,19,32765
1.69963,0.0148314,-0.0321826,19,32765
1.68966,0.00907115,-0.032736,18,32765
1.67967,0.00341909,-0.0330105,18,32765
1.67966,-0.00225193,-0.0337549,18,32765
1.66964,-0.00785155,-0.0338964,19,32765
1.68958,-0.0136036,-0.0349071,19,32765
1.67952,-0.0191609,-0.0352167,19,32765
1.68944,-0.02483,-0.035672,18,32765
1.66935,-0.030018,-0.0356221,19,32765
1.68922,-0.035969,-0.0364379,19,32765
1.68909,-0.041545,-0.0369279,19,32765
1.67893,-0.0471068,-0.0369637,18,32765
1.66876,-0.052462,-0.037074,19,32765
1.67856,-0.058488,-0.0375139,19,32765
1.66836,-0.063674,-0.0375928,19,32765
1.67813,-0.0695514,-0.0380292,19,32765
1.67788,-0.0751456,-0.0382085,18,32765
1.66764,-0.0801931,-0.0381554,19,32765
1.68732,-0.0868742,-0.038835,19,32765
1.67703,-0.0920051,-0.0388505,19,32765
1.65675,-0.0964824,-0.0384579,19,32765
1.67637,-0.103265,-0.0390252,19,32765
1.65606,-0.107502,-0.0387829,19,32765
1.64572,-0.112346,-0.0386706,18,32765
1.64533,-0.117833,-0.0387217,18,32765
1.65489,-0.124087,-0.039065,19,32765
1.68436,-0.132038,-0.0398356,18,32765
1.66398,-0.13609,-0.0394933,19,32765
1.63362,-0.139186,-0.0388222,19,32765
1.65306,-0.146495,-0.0392754,19,32765
1.65256,-0.152004,-0.0393382,19,32765
1.65204,-0.1575,-0.0394237,19,32765
1.63161,-0.161034,-0.0390078,19,32765
1.641,-0.167552,-0.0391416,19,32765
1.64042,-0.173118,-0.0391978,19,32765
1.63983,-0.178734,-0.0389807,19,32765
1.62928,-0.183195,-0.0387243,19,32765
1.6088,-0.186309,-0.0381752,19,32765
1.58831,-0.189365,-0.0376464,19,32765
1.60752,-0.197093,-0.0380193,19,32765
1.62669,-0.204986,-0.0384327,19,32765
1.60615,-0.20792,-0.0379613,19,32765
1.62527,-0.215935,-0.0381351,19,32765
1.58492,-0.216007,-0.0371744,19,32765
1.60398,-0.224033,-0.0380412,19,32765
1.59333,-0.227979,-0.0375944,19,32765
1.62223,-0.237727,-0.0382196,19,32765
1.61153,-0.241738,-0.0380538,19,32765
1.59092,-0.244261,-0.0374659,19,32765
1.59995,-0.25129,-0.0375245,19,32765
1.59909,-0.256754,-0.0372782,19,32765
1.53901,-0.252485,-0.0358593,19,32765
1.5776,-0.264213,-0.0369026,19,32765
1.59641,-0.272881,-0.0374509,19,32765
1.5758,-0.274805,-0.03672,19,32765
1.59454,-0.283693,-0.0368589,19,32765
1.57391,-0.285585,-0.03525,19,32765
1.56311,-0.289056,-0.0350607,19,32765
1.5916,-0.299908,-0.0354675,19,32765
1.58076,-0.303418,-0.0350643,19,32765
1.58955,-0.310646,-0.0351636,19,32765
1.6179,-0.321883,-0.0357305,20,32765
1.59722,-0.323332,-0.0351799,19,32765
1.57655,-0.324639,-0.0345063,19,32765
1.55588,-0.325884,-0.0338636,19,32765
1.57434,-0.335232,-0.0342011,19,32765
1.56343,-0.338429,-0.0338939,20,32765
1.55253,-0.341492,-0.0335988,19,32765
1.57089,-0.351061,-0.0339794,19,32765
1.5502,-0.351937,-0.0333059,19,32765
1.53927,-0.354889,-0.0330231,19,32765
1.52833,-0.357806,-0.0327335,19,32765
1.52713,-0.362925,-0.0325996,19,32765
1.53564,-0.370334,-0.0326391,19,32765
1.5344,-0.375444,-0.0326707,19,32765
1.53317,-0.38044,-0.0324812,19,32765
1.53189,-0.385551,-0.0325016,19,32765
1.55001,-0.395477,-0.0328184,19,32765
1.56806,-0.405562,-0.0332779,20,32765
1.52803,-0.40061,-0.0323042,19,32765
1.51703,-0.403094,-0.0320227,19,32765
1.54465,-0.415913,-0.0325241,19,32765
1.51435,-0.413073,-0.0319852,18,32765
1.53225,-0.423395,-0.0322901,18,32765
1.5501,-0.433845,-0.0327119,19,32765
1.54869,-0.438847,-0.0326306,18,32765
1.54724,-0.443949,-0.0326389,17,32765
1.69941,-0.493563,-0.0358524,12,32765
1.64025,-0.482144,-0.0346752,12,32765
1.51411,-0.450374,-0.0320843,15,32765
1.49353,-0.449411,-0.0317156,18,32765
1.50163,-0.457137,-0.0320998,19,32765
1.50017,-0.461917,-0.0320946,19,32765
1.49867,-0.466754,-0.032231,19,32765
1.48763,-0.468544,-0.032197,19,32765
1.50521,-0.479231,-0.0328469,19,32765
1.49418,-0.480875,-0.0328739,18,32765
1.46411,-0.476358,-0.0325098,19,32765
1.51005,-0.496691,-0.0339247,19,32765
1.68884,0.0283809,-0.0557641,18,32765
1.69894,0.0227978,-0.0555616,18,32765
1.65904,0.0167559,-0.0538485,18,32765
1.6591,0.0113977,-0.0535693,18,32765
1.65914,0.0058162,-0.0531779,18,32765
1.66915,0.000163743,-0.0531867,18,32765
1.62918,-0.00530523,-0.0515719,18,32765
1.62915,-0.0107549,-0.0513792,18,32765
1.64911,-0.0162785,-0.0517974,18,32765
1.63906,-0.0216182,-0.0510949,19,32765
1.64898,-0.0271883,-0.05133,19,32765
1.65888,-0.0328649,-0.0513129,18,32765
1.64876,-0.0382702,-0.0511311,18,32765
1.63864,-0.043634,-0.0505606,18,32765
1.6285,-0.0489963,-0.0499409,18,32765
1.62832,-0.0545538,-0.0498662,18,32765
1.66809,-0.0614263,-0.0509454,19,32765
1.60796,-0.0645759,-0.0490245,19,32765
1.63769,-0.0712477,-0.0499261,19,32765
1.62746,-0.0762897,-0.049512,19,32765
1.63718,-0.0822613,-0.0496539,18,32765
1.6369,-0.087783,-0.0494665,18,32765
1.62662,-0.0926782,-0.0491815,19,32765
1.62631,-0.0980806,-0.0488305,18,32765
1.60603,-0.10226,-0.0481631,19,32765
1.62562,-0.109007,-0.0487136,19,32765
1.62525,-0.114494,-0.0484984,19,32765
1.65476,-0.122219,-0.0492927,19,32765
1.62444,-0.125494,-0.0484581,19,32765
1.60408,-0.129382,-0.047822,18,32765
1.62356,-0.136456,-0.0482986,19,32765
1.60318,-0.140218,-0.0475759,18,32765
1.6027,-0.145671,-0.0474104,19,32765
1.59224,-0.150167,-0.0470259,18,32765
1.59172,-0.155585,-0.0469684,19,32765
1.60113,-0.161967,-0.0472922,19,32765
1.59065,-0.166273,-0.0468668,19,32765
1.60996,-0.173756,-0.0473565,19,32765
1.59944,-0.178024,-0.0470179,19,32765
1.59883,-0.183415,-0.0470575,19,32765
1.61806,-0.191164,-0.0474551,19,32765
1.6174,-0.196595,-0.0474717,20,32765
1.59689,-0.199659,-0.0467311,19,32765
1.58629,-0.203822,-0.0463191,19,32765
1.57568,-0.207867,-0.0459492,19,32765
1.56507,-0.211859,-0.0455459,19,32765
1.59404,-0.221254,-0.0465662,19,32765
1.5834,-0.22522,-0.0461693,20,32765
1.60241,-0.233476,-0.046543,19,32765
1.57195,-0.234489,-0.0456916,19,32765
1.58103,-0.241367,-0.0457668,18,32765
1.57032,-0.245175,-0.0455173,18,32765
1.58923,-0.253621,-0.0460283,20,32765
1.55877,-0.254174,-0.0449775,19,32765
1.56776,-0.261099,-0.0452304,19,32765
1.57673,-0.268056,-0.0454584,19,32765
1.56598,-0.271633,-0.0449669,19,32765
1.57491,-0.278608,-0.0450862,19,32765
1.5543,-0.280307,-0.044333,19,32765
1.57302,-0.289111,-0.0448128,19,32765
1.57203,-0.294442,-0.0449322,20,32765
1.5514,-0.296026,-0.0438722,19,32765
1.53076,-0.297527,-0.0431333,19,32765
1.54936,-0.306541,-0.043687,19,32765
1.55811,-0.313815,-0.0436809,20,32765
1.52767,-0.313051,-0.0426511,19,32765
1.5462,-0.322182,-0.043103,19,32765
1.54512,-0.327345,-0.042889,19,32765
1.53427,-0.330337,-0.0423846,19,32765
1.54291,-0.337668,-0.0424088,19,32765
1.54178,-0.342845,-0.0421401,19,32765
1.53089,-0.345749,-0.041602,19,32765
1.53948,-0.353063,-0.0416452,19,32765
1.53833,-0.358084,-0.0413312,18,32765
1.53715,-0.36317,-0.0410918,19,32765
1.52624,-0.365877,-0.0404962,19,32765
1.52502,-0.370939,-0.0401188,19,32765
1.50438,-0.371226,-0.0392156,19,32765
1.49346,-0.37375,-0.0385877,18,32765
1.51159,-0.383659,-0.0387981,19,32765
1.52002,-0.391088,-0.0387591,20,32765
1.49939,-0.391014,-0.0378379,19,32765
1.50777,-0.398492,-0.0376805,19,32765
1.50649,-0.403351,-0.0372389,19,32765
1.51481,-0.410939,-0.0370863,19,32765
1.49418,-0.410631,-0.0362757,19,32765
1.49283,-0.415558,-0.0357516,19,32765
1.50109,-0.423168,-0.0354968,18,32765
1.51893,-0.433583,-0.0354025,19,32765
1.63276,-0.471896,-0.0376645,13,32765
1.75597,-0.5137,-0.0399689,12,32765
1.46672,-0.434243,-0.032849,14,32765
1.44616,-0.433243,-0.0317804,17,32765
1.49263,-0.452357,-0.0322178,19,32765
1.48159,-0.454302,-0.0315675,19,32765
1.48969,-0.461998,-0.0311154,18,32765
1.46916,-0.460732,-0.0300111,19,32765
1.45818,-0.462338,-0.0291084,18,32765
1.48529,-0.476105,-0.0288291,19,32765
1.47422,-0.477915,-0.0279505,19,32765
1.4442,-0.473266,-0.026567,18,32765
1.69823,0.0285624,-0.0721195,18,32765
1.70833,0.0229339,-0.0720084,19,32765
1.69842,0.0171502,-0.0711719,18,32765
1.71846,0.0117888,-0.07172,19,32765
1.69853,0.00592404,-0.0704853,19,32765
1.70854,0.000123245,-0.070581,19,32765
1.69856,-0.00558887,-0.0698129,19,32765
1.69854,-0.0112843,-0.0696119,19,32765
1.70849,-0.0169499,-0.0698015,19,32765
1.67847,-0.0222349,-0.0681789,19,32765
1.71835,-0.0284452,-0.0697224,19,32765
1.70827,-0.0339693,-0.068979,19,32765
1.70814,-0.0397885,-0.0691107,19,32765
1.69802,-0.0453684,-0.0684364,19,32765
1.67789,-0.0506476,-0.0673102,19,32765
1.67771,-0.0563875,-0.0672331,19,32765
1.70747,-0.0630726,-0.0682857,19,32765
1.69727,-0.0683715,-0.0677906,19,32765
1.68705,-0.0736163,-0.0673794,19,32765
1.65685,-0.0778984,-0.0660715,19,32765
1.67655,-0.0844865,-0.0667015,19,32765
1.67626,-0.0901546,-0.0665095,19,32765
1.656,-0.0946234,-0.0657344,19,32765
1.66566,-0.10074,-0.0657707,19,32765
1.68526,-0.107608,-0.0664865,19,32765
1.66495,-0.111958,-0.0656504,19,32765
1.67454,-0.118296,-0.0658215,19,32765
1.67413,-0.123993,-0.0657217,19,32765
1.66373,-0.128884,-0.0653878,19,32765
1.65333,-0.133721,-0.0649532,19,32765
1.67279,-0.140978,-0.0656144,19,32765
1.6524,-0.144917,-0.0646988,19,32765
1.64195,-0.149644,-0.0641392,19,32765
1.66133,-0.157107,-0.0648223,19,32765
1.66079,-0.162774,-0.064762,19,32765
1.64034,-0.16638,-0.064017,19,32765
1.67953,-0.176036,-0.0654295,19,32765
1.64913,-0.178461,-0.0641692,19,32765
1.66839,-0.186195,-0.0648936,20,32765
1.62804,-0.187265,-0.0633884,19,32765
1.63733,-0.193956,-0.0635852,19,32765
1.64658,-0.200674,-0.063987,18,32765
1.62606,-0.203846,-0.0630547,18,32765
1.665,-0.214503,-0.0644643,19,32765
1.64446,-0.217514,-0.0636124,19,32765
1.63381,-0.22175,-0.0631095,19,32765
1.65284,-0.230021,-0.0640351,19,32765
1.61249,-0.229963,-0.0623912,18,32765
1.59193,-0.232561,-0.061423,18,32765
1.6109,-0.240932,-0.0621963,19,32765
1.61995,-0.24796,-0.0623598,19,32765
1.61909,-0.253455,-0.0623969,19,32765
1.61823,-0.258928,-0.0623337,19,32765
1.61735,-0.264419,-0.0621327,18,32765
1.59673,-0.266622,-0.0613421,18,32765
1.61552,-0.275373,-0.0620409,19,32765
1.6146,-0.280802,-0.0618264,18,32765
1.65301,-0.293193,-0.0631622,20,32765
1.60286,-0.289823,-0.0610861,19,32765
1.62154,-0.29881,-0.061751,19,32765
1.61069,-0.302474,-0.0614985,19,32765
1.61949,-0.309828,-0.0613526,19,32765
1.60861,-0.31348,-0.0607871,18,32765
1.62715,-0.322777,-0.0615284,19,32765
1.59666,-0.322423,-0.0601262,18,32765
1.60536,-0.329833,-0.0602782,18,32765
1.60426,-0.335156,-0.0601789,18,32765
1.60314,-0.340526,-0.0599561,18,32765
1.58247,-0.34161,-0.058984,18,32765
1.60084,-0.351263,-0.0594564,19,32765
1.60941,-0.358823,-0.0595376,19,32765
1.56923,-0.355339,-0.0578153,19,32765
1.57779,-0.362798,-0.0579463,19,32765
1.56687,-0.365684,-0.057268,19,32765
1.57539,-0.373182,-0.0573775,19,32765
1.55473,-0.373686,-0.0563265,19,32765
1.55349,-0.378856,-0.0559412,19,32765
1.56193,-0.386441,-0.0558829,19,32765
1.53158,-0.384297,-0.0544563,19,32765
1.55935,-0.396822,-0.0551894,19,32765
1.58709,-0.409418,-0.0559165,19,32765
1.54708,-0.40451,-0.0541107,19,32765
1.52643,-0.404483,-0.0530269,18,32765
1.55409,-0.417188,-0.0535773,19,32765
1.55271,-0.422328,-0.0531752,18,32765
1.58986,-0.438076,-0.0541356,17,32765
1.53066,-0.427211,-0.0516288,16,32765
1.57735,-0.445838,-0.0527411,14,32765
1.60472,-0.459278,-0.0531245,15,32765
1.48801,-0.431194,-0.0489172,17,32765
1.50579,-0.441674,-0.0490537,19,32765
1.52353,-0.452254,-0.0490879,19,32765
1.51251,-0.454313,-0.0481096,18,32765
1.5015,-0.456246,-0.0471856,19,32765
1.50957,-0.464101,-0.047033,19,32765
1.51764,-0.471905,-0.0466615,19,32765
1.49708,-0.470728,-0.0453547,19,32765
1.50514,-0.478484,-0.044912,19,32765
1.50364,-0.483256,-0.0440504,18,32765
1.50205,-0.488222,-0.0433424,18,32765
1.48152,-0.486775,-0.0419284,18,32765
1.66851,0.0275944,-0.0649145,19,32765
1.66856,0.0219597,-0.0658476,18,32765
1.6586,0.016349,-0.0661888,19,32765
1.6786,0.0109344,-0.0676455,18,32765
1.64863,0.00527265,-0.0669135,18,32765
1.65861,-0.00025502,-0.0680233,19,32765
1.66857,-0.00587889,-0.0689157,19,32765
1.63855,-0.0113036,-0.0680682,19,32765
1.64847,-0.0168742,-0.0690197,19,32765
1.64838,-0.022285,-0.0695488,19,32765
1.6383,-0.0275393,-0.0694402,18,32765
1.62819,-0.0327975,-0.069383,19,32765
1.63805,-0.0385477,-0.0700063,18,32765
1.64788,-0.0445255,-0.0708663,18,32765
1.63771,-0.0498197,-0.0708094,18,32765
1.64751,-0.0556828,-0.0715542,19,32765
1.65728,-0.0615807,-0.0723105,19,32765
1.66705,-0.0674414,-0.0728752,18,32765
1.63686,-0.0716524,-0.0718193,19,32765
1.65656,-0.0780304,-0.0728998,18,32765
1.61637,-0.081488,-0.0713623,19,32765
1.63603,-0.0880207,-0.0725113,18,32765
1.62575,-0.0929014,-0.0721222,19,32765
1.64536,-0.0996256,-0.0732675,19,32765
1.63505,-0.104475,-0.0727109,19,32765
1.64464,-0.110656,-0.0734977,19,32765
1.6343,-0.115483,-0.0730804,19,32765
1.64385,-0.121713,-0.0738521,19,32765
1.63346,-0.126547,-0.0734911,19,32765
1.63303,-0.132055,-0.0733656,20,32765
1.63257,-0.137584,-0.0734409,19,32765
1.63209,-0.143087,-0.0735264,19,32765
1.6117,-0.146755,-0.072615,19,32765
1.63109,-0.154069,-0.0735209,19,32765
1.60074,-0.156633,-0.072141,19,32765
1.61013,-0.163088,-0.0726337,19,32765
1.6195,-0.169588,-0.0731354,19,32765
1.60899,-0.173984,-0.0726118,19,32765
1.63818,-0.182727,-0.0740297,20,32765
1.60779,-0.184777,-0.0725985,19,32765
1.58732,-0.187822,-0.0715786,19,32765
1.5966,-0.194329,-0.0720428,19,32765
1.59596,-0.199622,-0.0719491,19,32765
1.59528,-0.204981,-0.0717852,19,32765
1.5847,-0.208975,-0.0711981,20,32765
1.59389,-0.215633,-0.0715724,19,32765
1.58325,-0.219673,-0.0710849,19,32765
1.59239,-0.226492,-0.0712862,19,32765
1.58172,-0.230539,-0.070714,19,32765
1.59082,-0.237419,-0.0709668,19,32765
1.59,-0.242902,-0.0708076,19,32765
1.58916,-0.248323,-0.0707265,20,32765
1.56858,-0.250578,-0.06979,19,32765
1.55787,-0.25428,-0.0691824,19,32765
1.60628,-0.267724,-0.071242,20,32765
1.58568,-0.269823,-0.0701965,20,32765
1.57492,-0.273487,-0.0696074,20,32765
1.55433,-0.275324,-0.0682881,19,32765
1.57306,-0.284127,-0.069038,19,32765
1.56227,-0.287585,-0.0685757,19,32765
1.57112,-0.294694,-0.0689299,19,32765
1.57012,-0.300014,-0.0686422,19,32765
1.5495,-0.301434,-0.0677218,19,32765
1.55828,-0.308636,-0.067926,19,32765
1.56703,-0.315848,-0.0681706,19,32765
1.5366,-0.315115,-0.0667558,19,32765
1.54533,-0.322328,-0.066889,19,32765
1.54424,-0.327527,-0.0667158,19,32765
1.5236,-0.328521,-0.0657788,19,32765
1.56154,-0.34217,-0.0672189,19,32765
1.53111,-0.340959,-0.0660575,19,32765
1.53971,-0.348307,-0.0661623,19,32765
1.51905,-0.34903,-0.0652314,19,32765
1.54707,-0.360927,-0.0663706,19,32765
1.53615,-0.363748,-0.0658088,19,32765
1.53495,-0.368831,-0.0656057,19,32765
1.51432,-0.369107,-0.0647664,19,32765
1.5325,-0.37891,-0.0653857,19,32765
1.53123,-0.384047,-0.0652449,19,32765
1.49121,-0.379294,-0.0635096,18,32765
1.5383,-0.396787,-0.0654692,20,32765
1.51766,-0.396806,-0.0644907,18,32765
1.526,-0.404351,-0.0649239,18,32765
1.51503,-0.406739,-0.0642926,19,32765
1.5619,-0.424817,-0.0663094,17,32765
1.54122,-0.424658,-0.0655079,14,32765
1.46283,-0.408289,-0.0619727,17,32765
1.4807,-0.418546,-0.0627764,19,32765
1.50812,-0.431705,-0.0640455,20,32765
1.48752,-0.431008,-0.0633072,19,32765
1.47653,-0.433023,-0.0628385,19,32765
1.4943,-0.443416,-0.0636468,19,32765
1.47375,-0.442428,-0.0627067,19,32765
1.49142,-0.452997,-0.0636238,19,32765
1.48993,-0.457882,-0.0637509,19,32765
1.49795,-0.465744,-0.0643374,19,32765
1.48691,-0.467557,-0.063923,19,32765
1.49496,-0.475243,-0.0643706,19,32765
1.46493,-0.470708,-0.0633223,19,32765
1.48246,-0.481433,-0.0643707,18,32765
1.50941,-0.49543,-0.0658594,18,32765
1.72774,0.0285904,-0.0835511,19,32765
1.72778,0.0227406,-0.0845174,19,32765
1.72781,0.0170181,-0.0852835,19,32765
1.71784,0.0111623,-0.0854653,19,32765
1.70785,0.00542017,-0.0854613,19,32765
1.70783,-0.000319133,-0.0861865,19,32765
1.71778,-0.00612384,-0.0871873,19,32765
1.69775,-0.0117972,-0.0865781,19,32765
1.72763,-0.017786,-0.088668,20,32765
1.6876,-0.0229284,-0.0871595,19,32765
1.69748,-0.0286622,-0.0879993,19,32765
1.70734,-0.0345351,-0.0889008,19,32765
1.67725,-0.0396252,-0.0875435,19,32765
1.67708,-0.0454846,-0.0879841,19,32765
1.70684,-0.0521103,-0.0899434,19,32765
1.69665,-0.0575452,-0.0897396,19,32765
1.67648,-0.0625072,-0.08901,19,32765
1.68623,-0.0684462,-0.0896702,19,32765
1.70593,-0.0749217,-0.0909952,20,32765
1.69569,-0.080132,-0.0906723,19,32765
1.67546,-0.0847362,-0.0898324,19,32765
1.69509,-0.0914855,-0.0911793,19,32765
1.67483,-0.0960041,-0.090161,19,32765
1.69441,-0.102912,-0.0915022,19,32765
1.6841,-0.107937,-0.0908477,19,32765
1.68371,-0.113627,-0.091199,19,32765
1.66339,-0.117893,-0.090148,19,32765
1.65301,-0.122757,-0.0899358,19,32765
1.68244,-0.130729,-0.09165,20,32765
1.66209,-0.134802,-0.0904373,19,32765
1.69147,-0.142966,-0.0921396,20,32765
1.67108,-0.146934,-0.0911428,19,32765
1.66063,-0.15165,-0.0905846,19,32765
1.67999,-0.159148,-0.0916788,20,32765
1.67945,-0.164809,-0.0916416,19,32765
1.63914,-0.166503,-0.0895177,19,32765
1.66835,-0.175203,-0.0911997,19,32765
1.65782,-0.179776,-0.0905793,19,32765
1.66713,-0.186485,-0.0911957,19,32765
1.65658,-0.190924,-0.0905646,19,32765
1.6361,-0.194141,-0.0893522,19,32765
1.65526,-0.202037,-0.0904521,19,32765
1.63477,-0.205054,-0.0892724,19,32765
1.62418,-0.209281,-0.088564,19,32765
1.61358,-0.213381,-0.0878796,19,32765
1.64254,-0.222838,-0.0894236,19,32765
1.66156,-0.231182,-0.0904553,19,32765
1.65088,-0.235466,-0.0896644,19,32765
1.61054,-0.235394,-0.0873844,19,32765
1.61961,-0.242389,-0.0877274,19,32765
1.63852,-0.25101,-0.0886325,19,32765
1.63765,-0.256611,-0.0885482,20,32765
1.64663,-0.263776,-0.0890202,19,32765
1.58661,-0.259688,-0.0856495,19,32765
1.61528,-0.269968,-0.0871144,19,32765
1.60452,-0.273784,-0.0864091,19,32765
1.59375,-0.277521,-0.0857234,19,32765
1.63215,-0.289907,-0.0873676,19,32765
1.60169,-0.290096,-0.0856714,19,32765
1.61053,-0.297285,-0.0861644,19,32765
1.5997,-0.300882,-0.0855599,19,32765
1.6085,-0.308193,-0.0857893,19,32765
1.59766,-0.311657,-0.0852011,19,32765
1.60639,-0.319041,-0.0854917,20,32765
1.59553,-0.322477,-0.0847837,19,32765
1.57487,-0.323852,-0.0836027,19,32765
1.59334,-0.333256,-0.0843393,19,32765
1.57268,-0.334476,-0.0831273,19,32765
1.61059,-0.348232,-0.085094,20,32765
1.58016,-0.347202,-0.0832965,19,32765
1.57896,-0.352584,-0.0833976,19,32765
1.58752,-0.36011,-0.0835858,19,32765
1.56684,-0.360999,-0.082463,19,32765
1.56562,-0.366259,-0.0823454,19,32765
1.58384,-0.376072,-0.0832187,19,32765
1.58259,-0.381326,-0.0830083,19,32765
1.59104,-0.388874,-0.0835074,19,32765
1.57036,-0.389341,-0.0822718,19,32765
1.55937,-0.392182,-0.0816196,19,32765
1.57741,-0.402325,-0.0825442,17,32765
1.58572,-0.410144,-0.082944,16,32765
1.623,-0.425519,-0.0848003,14,32765
1.6602,-0.441124,-0.0868428,13,32765
1.58161,-0.425784,-0.0825725,16,32765
1.54166,-0.420471,-0.0805272,19,32765
1.54989,-0.428226,-0.0810467,19,32765
1.51961,-0.425312,-0.0792656,19,32765
1.5182,-0.430334,-0.0792526,19,32765
1.53596,-0.440892,-0.0803017,20,32765
1.52493,-0.443072,-0.0798784,19,32765
1.54264,-0.453669,-0.0808191,20,32765
1.55076,-0.461449,-0.0813119,19,32765
1.54928,-0.466399,-0.0811803,19,32765
1.50954,-0.459777,-0.0792788,19,32765
1.53665,-0.473558,-0.0809141,19,32765
1.54461,-0.481593,-0.0815989,18,32765
1.524,-0.480558,-0.0805857,19,32765
1.57957,-0.503547,-0.0836464,18,32765
1.62552,-0.523771,-0.0863664,16,32765
1.62386,-0.528836,-0.0866128,15,32765
1.61269,-0.53082,-0.0863731,16,32765
1.6963,0.0307062,-0.107854,17,32765
1.69643,0.0248469,-0.107316,17,32765
1.68656,0.0188036,-0.106125,18,32765
1.68664,0.0130613,-0.105707,17,32765
1.67672,0.00733617,-0.104683,18,32765
1.68674,0.0017104,-0.104877,18,32765
1.7067,-0.00395426,-0.106031,18,32765
1.6568,-0.00940107,-0.10263,18,32765
1.65678,-0.0150155,-0.102226,18,32765
1.6767,-0.0208562,-0.103197,18,32765
1.65666,-0.0261829,-0.101921,18,32765
1.68652,-0.0322737,-0.103463,18,32765
1.6465,-0.0370402,-0.100856,18,32765
1.67631,-0.0433276,-0.102466,18,32765
1.68614,-0.0492827,-0.102923,18,32765
1.68597,-0.0550959,-0.102804,19,32765
1.66583,-0.0601167,-0.101423,18,32765
1.66562,-0.0658248,-0.101371,18,32765
1.65543,-0.0709705,-0.100528,18,32765
1.65519,-0.0765478,-0.100457,18,32765
1.65493,-0.0821164,-0.100288,18,32765
1.65466,-0.0876756,-0.100121,19,32765
1.64439,-0.0926582,-0.0994383,19,32765
1.664,-0.0993219,-0.100728,19,32765
1.62381,-0.102426,-0.0981785,18,32765
1.63343,-0.108564,-0.0986579,19,32765
1.63306,-0.114107,-0.0985406,19,32765
1.65258,-0.12106,-0.0996845,18,32765
1.64222,-0.125841,-0.0989474,18,32765
1.64178,-0.131408,-0.0989541,18,32765
1.63139,-0.136171,-0.0981486,18,32765
1.63091,-0.141714,-0.0981944,19,32765
1.63043,-0.147224,-0.0981269,18,32765
1.62993,-0.152708,-0.0980816,18,32765
1.61946,-0.157288,-0.0975047,19,32765
1.64872,-0.165779,-0.0992111,19,32765
1.63821,-0.170375,-0.0986857,19,32765
1.60784,-0.172804,-0.0968264,19,32765
1.62709,-0.180511,-0.0979326,18,32765
1.59672,-0.182602,-0.096082,18,32765
1.61593,-0.190305,-0.0972775,19,32765
1.59546,-0.193346,-0.0961112,18,32765
1.63442,-0.203653,-0.0983998,18,32765
1.63373,-0.209173,-0.0982936,18,32765
1.60332,-0.2108,-0.0965625,19,32765
1.60259,-0.216347,-0.0965077,19,32765
1.60184,-0.221869,-0.0963924,19,32765
1.62084,-0.230179,-0.0975128,19,32765
1.59041,-0.23133,-0.0957427,19,32765
1.59951,-0.238175,-0.0961694,19,32765
1.58882,-0.242097,-0.0955924,19,32765
1.60771,-0.25062,-0.0967018,19,32765
1.62657,-0.259308,-0.0976997,19,32765
1.59612,-0.260042,-0.095751,19,32765
1.59524,-0.265413,-0.0956819,19,32765
1.60419,-0.272467,-0.0961248,19,32765
1.59342,-0.27618,-0.0955235,19,32765
1.58265,-0.279821,-0.0949473,19,32765
1.59153,-0.286966,-0.0952938,19,32765
1.59057,-0.292317,-0.0950151,19,32765
1.56997,-0.293947,-0.0937093,19,32765
1.57881,-0.300997,-0.0941543,19,32765
1.56802,-0.304309,-0.0933278,19,32765
1.57679,-0.311514,-0.0937306,19,32765
1.56595,-0.314931,-0.0928462,19,32765
1.57465,-0.322308,-0.0933224,20,32765
1.5931,-0.331709,-0.0942726,19,32765
1.57245,-0.332967,-0.0928469,19,32765
1.54207,-0.331898,-0.090875,19,32765
1.55072,-0.339191,-0.0911367,19,32765
1.56906,-0.348812,-0.0920355,19,32765
1.56788,-0.354139,-0.091854,19,32765
1.54725,-0.354962,-0.0901267,19,32765
1.54607,-0.360113,-0.089979,19,32765
1.54489,-0.365178,-0.0896946,19,32765
1.55341,-0.372618,-0.0898845,19,32765
1.50368,-0.365953,-0.0867532,18,32765
1.57033,-0.387697,-0.0902701,19,32765
1.55937,-0.390508,-0.0893458,18,32765
1.53873,-0.390776,-0.087704,15,32765
1.66316,-0.428233,-0.0944241,13,32765
1.71009,-0.446268,-0.0966799,12,32765
1.57349,-0.41613,-0.0886035,13,32765
1.49499,-0.400611,-0.0837352,17,32765
1.49369,-0.405527,-0.0833384,19,32765
1.502,-0.413078,-0.083369,19,32765
1.51027,-0.420731,-0.0834803,19,32765
1.49928,-0.423031,-0.0823992,19,32765
1.51714,-0.433376,-0.0829272,19,32765
1.50615,-0.435564,-0.0818041,19,32765
1.52392,-0.446118,-0.0821258,20,32765
1.5225,-0.451037,-0.0816771,19,32765
1.51149,-0.453109,-0.0805255,19,32765
1.4814,-0.44925,-0.078382,18,32765
1.48953,-0.456957,-0.0780238,19,32765
1.49762,-0.464728,-0.0778409,19,32765
1.51518,-0.475624,-0.0780986,19,32765
1.50413,-0.477577,-0.0768253,18,32765
1.53115,-0.491615,-0.0774081,18,32765
1.57713,-0.511895,-0.078943,17,32765
1.65152,-0.541687,-0.0815789,16,32765
1.73509,0.0314047,-0.126767,18,32765
1.75518,0.0256883,-0.127668,19,32765
1.7553,0.0195355,-0.127086,18,32765
1.75538,0.0135441,-0.126651,18,32765
1.7355,0.00752964,-0.124799,19,32765
1.74552,0.00169114,-0.125072,18,32765
1.74553,-0.00413796,-0.124983,18,32765
1.7156,-0.00984147,-0.122529,18,32765
1.72556,-0.015761,-0.122821,18,32765
1.72552,-0.0216003,-0.122552,18,32765
1.73541,-0.0275802,-0.123211,19,32765
1.73533,-0.033375,-0.122902,19,32765
1.72525,-0.038993,-0.122029,19,32765
1.72513,-0.044785,-0.121799,19,32765
1.70503,-0.050043,-0.120237,19,32765
1.71483,-0.0562636,-0.120818,19,32765
1.71464,-0.0621175,-0.120648,18,32765
1.70445,-0.0676126,-0.119894,19,32765
1.72416,-0.0741879,-0.121049,19,32765
1.72391,-0.0800117,-0.120976,19,32765
1.71368,-0.0853302,-0.120101,19,32765
1.72336,-0.0916311,-0.120626,19,32765
1.70312,-0.0962941,-0.119148,19,32765
1.70279,-0.101978,-0.119234,19,32765
1.68253,-0.106481,-0.117697,19,32765
1.68217,-0.11217,-0.117571,19,32765
1.69174,-0.118591,-0.118144,19,32765
1.70128,-0.125029,-0.118779,19,32765
1.70086,-0.13075,-0.118638,20,32765
1.70041,-0.136531,-0.118644,19,32765
1.69,-0.141507,-0.117737,19,32765
1.68951,-0.147263,-0.117784,20,32765
1.67907,-0.152086,-0.117021,19,32765
1.67855,-0.157749,-0.116974,19,32765
1.66807,-0.162506,-0.116303,19,32765
1.66752,-0.16818,-0.116213,19,32765
1.67685,-0.174923,-0.116979,19,32765
1.66632,-0.179631,-0.116219,19,32765
1.65579,-0.184248,-0.115436,19,32765
1.66507,-0.19099,-0.116065,19,32765
1.67432,-0.197772,-0.116757,20,32765
1.67364,-0.203427,-0.116785,20,32765
1.65316,-0.2066,-0.115302,19,32765
1.66235,-0.213469,-0.115884,19,32765
1.65172,-0.217806,-0.115251,19,32765
1.65096,-0.223535,-0.115194,19,32765
1.6403,-0.227866,-0.114386,19,32765
1.64939,-0.234923,-0.115003,19,32765
1.65846,-0.241935,-0.115706,19,32765
1.65764,-0.247554,-0.115531,19,32765
1.66665,-0.254699,-0.116235,19,32765
1.6362,-0.255806,-0.114092,19,32765
1.64517,-0.263038,-0.114588,19,32765
1.63443,-0.267057,-0.113724,19,32765
1.64336,-0.274214,-0.114337,19,32765
1.6326,-0.278097,-0.113502,19,32765
1.63165,-0.283626,-0.113489,19,32765
1.6405,-0.29089,-0.114186,19,32765
1.61988,-0.292924,-0.11257,19,32765
1.64834,-0.30381,-0.114327,20,32765
1.63752,-0.30748,-0.113507,20,32765
1.6267,-0.311023,-0.112682,20,32765
1.6061,-0.312597,-0.111076,20,32765
1.61483,-0.319949,-0.111568,19,32765
1.62353,-0.327451,-0.11193,19,32765
1.6224,-0.333039,-0.111821,20,32765
1.61151,-0.336506,-0.110935,19,32765
1.5811,-0.335759,-0.108647,19,32765
1.57998,-0.341034,-0.108398,19,32765
1.59834,-0.350611,-0.109413,20,32765
1.57767,-0.351733,-0.107828,19,32765
1.58621,-0.359308,-0.10831,19,32765
1.58503,-0.364672,-0.107708,19,32765
1.58381,-0.369963,-0.107556,19,32765
1.59232,-0.377466,-0.107922,19,32765
1.60078,-0.385082,-0.108193,20,32765
1.58983,-0.388027,-0.107195,19,32765
1.58855,-0.393318,-0.106789,18,32765
1.5679,-0.393769,-0.105116,16,32765
1.60529,-0.408846,-0.107156,15,32765
1.56531,-0.404191,-0.104149,18,32765
1.55435,-0.406787,-0.10306,19,32765
1.52409,-0.404219,-0.100723,19,32765
1.57098,-0.422178,-0.103363,19,32765
1.55998,-0.424736,-0.102313,20,32765
1.55861,-0.429871,-0.101786,20,32765
1.56681,-0.43773,-0.101974,19,32765
1.54617,-0.437508,-0.100155,19,32765
1.55437,-0.445282,-0.100235,19,32765
1.55294,-0.45038,-0.099617,18,32765
1.57065,-0.461113,-0.100103,19,32765
1.55961,-0.463354,-0.0990321,19,32765
1.53902,-0.46268,-0.0971663,19,32765
1.56622,-0.476331,-0.0983259,19,32765
1.58381,-0.487267,-0.0986052,17,32765
1.64899,-0.51316,-0.10201,16,32765
1.63782,-0.515587,-0.100626,16,32765
1.64567,-0.524009,-0.100354,15,32765
1.62501,-0.523241,-0.0982623,16,32765
1.68985,-0.550046,-0.101352,15,32765
1.57439,-0.517861,-0.0934042,14,32765
1.66564,0.0297172,-0.116872,18,32765
1.68563,0.0243891,-0.118994,19,32765
1.67566,0.0186442,-0.119286,19,32765
1.67567,0.0130364,-0.1198,18,32765
1.70559,0.00748285,-0.122496,18,32765
1.67562,0.0016656,-0.121238,19,32765
1.69553,-0.00409228,-0.123136,18,32765
1.65558,-0.00955833,-0.120681,18,32765
1.67545,-0.0152198,-0.122672,19,32765
1.67534,-0.0208163,-0.123265,18,32765
1.6553,-0.0261086,-0.122067,18,32765
1.67511,-0.0320761,-0.123963,19,32765
1.65503,-0.0373447,-0.122829,18,32765
1.65487,-0.0429165,-0.123178,18,32765
1.67463,-0.0490408,-0.124898,19,32765
1.64455,-0.0536795,-0.122773,18,32765
1.66425,-0.0599181,-0.124816,19,32765
1.66404,-0.0655295,-0.124806,18,32765
1.67375,-0.0716078,-0.125866,19,32765
1.70337,-0.0786936,-0.128213,19,32765
1.66323,-0.0825403,-0.125469,19,32765
1.66293,-0.0881452,-0.125653,19,32765
1.65265,-0.0931491,-0.125175,18,32765
1.68219,-0.100479,-0.127447,19,32765
1.66192,-0.104833,-0.12625,19,32765
1.67149,-0.111123,-0.127113,18,32765
1.65121,-0.115384,-0.125657,19,32765
1.65082,-0.121014,-0.125503,19,32765
1.6305,-0.125128,-0.124121,19,32765
1.65988,-0.133072,-0.126402,19,32765
1.63955,-0.137095,-0.124887,19,32765
1.63907,-0.142655,-0.124945,19,32765
1.62865,-0.147298,-0.124116,19,32765
1.64801,-0.154614,-0.125557,19,32765
1.63755,-0.159241,-0.124774,18,32765
1.63701,-0.164796,-0.1247,19,32765
1.6166,-0.168265,-0.123214,19,32765
1.61603,-0.173788,-0.123129,19,32765
1.63526,-0.181447,-0.12446,20,32765
1.64455,-0.188107,-0.125155,20,32765
1.64392,-0.193644,-0.125018,20,32765
1.60368,-0.194364,-0.121801,19,32765
1.62281,-0.202289,-0.123215,19,32765
1.62211,-0.207844,-0.123087,19,32765
1.60164,-0.210749,-0.121362,19,32765
1.59104,-0.214836,-0.120557,19,32765
1.60021,-0.221549,-0.121043,19,32765
1.58959,-0.225524,-0.120213,19,32765
1.60856,-0.233797,-0.121517,19,32765
1.61763,-0.240851,-0.12193,20,32765
1.60693,-0.244982,-0.121081,19,32765
1.59623,-0.249056,-0.12006,19,32765
1.61507,-0.257724,-0.1213,20,32765
1.60437,-0.261543,-0.12038,19,32765
1.59366,-0.265359,-0.119365,19,32765
1.59276,-0.270748,-0.11923,19,32765
1.6115,-0.279541,-0.120576,19,32765
1.5811,-0.279831,-0.117994,19,32765
1.59979,-0.288706,-0.1192,19,32765
1.58901,-0.292346,-0.118272,19,32765
1.58802,-0.297717,-0.118126,19,32765
1.58701,-0.303097,-0.117965,19,32765
1.56642,-0.304671,-0.116218,19,32765
1.59476,-0.315781,-0.11804,19,32765
1.5839,-0.319209,-0.117291,19,32765
1.55352,-0.318543,-0.11491,19,32765
1.57196,-0.327913,-0.116257,19,32765
1.57086,-0.333203,-0.116065,19,32765
1.56975,-0.338455,-0.11585,19,32765
1.55887,-0.34162,-0.114958,19,32765
1.56747,-0.349025,-0.115457,18,32765
1.57603,-0.356514,-0.115892,19,32765
1.5748,-0.361912,-0.115837,19,32765
1.54446,-0.360366,-0.113523,18,32765
1.56264,-0.370231,-0.114845,18,32765
1.5614,-0.375454,-0.114729,16,32765
1.73459,-0.423189,-0.127298,13,32765
1.63636,-0.404993,-0.120091,12,32765
1.47057,-0.369046,-0.107829,16,32765
1.54669,-0.39357,-0.113422,19,32765
1.50675,-0.388714,-0.110467,19,32765
1.55372,-0.406317,-0.113882,19,32765
1.53308,-0.406374,-0.112304,20,32765
1.54137,-0.41402,-0.112966,19,32765
1.53998,-0.419162,-0.112947,19,32765
1.54821,-0.426912,-0.113537,19,32765
1.53717,-0.429387,-0.112865,19,32765
1.53575,-0.434465,-0.112714,18,32765
1.51514,-0.434019,-0.111298,19,32765
1.54243,-0.447409,-0.113342,19,32765
1.67494,-0.491812,-0.123272,16,32765
1.84545,-0.548441,-0.135802,16,32765
1.68127,-0.505537,-0.123892,15,32765
1.62239,-0.493453,-0.119752,15,32765
1.5922,-0.48984,-0.117703,14,32765
1.56204,-0.486067,-0.115645,15,32765
1.56997,-0.494088,-0.116488,16,32765
1.55884,-0.496138,-0.115994,14,32765
1.62372,-0.522436,-0.121245,15,32765
1.6505,-0.536813,-0.123666,14,32765
0,-0,-0,0,32765
1.78407,0.0318176,-0.142108,18,32765
1.74423,0.0252091,-0.139681,18,32765
1.72429,0.019142,-0.139109,18,32765
1.76417,0.0136648,-0.142867,18,32765
1.73426,0.00753377,-0.141011,17,32765
1.7342,0.00163293,-0.141933,18,32765
1.73416,-0.00429223,-0.142398,18,32765
1.7341,-0.0101339,-0.142862,18,32765
1.73401,-0.0158896,-0.143417,19,32765
1.72393,-0.0215725,-0.143203,19,32765
1.73379,-0.0275154,-0.144313,18,32765
1.73365,-0.0333816,-0.144753,18,32765
1.72353,-0.0390898,-0.144277,18,32765
1.73332,-0.0451673,-0.145476,18,32765
1.71322,-0.0503997,-0.144045,18,32765
1.73295,-0.056812,-0.145831,19,32765
1.72274,-0.0622854,-0.145567,19,32765
1.72252,-0.0681094,-0.145556,19,32765
1.73221,-0.0744032,-0.146721,19,32765
1.74189,-0.080785,-0.147666,20,32765
1.74158,-0.0867563,-0.147933,19,32765
1.72136,-0.091582,-0.146431,19,32765
1.69117,-0.0956696,-0.144173,19,32765
1.72068,-0.103149,-0.146727,19,32765
1.71035,-0.108273,-0.146199,19,32765
1.71991,-0.114743,-0.147159,20,32765
1.73938,-0.121968,-0.148919,19,32765
1.69922,-0.124991,-0.145357,19,32765
1.71864,-0.132341,-0.147194,20,32765
1.70824,-0.137412,-0.146353,19,32765
1.69783,-0.142444,-0.1455,19,32765
1.69733,-0.148217,-0.14556,19,32765
1.70675,-0.154871,-0.146335,20,32765
1.69631,-0.159667,-0.145409,19,32765
1.68584,-0.164471,-0.144531,19,32765
1.69519,-0.171207,-0.145305,19,32765
1.67478,-0.174883,-0.14363,19,32765
1.7039,-0.183825,-0.14609,19,32765
1.68348,-0.187392,-0.144206,19,32765
1.67294,-0.191962,-0.143297,19,32765
1.69208,-0.199948,-0.144851,19,32765
1.68153,-0.204441,-0.143789,20,32765
1.67094,-0.208942,-0.142851,20,32765
1.66034,-0.213407,-0.141873,20,32765
1.65962,-0.219059,-0.141641,19,32765
1.66875,-0.22603,-0.142424,20,32765
1.668,-0.23165,-0.14215,19,32765
1.66722,-0.237269,-0.142063,20,32765
1.65656,-0.241514,-0.141026,20,32765
1.66559,-0.248755,-0.141523,20,32765
1.66472,-0.254571,-0.141412,20,32765
1.64415,-0.257318,-0.139451,19,32765
1.64327,-0.263024,-0.139204,19,32765
1.66206,-0.271773,-0.140684,20,32765
1.66115,-0.277438,-0.140395,19,32765
1.62092,-0.276371,-0.136934,19,32765
1.61998,-0.281865,-0.136807,20,32765
1.62885,-0.289155,-0.137246,20,32765
1.6573,-0.299989,-0.139457,20,32765
1.64649,-0.303835,-0.138427,20,32765
1.65526,-0.311257,-0.139098,20,32765
1.64441,-0.315005,-0.138107,20,32765
1.65314,-0.322505,-0.138622,20,32765
1.63252,-0.324229,-0.136615,20,32765
1.61187,-0.325821,-0.134953,19,32765
1.62054,-0.333281,-0.135552,19,32765
1.60964,-0.33678,-0.134633,19,32765
1.60851,-0.342212,-0.134436,19,32765
1.61712,-0.349711,-0.135028,20,32765
1.62567,-0.357325,-0.135661,19,32765
1.62448,-0.362801,-0.135432,19,32765
1.60383,-0.363886,-0.133522,19,32765
1.622,-0.373871,-0.135083,19,32765
1.61105,-0.377026,-0.134097,18,32765
1.53218,-0.364098,-0.12753,15,32765
1.60848,-0.387928,-0.133866,16,32765
1.57815,-0.386171,-0.131211,19,32765
1.58653,-0.393835,-0.131922,19,32765
1.58526,-0.399014,-0.131726,19,32765
1.58394,-0.404252,-0.13164,20,32765
1.5826,-0.409501,-0.131513,20,32765
1.58124,-0.41475,-0.131385,20,32765
1.60876,-0.427708,-0.133616,20,32765
1.57847,-0.425251,-0.131168,20,32765
1.58665,-0.433156,-0.131948,19,32765
1.566,-0.433109,-0.13023,19,32765
1.59334,-0.446408,-0.13266,19,32765
1.57268,-0.446245,-0.130906,18,32765
1.87778,-0.539512,-0.156438,17,32765
1.92383,-0.559715,-0.160342,18,32765
1.87416,-0.55196,-0.156434,17,32765
1.74816,-0.52109,-0.145916,16,32765
1.67012,-0.503693,-0.139587,15,32765
1.68757,-0.514822,-0.141267,15,32765
1.75258,-0.540805,-0.146924,15,32765
1.65567,-0.516755,-0.138997,15,32765
1.67299,-0.528099,-0.140741,15,32765
1.74722,-0.557772,-0.147374,14,32765
1.65056,-0.532679,-0.139668,13,32765
1.69622,-0.553356,-0.143982,12,32765
0,-0,-0,0,32765
1.79154,0.0341638,-0.170886,17,32765
1.75189,0.0274448,-0.166494,17,32765
1.76199,0.0216756,-0.166825,17,32765
1.72227,0.0153102,-0.162688,17,32765
1.72236,0.00949401,-0.162174,17,32765
1.7224,0.0036907,-0.161958,17,32765
1.74236,-0.00218671,-0.16329,17,32765
1.7125,-0.00787467,-0.160245,17,32765
1.73241,-0.0137363,-0.161771,17,32765
1.74235,-0.019598,-0.162242,18,32765
1.72239,-0.0252516,-0.160087,17,32765
1.71236,-0.0309536,-0.158983,18,32765
1.71227,-0.0368026,-0.158703,17,32765
1.71215,-0.0426772,-0.158445,17,32765
1.71202,-0.048483,-0.158217,18,32765
1.682,-0.0533693,-0.155312,18,32765
1.69178,-0.0594513,-0.156017,18,32765
1.70155,-0.0655638,-0.156659,18,32765
1.67147,-0.070065,-0.153837,18,32765
1.71106,-0.0774942,-0.157089,18,32765
1.70084,-0.0827965,-0.156136,18,32765
1.69062,-0.0882087,-0.155002,18,32765
1.70027,-0.0945577,-0.155665,18,32765
1.67012,-0.0986333,-0.152873,19,32765
1.64993,-0.102997,-0.150751,18,32765
1.66946,-0.10984,-0.152488,18,32765
1.68895,-0.11694,-0.154171,18,32765
1.65876,-0.120466,-0.15131,18,32765
1.66828,-0.126984,-0.152009,18,32765
1.6877,-0.134291,-0.153707,18,32765
1.64755,-0.136772,-0.149913,18,32765
1.657,-0.143285,-0.150687,19,32765
1.65652,-0.148873,-0.150579,19,32765
1.64609,-0.153564,-0.149675,19,32765
1.65551,-0.16012,-0.150202,18,32765
1.65495,-0.165799,-0.150185,19,32765
1.65437,-0.171516,-0.15012,19,32765
1.65379,-0.177206,-0.149976,19,32765
1.62347,-0.179669,-0.147185,19,32765
1.62287,-0.185144,-0.146971,19,32765
1.63213,-0.191844,-0.147822,19,32765
1.66114,-0.200989,-0.150387,19,32765
1.64069,-0.204117,-0.148597,19,32765
1.63999,-0.209649,-0.148576,19,32765
1.64917,-0.21644,-0.149337,19,32765
1.62867,-0.21945,-0.147557,19,32765
1.65752,-0.229133,-0.15009,19,32765
1.62714,-0.2307,-0.147314,19,32765
1.62634,-0.236336,-0.147157,20,32765
1.63538,-0.243336,-0.148002,19,32765
1.62471,-0.247481,-0.146845,19,32765
1.63369,-0.254597,-0.147722,19,32765
1.60331,-0.25551,-0.144918,19,32765
1.62209,-0.264275,-0.146584,19,32765
1.59172,-0.264838,-0.143886,19,32765
1.59082,-0.270257,-0.143671,18,32765
1.61937,-0.280721,-0.146058,19,32765
1.5988,-0.282684,-0.144355,19,32765
1.60763,-0.289912,-0.145132,19,32765
1.62625,-0.298974,-0.146684,19,32765
1.60564,-0.30093,-0.144824,18,32765
1.59484,-0.304549,-0.143698,18,32765
1.57426,-0.306052,-0.1419,18,32765
1.60255,-0.317145,-0.144404,19,32765
1.59174,-0.320545,-0.143273,19,32765
1.57115,-0.321941,-0.141209,20,32765
1.58956,-0.331365,-0.142856,20,32765
1.58843,-0.336776,-0.142682,20,32765
1.60679,-0.34634,-0.144114,20,32765
1.55699,-0.341026,-0.139528,20,32765
1.5753,-0.350623,-0.141062,19,32765
1.57413,-0.355912,-0.140811,19,32765
1.58266,-0.363423,-0.141422,18,32765
1.58146,-0.36871,-0.141193,16,32765
1.5415,-0.364771,-0.137229,14,32765
1.54999,-0.372232,-0.137783,18,32765
1.57778,-0.384535,-0.140138,19,32765
1.54751,-0.382609,-0.137228,19,32765
1.55593,-0.390162,-0.137679,19,32765
1.56433,-0.397761,-0.138091,20,32765
1.54372,-0.398016,-0.136078,20,32765
1.55206,-0.40568,-0.136475,20,32765
1.57965,-0.418458,-0.138569,19,32765
1.5494,-0.415952,-0.135835,19,32765
1.52884,-0.415846,-0.133521,19,32765
1.53708,-0.423593,-0.134012,19,32765
1.55491,-0.434075,-0.135085,19,32765
1.60148,-0.452672,-0.138766,17,32765
1.81082,-0.51822,-0.156401,17,32765
1.89536,-0.549043,-0.163025,16,32765
1.84577,-0.541238,-0.158425,16,32765
1.71979,-0.510563,-0.147127,16,32765
1.65135,-0.496116,-0.140712,15,32765
1.67841,-0.510154,-0.142471,15,32765
1.69591,-0.521287,-0.143336,14,32765
1.58005,-0.491273,-0.133072,14,32765
1.55948,-0.490449,-0.130689,14,32765
1.65295,-0.525736,-0.137682,14,32765
0,-0,-0,0,32765
0,-0,-0,0,32765
0,-0,-0,0,32765
1.7998,0.0342862,-0.188825,18,32765
1.7403,0.0272137,-0.181975,18,32765
1.75039,0.0214675,-0.182403,17,32765
1.80022,0.0159194,-0.187203,17,32765
1.75059,0.00955248,-0.181509,17,32765
1.75063,0.00363817,-0.181289,18,32765
1.78053,-0.00236563,-0.183827,18,32765
1.76065,-0.00824143,-0.18152,18,32765
1.76065,-0.0141212,-0.181177,18,32765
1.74074,-0.0197544,-0.178671,19,32765
1.7407,-0.0257105,-0.178367,19,32765
1.75056,-0.031852,-0.179203,19,32765
1.77036,-0.0382776,-0.18095,19,32765
1.74041,-0.0436201,-0.177638,18,32765
1.72039,-0.0489715,-0.175378,18,32765
1.75006,-0.0558006,-0.178268,19,32765
1.73994,-0.0614299,-0.177035,19,32765
1.73975,-0.0673379,-0.176753,18,32765
1.72958,-0.0728169,-0.175667,19,32765
1.7393,-0.0791071,-0.176258,19,32765
1.73903,-0.0850052,-0.176217,19,32765
1.72881,-0.0905653,-0.174983,19,32765
1.73845,-0.0970629,-0.175735,19,32765
1.73811,-0.103047,-0.175671,19,32765
1.71792,-0.107651,-0.173348,19,32765
1.72749,-0.114086,-0.174267,19,32765
1.74695,-0.121405,-0.176134,20,32765
1.71678,-0.125136,-0.172985,18,32765
1.71635,-0.131116,-0.172772,19,32765
1.70598,-0.136232,-0.17166,19,32765
1.70552,-0.142087,-0.171476,19,32765
1.71495,-0.148818,-0.172339,19,32765
1.71445,-0.154616,-0.172226,19,32765
1.70401,-0.159517,-0.171228,19,32765
1.70349,-0.165327,-0.170842,19,32765
1.69301,-0.170192,-0.169831,19,32765
1.70232,-0.177085,-0.170757,19,32765
1.7116,-0.18402,-0.171599,20,32765
1.69118,-0.187791,-0.169514,19,32765
1.71033,-0.195772,-0.171271,20,32765
1.69978,-0.200458,-0.170233,19,32765
1.69909,-0.20626,-0.170107,19,32765
1.67864,-0.209526,-0.168129,19,32765
1.69766,-0.217733,-0.170085,20,32765
1.68707,-0.222138,-0.168957,19,32765
1.69616,-0.229287,-0.169954,20,32765
1.67566,-0.232392,-0.167825,19,32765
1.69455,-0.241035,-0.169699,19,32765
1.70357,-0.248356,-0.17052,20,32765
1.68303,-0.251231,-0.1685,20,32765
1.67234,-0.255553,-0.167241,19,32765
1.67145,-0.261314,-0.167227,19,32765
1.68038,-0.268647,-0.168069,20,32765
1.66963,-0.272887,-0.166969,20,32765
1.6687,-0.27853,-0.166935,19,32765
1.65795,-0.282555,-0.165728,19,32765
1.64721,-0.286451,-0.164468,19,32765
1.68542,-0.298943,-0.168454,20,32765
1.64523,-0.297628,-0.164424,19,32765
1.6638,-0.306841,-0.166158,20,32765
1.64318,-0.308936,-0.164108,19,32765
1.61281,-0.308949,-0.16093,18,32765
1.65085,-0.321949,-0.164794,19,32765
1.61072,-0.319762,-0.160752,19,32765
1.62917,-0.329112,-0.162443,19,32765
1.62807,-0.334649,-0.162125,19,32765
1.62693,-0.340216,-0.162014,19,32765
1.64525,-0.349911,-0.163773,20,32765
1.62463,-0.351278,-0.161512,20,32765
1.66236,-0.365238,-0.165146,16,32765
1.80684,-0.403412,-0.17939,12,32765
1.6696,-0.378673,-0.16562,13,32765
1.61015,-0.370885,-0.159578,18,32765
1.61861,-0.378545,-0.160305,19,32765
1.62708,-0.38622,-0.160737,20,32765
1.61614,-0.389323,-0.159456,19,32765
1.6245,-0.397151,-0.160175,20,32765
1.60388,-0.397777,-0.157924,20,32765
1.6219,-0.407966,-0.159401,20,32765
1.60129,-0.408422,-0.157049,19,32765
1.60958,-0.416283,-0.157672,20,32765
1.60823,-0.421661,-0.157201,20,32765
1.578,-0.419315,-0.153928,20,32765
1.61507,-0.434924,-0.157473,20,32765
1.61368,-0.440281,-0.15681,20,32765
1.59304,-0.440373,-0.154581,18,32765
1.86008,-0.520875,-0.179933,17,32765
1.97339,-0.55952,-0.19046,18,32765
1.9429,-0.557736,-0.186991,18,32765
1.86466,-0.541819,-0.178811,17,32765
1.76738,-0.519853,-0.169177,16,32765
1.76568,-0.525805,-0.168532,15,32765
1.64006,-0.494243,-0.155999,16,32765
1.68614,-0.514087,-0.159848,15,32765
1.6941,-0.522336,-0.159996,15,32765
1.59737,-0.498191,-0.150399,14,32765
1.69079,-0.533386,-0.158505,13,32765
1.69862,-0.541929,-0.158391,12,32765
0,-0,-0,0,32765
0,-0,-0,0,32765
0,-0,-0,0,32765
1.73084,0.0327819,-0.175295,17,32765
1.74081,0.026996,-0.177046,17,32765
1.71097,0.0206903,-0.174757,18,32765
1.75079,0.0152237,-0.179192,17,32765
1.73087,0.0091364,-0.177806,18,32765
1.75074,0.00326363,-0.180283,17,32765
1.73077,-0.00268539,-0.178962,17,32765
1.72077,-0.00848195,-0.178308,18,32765
1.71075,-0.0141498,-0.17756,18,32765
1.70071,-0.0197852,-0.176918,18,32765
1.72048,-0.0257913,-0.179358,17,32765
1.71043,-0.0313821,-0.17847,17,32765
1.70032,-0.0368933,-0.177895,18,32765
1.67033,-0.0419027,-0.175074,18,32765
1.69997,-0.0485052,-0.178434,17,32765
1.66996,-0.053416,-0.175405,18,32765
1.71944,-0.0609024,-0.180903,18,32765
1.69933,-0.0660014,-0.178981,18,32765
1.68914,-0.0712672,-0.178096,18,32765
1.67894,-0.0765739,-0.177219,18,32765
1.67865,-0.0821581,-0.177414,19,32765
1.71808,-0.0898923,-0.181671,18,32765
1.67802,-0.093519,-0.177739,18,32765
1.68763,-0.0997848,-0.178716,18,32765
