x, y, z, intensity, ring
1.10029,-0.344308,-0.128079,15,32765
1.07075,-0.338844,-0.124825,15,32765
1.05071,-0.336243,-0.122708,15,32765
1.078,-0.348791,-0.125905,15,32765
1.02961,-0.336809,-0.120655,15,32765
1.03798,-0.343186,-0.121757,16,32765
0.982064,0.0197255,-0.12354,15,32765
0.922639,0.0153332,-0.115766,15,32765
0.982247,0.0129526,-0.122973,15,32765
0.972384,0.00951088,-0.121569,15,32765
1.00222,0.006377,-0.124961,15,32765
1.00224,0.00294897,-0.124914,15,32765
1.00228,-0.000521735,-0.124661,15,32765
0.982436,-0.00391067,-0.12208,15,32765
1.02212,-0.00758646,-0.126926,15,32765
1.03203,-0.0111783,-0.12801,15,32765
1.02208,-0.0145411,-0.126689,15,32765
1.00219,-0.0176989,-0.124118,15,32765
0.992222,-0.0209136,-0.122708,15,32765
0.982226,-0.0240825,-0.121456,15,32765
1.0119,-0.0282541,-0.1251,15,32765
0.991978,-0.0310869,-0.122529,15,32765
0.991876,-0.0344684,-0.12245,15,32765
1.00169,-0.038196,-0.12353,15,32765
0.991635,-0.0411804,-0.122333,15,32765
1.03115,-0.04633,-0.127245,15,32765
0.98144,-0.0474519,-0.120932,16,32765
1.04074,-0.0539092,-0.128298,15,32765
0.991003,-0.0547566,-0.122125,15,32765
1.02053,-0.0598928,-0.12581,16,32765
1.04015,-0.06456,-0.128129,15,32765
1.00031,-0.0654948,-0.123226,16,32765
1.0199,-0.0702235,-0.125608,16,32765
0.999868,-0.072256,-0.123056,16,32765
1.0194,-0.0771599,-0.125539,15,32765
1.02903,-0.0815151,-0.126714,16,32765
1.01885,-0.0842876,-0.125448,15,32765
1.02845,-0.0887131,-0.126557,15,32765
0.968814,-0.0869452,-0.11933,15,32765
1.00806,-0.0939484,-0.124086,15,32765
1.03738,-0.100232,-0.127681,15,32765
1.02716,-0.1028,-0.126422,15,32765
1.05643,-0.109353,-0.129986,15,32765
0.977099,-0.104519,-0.120225,16,32765
1.00633,-0.111139,-0.123859,15,32765
1.02568,-0.116823,-0.12624,16,32765
1.02528,-0.12035,-0.126155,15,32765
1.01501,-0.122668,-0.124917,15,32765
1.02444,-0.127358,-0.12608,15,32765
1.03387,-0.132123,-0.127083,16,32765
1.0531,-0.138237,-0.129466,16,32765
1.05263,-0.141834,-0.129409,17,32765
1.01282,-0.140009,-0.12451,16,32765
1.01234,-0.143509,-0.124398,16,32765
1.02166,-0.148427,-0.12558,16,32765
1.00154,-0.148986,-0.122985,16,32765
1.02066,-0.155399,-0.125328,16,32765
1.05936,-0.16505,-0.130021,15,32765
1.02938,-0.164002,-0.126406,16,32765
1.00923,-0.16439,-0.123853,16,32765
1.00868,-0.167857,-0.123686,15,32765
1.02768,-0.174638,-0.12599,16,32765
1.03688,-0.179823,-0.127027,16,32765
1.00695,-0.178117,-0.123359,15,32765
0.996583,-0.179772,-0.122081,15,32765
1.01553,-0.186721,-0.124217,16,32765
1.01491,-0.190195,-0.124041,16,32765
1.02402,-0.19554,-0.125098,15,32765
1.02337,-0.199016,-0.124924,16,32765
1.01297,-0.200551,-0.123604,15,32765
1.02205,-0.205923,-0.124543,15,32765
1.02137,-0.209435,-0.124273,16,32765
1.03037,-0.214961,-0.125377,15,32765
1.01023,-0.214392,-0.122737,16,32765
1.02893,-0.222053,-0.124863,16,32765
0.999101,-0.219147,-0.12113,16,32765
1.02745,-0.229033,-0.124435,15,32765
1.01702,-0.230295,-0.123014,15,32765
1.01627,-0.233735,-0.122729,15,32765
1.04451,-0.243965,-0.125982,15,32765
0.9954,-0.236006,-0.119916,15,32765
1.03326,-0.248661,-0.124238,15,32765
1.05175,-0.256867,-0.1263,15,32765
1.03163,-0.255614,-0.123729,15,32765
1.02117,-0.256643,-0.12225,15,32765
1.01074,-0.257556,-0.120734,15,32765
1.04839,-0.270824,-0.125057,16,32765
1.07636,-0.281859,-0.128122,15,32765
1.15227,-0.305823,-0.136923,15,32765
1.01697,-0.273546,-0.120594,15,32765
1.05444,-0.287392,-0.124715,15,32765
1.07268,-0.296198,-0.126592,15,32765
1.01432,-0.283726,-0.119419,16,32765
1.08032,-0.306087,-0.126947,15,32765
1.10799,-0.317938,-0.129891,15,32765
1.05929,-0.307704,-0.123778,15,32765
1.03924,-0.305595,-0.121176,15,32765
1.03828,-0.309018,-0.120746,15,32765
1.07539,-0.323846,-0.124779,15,32765
1.07439,-0.327324,-0.124288,15,32765
1.07339,-0.330803,-0.123738,15,32765
1.07237,-0.33432,-0.123135,15,32765
1.09029,-0.343815,-0.124774,14,32765
1.0703,-0.341248,-0.122134,15,32765
1.06925,-0.344748,-0.121494,15,32765
1.05874,-0.345151,-0.119764,15,32765
1.07658,-0.354787,-0.121234,15,32765
0.931317,0.0186733,-0.126093,15,32765
0.97105,0.016094,-0.131157,15,32765
0.911678,0.0119721,-0.122884,15,32765
0.911734,0.008859,-0.122732,15,32765
0.961353,0.00604594,-0.129087,15,32765
1.00102,0.00286165,-0.134363,16,32765
0.941588,-0.00057805,-0.126143,15,32765
0.971329,-0.00396667,-0.130015,15,32765
0.951498,-0.00716975,-0.127281,15,32765
0.921752,-0.0100969,-0.123171,15,32765
0.951456,-0.0136623,-0.12706,15,32765
0.941507,-0.0167609,-0.125632,15,32765
0.951377,-0.020197,-0.126781,15,32765
0.931486,-0.0229889,-0.124116,15,32765
0.941316,-0.0264443,-0.125402,15,32765
0.901604,-0.0284179,-0.120015,15,32765
0.970858,-0.0339231,-0.129169,15,32765
0.970756,-0.0372109,-0.129029,15,32765
0.980525,-0.040925,-0.13037,15,32765
0.950669,-0.0429231,-0.126438,15,32765
0.920837,-0.0447332,-0.122302,15,32765
0.950372,-0.0494561,-0.126281,15,32765
0.960102,-0.0532887,-0.127535,16,32765
0.910431,-0.0536674,-0.12098,16,32765
0.959729,-0.0598267,-0.12744,15,32765
0.959523,-0.0630918,-0.127418,15,32765
0.969202,-0.0670128,-0.128677,15,32765
0.959095,-0.0695959,-0.127255,16,32765
0.94896,-0.0721207,-0.125986,15,32765
0.968471,-0.0770268,-0.128569,15,32765
0.968202,-0.0804161,-0.128523,15,32765
0.95805,-0.0829654,-0.12711,15,32765
1.00712,-0.0907345,-0.133739,15,32765
0.977201,-0.0914242,-0.129694,15,32765
0.93742,-0.0909206,-0.124404,15,32765
0.986429,-0.0990987,-0.13091,15,32765
0.995957,-0.103481,-0.132141,15,32765
1.01532,-0.109013,-0.134713,15,32765
0.975522,-0.108137,-0.129472,15,32765
0.945602,-0.1081,-0.125505,15,32765
0.964926,-0.113681,-0.128039,15,32765
0.964533,-0.116993,-0.128015,15,32765
0.98381,-0.122751,-0.130579,15,32765
1.00308,-0.128651,-0.132987,16,32765
1.00264,-0.132085,-0.132951,15,32765
0.982533,-0.132862,-0.130291,16,32765
0.991899,-0.137606,-0.131532,15,32765
0.961982,-0.136855,-0.127519,15,32765
0.971318,-0.141612,-0.128795,16,32765
0.980658,-0.146394,-0.129919,15,32765
0.98996,-0.151255,-0.131151,15,32765
0.979648,-0.153165,-0.129734,16,32765
0.979115,-0.156538,-0.12973,16,32765
0.939438,-0.153555,-0.124406,15,32765
0.968265,-0.161692,-0.128133,16,32765
0.997041,-0.170018,-0.13192,16,32765
0.986708,-0.171712,-0.130471,15,32765
0.97637,-0.173302,-0.129108,15,32765
0.956269,-0.173093,-0.126448,16,32765
0.965462,-0.178124,-0.127493,16,32765
0.974614,-0.183268,-0.128611,16,32765
0.973994,-0.186623,-0.128481,16,32765
0.953907,-0.18614,-0.125749,16,32765
0.953286,-0.189377,-0.125626,16,32765
0.972114,-0.196527,-0.127952,15,32765
0.981179,-0.201876,-0.128971,16,32765
0.990198,-0.207279,-0.130171,16,32765
0.970108,-0.206572,-0.127354,16,32765
0.988807,-0.214114,-0.129676,16,32765
0.95904,-0.211069,-0.125669,16,32765
0.987381,-0.220841,-0.129262,16,32765
0.976988,-0.221974,-0.127757,16,32765
0.966599,-0.223058,-0.12622,16,32765
0.975522,-0.228615,-0.127245,16,32765
0.994081,-0.236483,-0.12953,16,32765
0.993317,-0.239849,-0.129208,16,32765
1.0118,-0.247938,-0.131466,16,32765
0.972481,-0.241764,-0.126218,16,32765
0.990946,-0.249879,-0.128403,16,32765
0.951707,-0.243324,-0.123074,16,32765
0.979746,-0.253936,-0.126545,16,32765
1.00773,-0.264768,-0.129913,16,32765
0.997293,-0.265572,-0.128371,15,32765
0.98686,-0.26633,-0.126792,16,32765
0.995587,-0.272252,-0.127616,16,32765
0.946894,-0.262333,-0.121135,15,32765
0.984279,-0.276238,-0.125649,16,32765
0.992933,-0.282261,-0.126539,15,32765
1.00156,-0.288352,-0.127369,16,32765
0.991143,-0.288862,-0.125674,15,32765
1.01879,-0.300573,-0.128933,15,32765
1.00833,-0.301097,-0.12731,15,32765
0.997891,-0.301503,-0.125739,16,32765
1.00646,-0.307643,-0.126475,15,32765
1.02449,-0.316778,-0.128335,16,32765
1.04247,-0.326074,-0.130125,16,32765
0.994117,-0.314524,-0.123717,16,32765
1.00262,-0.320726,-0.124454,15,32765
1.02998,-0.333185,-0.127358,16,32765
1.00065,-0.32729,-0.123233,16,32765
1.01852,-0.33676,-0.124925,16,32765
0.961447,0.0192248,-0.127084,15,32765
0.971349,0.016165,-0.128918,15,32765
0.961417,0.0127273,-0.12812,15,32765
0.911844,0.00897223,-0.121898,14,32765
0.941541,0.0060671,-0.126345,15,32765
0.941511,0.00289484,-0.126683,15,32765
0.901836,-0.000246555,-0.121624,15,32765
0.812603,-0.00300002,-0.109855,15,32765
0.911646,-0.00642144,-0.123531,15,32765
0.941314,-0.00982667,-0.127791,15,32765
0.881796,-0.0122012,-0.119946,14,32765
0.93126,-0.0160847,-0.126868,15,32765
0.911356,-0.0189358,-0.124383,15,32765
0.911255,-0.0221216,-0.124597,15,32765
0.911141,-0.0252953,-0.124832,15,32765
0.901121,-0.0281104,-0.123656,15,32765
0.920808,-0.0318498,-0.126483,15,32765
0.950364,-0.0361221,-0.13078,16,32765
0.930434,-0.0385164,-0.128098,15,32765
0.920384,-0.0412483,-0.126851,15,32765
0.940007,-0.0453154,-0.12974,15,32765
0.929934,-0.0479563,-0.128544,15,32765
0.939656,-0.0516298,-0.129926,15,32765
0.939469,-0.0547819,-0.129985,15,32765
0.959044,-0.0592166,-0.132773,15,32765
0.909396,-0.0592945,-0.126029,15,32765
0.899295,-0.0617432,-0.124722,15,32765
0.918826,-0.0662771,-0.127537,15,32765
0.938346,-0.0709305,-0.130291,15,32765
0.938091,-0.0741641,-0.130323,15,32765
0.918096,-0.075732,-0.127529,15,32765
0.967182,-0.0831333,-0.134345,15,32765
0.947144,-0.0846787,-0.131712,15,32765
0.92713,-0.0860717,-0.128928,15,32765
0.897236,-0.0864291,-0.124891,15,32765
0.946217,-0.0944483,-0.131734,15,32765
0.916341,-0.0946872,-0.127489,15,32765
0.955396,-0.102092,-0.133024,15,32765
0.935374,-0.10321,-0.130091,15,32765
0.915323,-0.104185,-0.127392,15,32765
0.895303,-0.104995,-0.124537,15,32765
0.924443,-0.111595,-0.128654,15,32765
0.963389,-0.11963,-0.134051,16,32765
0.933518,-0.119147,-0.129804,15,32765
0.933112,-0.122386,-0.129707,15,32765
0.952336,-0.128256,-0.132316,15,32765
0.942094,-0.130145,-0.13085,15,32765
0.931854,-0.131994,-0.129331,15,32765
0.970641,-0.140832,-0.134622,15,32765
0.901564,-0.134019,-0.124983,15,32765
0.940283,-0.143137,-0.130308,15,32765
0.949599,-0.147953,-0.13142,15,32765
0.929523,-0.148149,-0.1286,15,32765
0.919251,-0.149705,-0.127148,15,32765
0.91876,-0.152823,-0.126983,15,32765
0.967095,-0.164274,-0.133574,16,32765
0.937254,-0.162552,-0.129351,15,32765
0.897653,-0.158957,-0.1239,15,32765
0.897129,-0.162061,-0.123673,15,32765
0.945314,-0.174113,-0.130257,15,32765
0.876574,-0.1645,-0.120659,15,32765
0.914968,-0.174922,-0.125838,15,32765
0.93384,-0.181819,-0.128394,15,32765
0.933231,-0.18503,-0.128231,15,32765
0.922888,-0.186298,-0.126772,16,32765
0.941683,-0.193463,-0.129251,16,32765
0.941034,-0.19669,-0.129106,15,32765
0.891902,-0.189618,-0.122297,15,32765
0.949395,-0.205226,-0.130123,15,32765
0.929364,-0.204194,-0.127231,15,32765
0.909329,-0.203006,-0.124535,16,32765
0.966653,-0.219219,-0.132379,16,32765
0.946608,-0.218054,-0.129562,16,32765
0.945891,-0.22124,-0.129397,16,32765
0.945156,-0.224474,-0.129198,16,32765
0.934759,-0.225341,-0.127854,16,32765
0.953272,-0.233195,-0.130358,16,32765
0.92364,-0.229264,-0.126201,15,32765
0.903663,-0.227491,-0.123459,15,32765
0.950937,-0.242777,-0.129913,16,32765
0.902148,-0.233518,-0.123284,15,32765
0.920555,-0.241583,-0.12576,16,32765
0.938902,-0.249782,-0.128346,15,32765
0.918922,-0.247786,-0.125639,15,32765
0.927653,-0.253488,-0.1269,15,32765
0.965049,-0.267147,-0.131961,16,32765
0.925985,-0.259642,-0.126644,16,32765
0.934666,-0.26541,-0.127898,16,32765
0.933781,-0.268487,-0.127935,16,32765
0.932898,-0.271614,-0.12778,15,32765
0.922479,-0.271901,-0.126502,16,32765
0.912063,-0.272153,-0.125195,15,32765
0.930157,-0.280931,-0.127617,15,32765
0.929235,-0.283948,-0.127655,16,32765
0.909366,-0.281098,-0.125049,16,32765
0.917913,-0.286976,-0.126412,16,32765
0.907532,-0.286951,-0.125076,16,32765
0.92544,-0.295966,-0.127922,16,32765
0.933911,-0.302025,-0.129196,16,32765
0.895208,-0.292745,-0.124109,16,32765
0.913076,-0.3018,-0.126923,16,32765
0.890913,0.0177792,-0.126324,15,32765
0.881001,0.0146178,-0.125396,15,32765
0.86118,0.0113489,-0.123042,15,32765
0.861163,0.00841334,-0.123402,15,32765
0.871022,0.00554293,-0.125258,15,32765
0.900684,0.00268813,-0.129851,15,32765
0.841265,-0.00031419,-0.121545,15,32765
0.831323,-0.0031608,-0.120381,15,32765
0.831271,-0.00595526,-0.120636,15,32765
0.870798,-0.00920403,-0.126594,15,32765
0.85094,-0.0118938,-0.123936,15,32765
0.850869,-0.0148243,-0.124103,15,32765
0.880461,-0.0184357,-0.128639,15,32765
0.870469,-0.0212809,-0.127398,15,32765
0.880247,-0.0245979,-0.129072,15,32765
0.870242,-0.0273144,-0.127797,15,32765
0.840466,-0.0292409,-0.12354,15,32765
0.889764,-0.0340079,-0.131009,15,32765
0.859983,-0.0357914,-0.126682,15,32765
0.849956,-0.0382899,-0.125332,15,32765
0.879444,-0.0426096,-0.129855,15,32765
0.849634,-0.0440303,-0.125632,15,32765
0.859356,-0.0474438,-0.127107,15,32765
0.849308,-0.0497565,-0.125698,15,32765
0.829378,-0.0514455,-0.12282,15,32765
0.848925,-0.0556011,-0.125837,15,32765
0.83885,-0.0578484,-0.124432,15,32765
0.838635,-0.0607566,-0.1245,15,32765
0.828555,-0.0629006,-0.123044,15,32765
0.867773,-0.0688959,-0.128933,15,32765
0.847822,-0.0702283,-0.125956,15,32765
0.857436,-0.0740055,-0.127384,15,32765
0.84731,-0.0760638,-0.126017,15,32765
0.827352,-0.0771205,-0.12305,15,32765
0.846761,-0.0818952,-0.126053,15,32765
0.86616,-0.0868022,-0.128967,15,32765
0.846191,-0.0877842,-0.125916,15,32765
0.836036,-0.0896884,-0.124497,15,32765
0.855411,-0.0947542,-0.127252,15,32765
0.855074,-0.0977042,-0.127289,15,32765
0.874401,-0.102938,-0.130102,15,32765
0.844582,-0.102344,-0.125726,15,32765
0.883504,-0.110127,-0.131503,15,32765
0.863518,-0.110629,-0.128447,15,32765
0.863141,-0.113634,-0.128357,15,32765
0.862758,-0.116626,-0.128246,15,32765
0.832969,-0.115499,-0.123784,15,32765
0.881562,-0.125333,-0.130917,15,32765
0.871363,-0.126894,-0.129323,15,32765
0.861145,-0.128481,-0.127756,15,32765
0.870485,-0.132997,-0.129105,16,32765
0.879821,-0.137581,-0.130329,16,32765
0.869579,-0.139099,-0.128777,16,32765
0.878881,-0.143649,-0.130128,16,32765
0.86865,-0.14501,-0.128526,16,32765
0.858413,-0.146338,-0.126936,15,32765
0.896918,-0.156114,-0.132538,16,32765
0.857395,-0.152372,-0.126717,15,32765
0.866631,-0.15711,-0.127937,15,32765
0.875835,-0.161891,-0.129246,16,32765
0.855861,-0.161184,-0.12618,16,32765
0.92337,-0.177154,-0.136031,16,32765
0.903351,-0.176505,-0.133049,15,32765
0.873639,-0.173826,-0.128604,15,32765
0.863347,-0.174894,-0.127059,15,32765
0.85307,-0.175875,-0.125459,16,32765
0.862167,-0.180839,-0.126752,16,32765
0.85188,-0.181744,-0.125179,16,32765
0.880293,-0.190955,-0.129307,16,32765
0.889337,-0.196083,-0.130501,16,32765
0.859697,-0.192596,-0.126202,16,32765
0.878361,-0.199891,-0.128941,16,32765
0.887342,-0.205115,-0.130199,16,32765
0.867392,-0.203586,-0.127216,16,32765
0.876345,-0.208856,-0.128445,16,32765
0.885259,-0.21415,-0.129832,16,32765
0.855706,-0.210055,-0.125479,15,32765
0.855014,-0.212967,-0.125286,16,32765
0.854315,-0.215814,-0.125178,16,32765
0.863191,-0.22114,-0.126482,15,32765
0.852876,-0.22153,-0.125012,15,32765
0.842569,-0.221883,-0.123472,15,32765
0.880083,-0.234945,-0.129051,15,32765
0.86018,-0.232749,-0.126163,16,32765
0.907141,-0.248742,-0.133125,15,32765
0.839549,-0.233211,-0.123165,15,32765
0.886439,-0.249413,-0.130075,15,32765
0.866568,-0.246925,-0.127229,15,32765
0.88477,-0.255276,-0.13006,15,32765
0.912443,-0.266578,-0.134103,15,32765
0.873567,-0.258375,-0.128539,16,32765
0.872695,-0.261308,-0.128535,15,32765
0.881317,-0.267102,-0.129754,15,32765
0.870971,-0.267067,-0.128395,15,32765
0.870099,-0.269893,-0.128393,15,32765
0.869217,-0.272694,-0.128449,15,32765
0.83058,-0.263531,-0.122834,15,32765
0.86739,-0.278365,-0.128641,15,32765
0.838226,-0.272023,-0.124417,15,32765
0.865537,-0.284027,-0.128739,15,32765
0.827011,-0.274306,-0.123322,15,32765
0,0,-0,0,32765
0.790394,0.0137845,-0.122829,15,32765
0.859595,0.0121328,-0.133598,15,32765
0.820103,0.00876373,-0.127494,15,32765
0.790481,0.00569764,-0.12291,15,32765
0.760841,0.00287648,-0.118377,15,32765
0.691685,0.000233069,-0.107574,15,32765
0.741095,-0.00227998,-0.11521,15,32765
0.770723,-0.00499685,-0.119838,15,32765
0.780592,-0.00773968,-0.121307,15,32765
0.82997,-0.0110796,-0.128944,16,32765
0.800288,-0.0134366,-0.12433,16,32765
0.81013,-0.0164038,-0.12578,15,32765
0.790317,-0.0187479,-0.122669,15,32765
0.810016,-0.0220196,-0.125652,15,32765
0.790198,-0.024176,-0.122484,15,32765
0.799991,-0.0271996,-0.123995,16,32765
0.780154,-0.0292053,-0.120861,15,32765
0.789928,-0.0322841,-0.122359,15,32765
0.819437,-0.036302,-0.126904,15,32765
0.809452,-0.0386607,-0.125274,15,32765
0.809331,-0.0414577,-0.125155,15,32765
0.789456,-0.0431733,-0.122043,15,32765
0.818913,-0.0475996,-0.126553,15,32765
0.828613,-0.05101,-0.128059,15,32765
0.848172,-0.0551033,-0.131024,15,32765
0.828284,-0.0566264,-0.127826,15,32765
0.818251,-0.0587389,-0.126156,15,32765
0.818034,-0.0615254,-0.126236,15,32765
0.867097,-0.068279,-0.133716,15,32765
0.837309,-0.0688971,-0.129101,15,32765
0.817384,-0.0701697,-0.125938,15,32765
0.856521,-0.0765898,-0.13193,15,32765
0.846415,-0.078667,-0.130358,15,32765
0.875657,-0.0844329,-0.134891,15,32765
0.836034,-0.0834993,-0.128747,15,32765
0.865253,-0.0894151,-0.1332,15,32765
0.835463,-0.0892253,-0.128607,15,32765
0.844986,-0.0931919,-0.130052,15,32765
0.825023,-0.0938906,-0.126969,15,32765
0.785426,-0.0921424,-0.120894,16,32765
0.814551,-0.0984299,-0.125371,15,32765
0.814216,-0.101268,-0.12529,15,32765
0.823673,-0.105353,-0.126741,15,32765
0.842914,-0.110795,-0.129697,15,32765
0.832727,-0.112367,-0.128217,15,32765
0.812761,-0.112523,-0.125129,16,32765
0.861311,-0.122265,-0.132646,16,32765
0.821766,-0.119514,-0.126558,16,32765
0.821369,-0.122353,-0.126424,16,32765
0.85028,-0.129639,-0.130834,15,32765
0.840058,-0.131063,-0.129325,16,32765
0.8396,-0.134018,-0.12927,16,32765
0.82938,-0.13538,-0.127675,16,32765
0.838664,-0.139906,-0.129109,16,32765
0.818703,-0.139496,-0.125965,16,32765
0.837709,-0.145705,-0.12889,16,32765
0.827481,-0.146846,-0.127326,16,32765
0.817266,-0.147937,-0.125664,16,32765
0.836205,-0.154316,-0.128637,16,32765
0.835689,-0.157137,-0.128573,15,32765
0.825476,-0.158114,-0.126844,15,32765
0.854053,-0.166598,-0.131296,16,32765
0.824396,-0.163739,-0.126733,16,32765
0.872329,-0.17638,-0.133908,15,32765
0.852353,-0.1754,-0.13088,16,32765
0.832401,-0.174271,-0.12782,15,32765
0.802811,-0.170941,-0.123181,16,32765
0.821572,-0.17788,-0.126011,16,32765
0.81133,-0.178543,-0.124364,16,32765
0.830055,-0.185608,-0.127114,16,32765
0.848731,-0.192814,-0.129919,16,32765
0.828827,-0.191231,-0.126795,16,32765
0.828194,-0.194074,-0.126611,16,32765
0.856429,-0.20373,-0.130855,15,32765
0.826915,-0.199668,-0.126273,15,32765
0.864694,-0.211889,-0.131935,16,32765
0.825606,-0.205252,-0.12588,15,32765
0.844138,-0.212889,-0.128488,16,32765
0.833856,-0.213281,-0.126866,16,32765
0.84275,-0.21856,-0.12808,15,32765
0.842063,-0.221362,-0.127787,16,32765
0.822248,-0.219077,-0.124552,15,32765
0.878856,-0.237311,-0.133024,16,32765
0.849466,-0.232397,-0.128449,15,32765
0.877341,-0.24315,-0.132477,15,32765
0.838458,-0.235361,-0.126463,15,32765
0.86628,-0.246276,-0.130412,15,32765
0.884529,-0.254642,-0.132911,15,32765
0.86472,-0.252049,-0.129734,15,32765
0.863942,-0.254916,-0.129316,15,32765
0.853672,-0.254928,-0.127498,16,32765
0.881296,-0.26632,-0.131495,16,32765
0.899419,-0.274996,-0.133876,16,32765
0.879671,-0.272046,-0.130649,16,32765
0.85051,-0.266018,-0.125962,15,32765
0.868593,-0.274751,-0.128287,15,32765
0.867781,-0.277565,-0.127724,15,32765
0.866941,-0.280377,-0.127286,15,32765
0.856688,-0.280109,-0.125395,15,32765
0.837087,-0.27662,-0.121929,15,32765
0,0,-0,0,32765
0.779336,0.0135438,-0.128652,15,32765
0.78924,0.0110834,-0.1303,15,32765
0.779401,0.00826507,-0.128708,15,32765
0.779421,0.00554605,-0.128732,16,32765
0.749824,0.00275792,-0.123918,15,32765
0.720238,0.000161386,-0.118984,15,32765
0.710376,-0.00227292,-0.117307,15,32765
0.769558,-0.00509194,-0.127103,15,32765
0.749815,-0.00754221,-0.123779,15,32765
0.74979,-0.0101247,-0.123742,16,32765
0.759617,-0.0128786,-0.125361,16,32765
0.779311,-0.0159158,-0.128536,15,32765
0.798986,-0.0191014,-0.131747,16,32765
0.798928,-0.0218744,-0.131664,16,32765
0.759416,-0.0233904,-0.125062,16,32765
0.769196,-0.0263187,-0.126667,16,32765
0.749392,-0.0282233,-0.123349,16,32765
0.769014,-0.0316113,-0.126564,16,32765
0.788623,-0.0351317,-0.129767,16,32765
0.778656,-0.0373903,-0.128047,15,32765
0.768686,-0.0395814,-0.126314,16,32765
0.78826,-0.0433272,-0.129493,16,32765
0.788117,-0.046037,-0.129428,15,32765
0.758409,-0.0469151,-0.124558,16,32765
0.758257,-0.0494963,-0.124483,16,32765
0.79749,-0.054776,-0.130803,16,32765
0.767792,-0.0553699,-0.125819,16,32765
0.767586,-0.0579925,-0.125894,16,32765
0.79691,-0.0630319,-0.130621,16,32765
0.796691,-0.0658433,-0.130567,16,32765
0.796472,-0.0686714,-0.130445,16,32765
0.806065,-0.0723873,-0.131982,16,32765
0.795988,-0.0742943,-0.13032,16,32765
0.795728,-0.0770484,-0.130307,16,32765
0.805293,-0.0807639,-0.131836,16,32765
0.785389,-0.0814969,-0.128538,16,32765
0.794927,-0.0852436,-0.130095,16,32765
0.784827,-0.0869087,-0.128425,15,32765
0.804142,-0.0918832,-0.131578,15,32765
0.774415,-0.0912143,-0.126735,15,32765
0.7839,-0.0951028,-0.128285,15,32765
0.79337,-0.0990656,-0.12981,16,32765
0.8224,-0.105603,-0.134559,16,32765
0.81225,-0.107182,-0.132896,16,32765
0.782527,-0.106004,-0.128119,15,32765
0.782167,-0.108707,-0.12805,16,32765
0.811108,-0.115583,-0.132832,16,32765
0.800949,-0.116934,-0.131174,16,32765
0.790798,-0.118249,-0.129445,16,32765
0.800161,-0.122462,-0.130944,16,32765
0.780225,-0.12219,-0.127744,15,32765
0.818787,-0.13119,-0.134078,16,32765
0.79885,-0.130888,-0.130796,16,32765
0.827606,-0.13858,-0.135513,16,32765
0.817411,-0.139796,-0.133777,16,32765
0.82666,-0.14432,-0.135297,16,32765
0.806731,-0.143696,-0.132048,16,32765
0.806256,-0.146485,-0.131886,16,32765
0.786337,-0.14565,-0.128689,16,32765
0.795551,-0.150142,-0.130217,16,32765
0.804768,-0.154715,-0.131576,16,32765
0.804239,-0.157458,-0.131552,16,32765
0.784342,-0.156356,-0.128299,16,32765
0.803192,-0.162996,-0.131208,16,32765
0.792961,-0.163774,-0.129578,16,32765
0.80207,-0.168533,-0.131076,16,32765
0.801516,-0.171287,-0.130895,16,32765
0.791294,-0.171947,-0.129185,16,32765
0.810016,-0.178901,-0.13217,16,32765
0.7998,-0.179491,-0.130393,16,32765
0.808835,-0.184416,-0.131818,16,32765
0.808234,-0.187153,-0.131651,16,32765
0.798,-0.187673,-0.129906,16,32765
0.806994,-0.192662,-0.131308,16,32765
0.787162,-0.190753,-0.128018,17,32765
0.815316,-0.200508,-0.132502,16,32765
0.805081,-0.200868,-0.130756,17,32765
0.804442,-0.203606,-0.13045,16,32765
0.803775,-0.206324,-0.130293,16,32765
0.783992,-0.204051,-0.126963,15,32765
0.831117,-0.219266,-0.134415,16,32765
0.801796,-0.214391,-0.129457,16,32765
0.772492,-0.209335,-0.124641,15,32765
0.819468,-0.224991,-0.132105,16,32765
0.809238,-0.225076,-0.13029,15,32765
0.7895,-0.222409,-0.126984,16,32765
0.807811,-0.230472,-0.129705,16,32765
0.797594,-0.230432,-0.127848,15,32765
0.796866,-0.233097,-0.127553,16,32765
0.805626,-0.238554,-0.12868,16,32765
0.823832,-0.246891,-0.131324,15,32765
0.804131,-0.243864,-0.128074,16,32765
0.803389,-0.246507,-0.127674,15,32765
0.830975,-0.257898,-0.131793,16,32765
0.820774,-0.257627,-0.129838,16,32765
0.820002,-0.2603,-0.12939,16,32765
0.819235,-0.262964,-0.128857,15,32765
0.809033,-0.262574,-0.126966,16,32765
0.827046,-0.271373,-0.129429,16,32765
0,-0,-0,0,32765
7.68866,2.49646,1.49016,30,32765
7.73419,2.48435,1.49599,30,32765
7.76111,2.46595,1.49755,29,32765
7.84433,2.46431,1.51103,29,32765
7.87174,2.44421,1.51193,29,32765
7.90814,2.42736,1.51568,28,32765
7.95427,2.41285,1.51994,29,32765
8.01917,2.40368,1.52815,29,32765
8.09372,2.39666,1.53758,29,32765
8.14923,2.38387,1.54403,30,32765
8.17622,2.36319,1.54508,27,32765
8.37333,2.39121,1.57858,13,32765
8.391,2.36719,1.57709,12,32765
8.44648,2.35321,1.58347,12,32765
8.35048,2.29689,1.56004,12,32765
8.31086,2.25693,1.54866,12,32765
8.43279,2.26048,1.56687,13,32765
8.47857,2.24332,1.57143,13,32765
8.4674,2.21081,1.56445,13,32765
8.47508,2.18327,1.56155,13,32765
8.47304,2.15308,1.55766,12,32765
8.45182,2.11823,1.54996,13,32765
8.45927,2.09067,1.54675,13,32765
8.42798,2.0541,1.53816,13,32765
8.36812,2.01047,1.52322,13,32765
8.34629,1.9764,1.5157,13,32765
8.35334,1.94875,1.51265,13,32765
8.39852,1.92981,1.51762,13,32765
8.40505,1.90222,1.51629,13,32765
8.33469,1.85732,1.50075,13,32765
8.34117,1.82999,1.49832,13,32765
8.34752,1.80263,1.49612,13,32765
8.3536,1.77544,1.49467,13,32765
8.27298,1.73014,1.47676,13,32765
8.2789,1.70305,1.47509,13,32765
8.30392,1.68008,1.47728,13,32765
8.32895,1.65665,1.47938,13,32765
8.29616,1.6216,1.4699,13,32765
8.34025,1.60173,1.47617,13,32765
8.2877,1.56336,1.46408,13,32765
8.29294,1.53639,1.46295,13,32765
8.24013,1.49811,1.45118,13,32765
8.19698,1.46175,1.4406,12,32765
8.20203,1.43431,1.43945,13,32765
8.20696,1.40714,1.43817,13,32765
8.21164,1.38068,1.4371,13,32765
8.21626,1.35443,1.43563,13,32765
8.24993,1.33238,1.4401,13,32765
8.18639,1.2943,1.42686,12,32765
8.31748,1.28633,1.4479,13,32765
8.36082,1.26428,1.45421,16,32765
8.28713,1.22446,1.4402,16,32765
8.3889,1.21084,1.45608,17,32765
8.37371,1.18008,1.45081,17,32765
8.35827,1.1494,1.44633,16,32765
8.3815,1.12477,1.44974,16,32765
8.38539,1.09715,1.44839,16,32765
8.35981,1.06577,1.4423,14,32765
0,0,0,0,32765
0,0,0,0,32765
0,0,0,0,32765
0,0,0,0,32765
0,0,0,0,32765
0,0,0,0,32765
0,0,0,0,32765
0,0,0,0,32765
0,0,0,0,32765
40.7931,3.83781,6.9591,16,32765
0,0,0,0,32765
0,0,0,0,32765
14.9438,1.25678,2.53896,13,32765
14.8402,1.19855,2.51808,14,32765
14.8933,1.15363,2.52606,13,32765
14.8485,1.10067,2.5142,13,32765
14.9411,1.05763,2.52624,14,32765
14.8167,1.00046,2.5038,12,32765
14.8598,0.954887,2.50681,12,32765
14.9124,0.909608,2.51292,11,32765
15.1618,0.875583,2.55198,11,32765
8.17334,0.44513,1.37416,16,32765
8.19475,0.419513,1.37567,17,32765
8.17659,0.391675,1.37111,17,32765
8.15843,0.364215,1.36592,17,32765
8.15986,0.337723,1.36419,17,32765
7.95415,0.303305,1.32829,13,32765
7.88639,0.274993,1.315,14,32765
7.91714,0.250037,1.31805,14,32765
7.90835,0.22404,1.31464,13,32765
7.86989,0.197325,1.30624,14,32765
7.91023,0.172648,1.31106,14,32765
7.8715,0.146784,1.30321,14,32765
7.8527,0.12107,1.29695,14,32765
7.873,0.0959586,1.29887,14,32765
7.85401,0.0702057,1.29277,14,32765
7.83486,0.0449143,1.28709,14,32765
7.83531,0.019934,1.28496,15,32765
7.87527,-0.00491722,1.28861,14,32765
7.87572,-0.0298243,1.28551,14,32765
7.83649,-0.0544961,1.27675,14,32765
7.61975,-0.0772891,1.23769,14,32765
7.61994,-0.101401,1.23479,14,32765
7.67275,2.49409,1.40873,37,32765
7.72771,2.48503,1.4159,36,32765
7.78282,2.47559,1.42242,35,32765
7.80981,2.45617,1.42487,35,32765
7.86543,2.44493,1.43072,35,32765
7.90187,2.42808,1.4342,34,32765
7.94804,2.41358,1.43809,34,32765
8.0319,2.4101,1.44915,35,32765
8.09711,2.40025,1.45622,36,32765
8.12432,2.37913,1.45711,37,32765
8.17971,2.36672,1.46306,38,32765
8.3487,2.3867,1.48963,16,32765
8.45171,2.38683,1.50324,14,32765
8.47884,2.36471,1.50409,14,32765
8.38269,2.30815,1.48166,13,32765
8.41912,2.28871,1.48416,13,32765
8.46515,2.2715,1.48782,15,32765
8.42524,2.23149,1.47696,14,32765
8.44259,2.20657,1.47519,14,32765
8.44069,2.17662,1.47063,14,32765
8.40992,2.1392,1.46186,14,32765
8.37903,2.10209,1.4528,14,32765
8.4247,2.08419,1.45623,14,32765
8.39332,2.04767,1.44802,14,32765
8.36209,2.01099,1.43869,15,32765
8.3498,1.97915,1.43309,15,32765
8.41448,1.9649,1.43991,14,32765
8.38285,1.92805,1.43136,13,32765
8.42786,1.90918,1.43659,14,32765
8.34776,1.86197,1.42014,14,32765
8.35425,1.83455,1.41771,14,32765
8.32203,1.79877,1.40898,14,32765
8.30879,1.76752,1.40427,14,32765
8.31491,1.74047,1.40186,14,32765
8.30152,1.70922,1.39693,14,32765
8.2879,1.6783,1.39243,14,32765
8.26457,1.64526,1.38623,14,32765
8.31882,1.62742,1.39172,14,32765
8.2564,1.58696,1.37981,14,32765
8.29097,1.56526,1.38285,14,32765
8.2671,1.53284,1.37687,14,32765
8.25302,1.50165,1.37212,14,32765
8.25837,1.47385,1.37006,14,32765
8.26346,1.44616,1.3689,14,32765
8.22951,1.41207,1.36117,14,32765
8.23421,1.38549,1.3601,14,32765
8.19988,1.35271,1.3522,15,32765
8.20436,1.32595,1.35158,14,32765
8.19918,1.29721,1.34862,13,32765
8.25244,1.27713,1.35563,14,32765
8.32509,1.2597,1.36637,21,32765
8.30009,1.22714,1.36111,19,32765
8.35317,1.20641,1.36806,20,32765
8.36724,1.17986,1.36778,19,32765
8.36154,1.1505,1.36508,20,32765
8.36525,1.12319,1.36511,20,32765
8.36913,1.09558,1.36377,20,32765
8.35328,1.06545,1.35955,17,32765
8.2296,1.02226,1.33739,11,32765
0,0,0,0,32765
0,0,0,0,32765
0,0,0,0,32765
0,0,0,0,32765
0,0,0,0,32765
42.3954,4.41373,6.84068,15,32765
42.4884,4.28327,6.85206,15,32765
42.3856,4.1298,6.82677,14,32765
0,0,0,0,32765
40.6838,3.69223,6.53234,14,32765
41.1001,3.59207,6.59168,16,32765
14.9178,1.25454,2.38949,16,32765
14.8731,1.20107,2.37909,15,32765
14.877,1.15216,2.37873,15,32765
14.8616,1.10136,2.37206,15,32765
14.8263,1.04915,2.36285,15,32765
14.8889,1.0049,2.37145,14,32765
14.8729,0.955224,2.36467,12,32765
14.8763,0.906826,2.36248,12,32765
15.0965,0.871148,2.39453,18,32765
8.15636,0.443807,1.2922,18,32765
8.15805,0.417196,1.2904,21,32765
8.13984,0.389437,1.28604,20,32765
8.17096,0.364256,1.28883,21,32765
8.12303,0.335644,1.27932,20,32765
7.92686,0.301684,1.24693,15,32765
7.92808,0.275828,1.24516,16,32765
7.92924,0.249761,1.24327,16,32765
7.89078,0.222849,1.23531,16,32765
7.89175,0.197141,1.23347,16,32765
7.85311,0.170635,1.22558,15,32765
7.89333,0.146383,1.23043,16,32765
7.85471,0.12026,1.22128,15,32765
7.85527,0.0948627,1.21994,16,32765
7.82633,0.0690445,1.2125,15,32765
7.82689,0.0439174,1.21007,16,32765
7.8372,0.0189489,1.20947,17,32765
7.85742,-0.00593525,1.2097,17,32765
7.8183,-0.0306672,1.20054,16,32765
7.83829,-0.055609,1.20126,16,32765
7.62119,-0.078409,1.16425,15,32765
7.62134,-0.102561,1.16135,16,32765
7.65861,2.49457,1.30705,30,32765
7.71305,2.48572,1.31688,29,32765
7.76791,2.47618,1.32504,28,32765
7.8321,2.46926,1.33541,28,32765
7.86827,2.45244,1.34105,27,32765
7.91393,2.43841,1.3476,27,32765
7.95009,2.42163,1.35211,27,32765
8.00503,2.4106,1.35996,28,32765
8.07893,2.40483,1.37085,27,32765
8.10565,2.38436,1.37362,28,32765
8.17959,2.37753,1.38509,31,32765
8.26329,2.3726,1.39746,15,32765
8.44203,2.39404,1.42577,13,32765
8.45001,2.36612,1.42509,13,32765
8.4484,2.33585,1.42223,12,32765
8.45608,2.30825,1.42165,12,32765
8.39691,2.26296,1.40963,13,32765
8.51894,2.26599,1.42755,13,32765
8.49785,2.23057,1.42163,12,32765
8.45758,2.19009,1.41258,13,32765
8.50316,2.17227,1.41761,13,32765
8.4912,2.13967,1.41362,13,32765
8.41217,2.09027,1.39806,13,32765
8.39035,2.05586,1.3921,13,32765
8.33006,2.01202,1.37993,13,32765
8.41375,2.00259,1.3914,13,32765
8.33394,1.95451,1.37633,13,32765
8.34063,1.92656,1.37521,13,32765
8.34724,1.89913,1.37325,13,32765
8.34397,1.86977,1.37032,13,32765
8.32138,1.83634,1.36362,13,32765
8.34704,1.81288,1.36489,13,32765
8.3338,1.78096,1.36122,13,32765
8.3109,1.74701,1.35531,13,32765
8.36553,1.72914,1.3603,13,32765
8.30343,1.68829,1.34874,13,32765
8.36719,1.67297,1.35679,13,32765
8.27608,1.62643,1.33896,13,32765
8.30091,1.60285,1.34142,13,32765
8.28714,1.57136,1.33631,13,32765
8.29271,1.54355,1.33417,13,32765
8.25908,1.50887,1.32696,13,32765
8.26422,1.48158,1.32577,13,32765
8.30831,1.46095,1.33014,12,32765
8.22582,1.4182,1.31416,13,32765
8.23066,1.39101,1.31292,13,32765
8.26482,1.36873,1.3152,13,32765
8.16219,1.32428,1.29689,13,32765
8.29359,1.31781,1.31519,12,32765
8.24929,1.28293,1.30608,12,32765
8.30264,1.26288,1.312,16,32765
8.29726,1.23369,1.30906,16,32765
8.33079,1.20996,1.31313,17,32765
8.3841,1.18885,1.31847,18,32765
8.37832,1.15922,1.31663,17,32765
8.38245,1.13153,1.31444,17,32765
8.32762,1.09611,1.30354,17,32765
8.38021,1.0756,1.31063,15,32765
0,0,0,0,32765
0,0,0,0,32765
0,0,0,0,32765
0,0,0,0,32765
0,0,0,0,32765
0,0,0,0,32765
0,0,0,0,32765
0,0,0,0,32765
0,0,0,0,32765
0,0,0,0,32765
0,0,0,0,32765
0,0,0,0,32765
14.9205,1.27071,2.29938,14,32765
14.9247,1.22173,2.29821,14,32765
14.9092,1.17109,2.29372,14,32765
14.8243,1.11645,2.27912,13,32765
14.8476,1.06928,2.28244,13,32765
14.9794,1.03057,2.30048,13,32765
14.8149,0.970714,2.27532,12,32765
14.9464,0.930799,2.29404,12,32765
15.0874,0.890296,2.31566,20,32765
8.18193,0.455684,1.25396,15,32765
8.19312,0.429858,1.25616,17,32765
8.17476,0.401892,1.25307,17,32765
8.17592,0.375397,1.25374,17,32765
8.15737,0.347739,1.25062,17,32765
7.97074,0.313678,1.22224,13,32765
7.92228,0.286252,1.21491,14,32765
7.92304,0.260374,1.21576,14,32765
7.904,0.234052,1.21325,14,32765
7.90467,0.208027,1.21364,14,32765
7.90523,0.181982,1.21415,14,32765
7.88589,0.156,1.21195,14,32765
7.8665,0.130492,1.20946,14,32765
7.8667,0.105641,1.21056,14,32765
7.80748,0.0799205,1.20284,14,32765
7.84703,0.054819,1.21027,14,32765
7.86668,0.0290578,1.21495,15,32765
7.8466,0.00302397,1.21424,15,32765
7.80695,-0.0224327,1.20874,14,32765
7.85581,-0.0478358,1.21919,15,32765
7.60839,-0.0711068,1.18206,14,32765
7.62734,-0.095731,1.18865,14,32765
7.65024,2.49506,1.22805,36,32765
7.70477,2.48624,1.23742,34,32765
7.77855,2.48274,1.24813,33,32765
7.82401,2.46984,1.25492,33,32765
7.86967,2.45597,1.26179,33,32765
7.87762,2.43027,1.26191,32,32765
7.94218,2.42224,1.27068,32,32765
8.00666,2.41408,1.27957,33,32765
8.04278,2.39702,1.28377,33,32765
8.11692,2.39061,1.2939,33,32765
8.16252,2.37546,1.30019,37,32765
8.19882,2.35694,1.30425,22,32765
8.41579,2.38947,1.33693,14,32765
8.42376,2.36159,1.33625,14,32765
8.36496,2.31553,1.32444,13,32765
8.43933,2.3064,1.33442,13,32765
8.44688,2.2791,1.3336,15,32765
8.42582,2.24384,1.32781,14,32765
8.462,2.22374,1.33121,14,32765
8.42163,2.1833,1.32262,14,32765
8.42893,2.15578,1.32128,14,32765
8.39772,2.11852,1.31448,14,32765
8.44323,2.10035,1.31926,14,32765
8.4118,2.06342,1.31208,14,32765
8.38027,2.0264,1.30504,15,32765
8.38717,1.99847,1.3038,14,32765
8.3746,1.9662,1.30003,14,32765
8.38133,1.93807,1.2989,14,32765
8.37833,1.90826,1.29544,14,32765
8.39437,1.88308,1.29558,14,32765
8.33315,1.84089,1.28319,14,32765
8.33952,1.81316,1.28131,14,32765
8.30692,1.77706,1.27485,15,32765
8.313,1.74925,1.27368,14,32765
8.28052,1.71333,1.26488,15,32765
8.28612,1.68647,1.26433,14,32765
8.26267,1.65373,1.25853,14,32765
8.2878,1.63035,1.25936,15,32765
8.27382,1.59919,1.25573,15,32765
8.26001,1.56773,1.25081,15,32765
8.2461,1.53634,1.24574,15,32765
8.27078,1.51243,1.24772,14,32765
8.23697,1.47807,1.24065,14,32765
8.20315,1.44378,1.23294,14,32765
8.15947,1.40803,1.22368,14,32765
8.21304,1.38926,1.22975,15,32765
8.25698,1.36863,1.2332,14,32765
8.22254,1.33522,1.22611,14,32765
8.16851,1.29904,1.21556,13,32765
8.31959,1.29494,1.23598,13,32765
8.32413,1.26718,1.23418,20,32765
8.33832,1.24079,1.23422,19,32765
8.37192,1.21687,1.23801,20,32765
8.37632,1.18865,1.23565,21,32765
8.38033,1.16035,1.23535,21,32765
8.36484,1.12996,1.23027,21,32765
8.34916,1.09971,1.22569,21,32765
8.35274,1.07279,1.22511,17,32765
8.40536,1.05165,1.23191,11,32765
0,0,0,18,32765
0,0,0,0,32765
0,0,0,0,32765
0,0,0,0,32765
0,0,0,0,32765
0,0,0,0,32765
0,0,0,0,32765
0,0,0,0,32765
0,0,0,0,32765
0,0,0,0,32765
0,0,0,0,32765
14.9118,1.27022,2.15375,16,32765
14.9062,1.22039,2.15115,15,32765
14.8906,1.16972,2.14685,15,32765
14.8945,1.12175,2.14589,15,32765
14.8388,1.06858,2.13764,15,32765
14.8424,1.021,2.136,14,32765
14.7369,0.965383,2.12095,12,32765
15.076,0.938568,2.1683,12,32765
15.0888,0.889993,2.17014,17,32765
8.16374,0.454421,1.17234,17,32765
8.17495,0.42861,1.17445,20,32765
8.17633,0.401631,1.17438,20,32765
8.15772,0.37418,1.17222,20,32765
8.15892,0.347381,1.17212,20,32765
7.98192,0.31366,1.14693,15,32765
7.90372,0.285085,1.13581,16,32765
7.94406,0.260524,1.14235,16,32765
7.89532,0.233215,1.13576,16,32765
7.85641,0.206137,1.13045,16,32765
7.86687,0.180436,1.13239,16,32765
7.86729,0.154928,1.13322,16,32765
7.7786,0.128297,1.12093,15,32765
7.8283,0.104342,1.12916,18,32765
7.7987,0.0790087,1.12628,15,32765
7.81851,0.0537535,1.13047,16,32765
7.8481,0.0280764,1.13639,17,32765
7.84781,0.00206774,1.13874,17,32765
7.8279,-0.0234889,1.13648,16,32765
7.81748,-0.04864,1.13783,16,32765
7.62909,-0.0723539,1.11168,16,32765
7.58873,-0.0963365,1.10942,16,32765
7.6488,2.48515,1.25679,30,32765
7.72317,2.48236,1.26281,28,32765
7.76962,2.46941,1.2639,28,32765
7.83487,2.46233,1.26803,26,32765
7.86273,2.4424,1.26534,27,32765
7.90883,2.42878,1.26817,27,32765
7.94552,2.41204,1.26917,26,32765
7.99181,2.39794,1.27062,27,32765
8.03785,2.38365,1.27339,27,32765
8.09361,2.37146,1.27692,28,32765
8.19692,2.37255,1.28778,31,32765
8.24328,2.35657,1.28992,16,32765
8.46081,2.38851,1.31979,13,32765
8.38336,2.33702,1.30293,12,32765
8.42969,2.32001,1.3052,13,32765
8.39955,2.28232,1.29562,12,32765
8.45501,2.26787,1.30078,13,32765
8.4629,2.24027,1.2973,13,32765
8.50875,2.22276,1.30098,13,32765
8.47822,2.18502,1.29152,13,32765
8.50488,2.16227,1.29172,13,32765
8.49311,2.12972,1.28602,13,32765
8.46224,2.09199,1.27678,13,32765
8.50777,2.07367,1.28069,13,32765
8.42837,2.02478,1.26506,14,32765
8.42559,1.99503,1.26167,13,32765
8.44198,1.97006,1.26072,13,32765
8.34275,1.91786,1.2421,13,32765
8.32017,1.88435,1.23625,13,32765
8.35554,1.86355,1.23878,13,32765
8.33303,1.82962,1.2319,13,32765
8.31999,1.7977,1.22723,13,32765
8.32645,1.76924,1.22477,13,32765
8.36159,1.74746,1.22762,12,32765
8.33847,1.714,1.22153,13,32765
8.32474,1.68333,1.21715,13,32765
8.31108,1.6526,1.21178,13,32765
8.30685,1.62365,1.20933,14,32765
8.28331,1.5908,1.20268,16,32765
8.25952,1.55773,1.19745,15,32765
8.25492,1.52862,1.1958,13,32765
8.25054,1.49954,1.19203,13,32765
8.28495,1.47731,1.19467,13,32765
8.24124,1.44138,1.18611,13,32765
8.20715,1.40735,1.17904,13,32765
8.25087,1.38686,1.1842,13,32765
8.25555,1.35992,1.18281,13,32765
8.22109,1.32626,1.17592,13,32765
8.18648,1.29319,1.1688,12,32765
8.29852,1.28283,1.18296,13,32765
8.33232,1.25945,1.18586,18,32765
8.32679,1.2302,1.18375,17,32765
8.40944,1.2133,1.19397,17,32765
8.40387,1.18394,1.19088,18,32765
8.34903,1.14766,1.1818,18,32765
8.37259,1.12247,1.18347,18,32765
8.35674,1.09222,1.17987,18,32765
8.35065,1.06321,1.17736,16,32765
8.2953,1.02832,1.16797,11,32765
0,0,0,15,32765
0,0,0,13,32765
0,0,0,0,32765
0,0,0,0,32765
0,0,0,0,32765
0,0,0,0,32765
0,0,0,0,32765
0,0,0,0,32765
0,0,0,0,32765
0,0,0,0,32765
0,0,0,0,32765
14.9258,1.25152,2.06607,14,32765
14.9596,1.20536,2.06897,14,32765
14.9343,1.15409,2.06163,13,32765
14.8986,1.10274,2.05511,14,32765
14.8828,1.05239,2.04872,13,32765
15.0545,1.01457,2.07049,13,32765
14.9593,0.958204,2.05364,12,32765
15.131,0.918658,2.07312,11,32765
15.1046,0.867679,2.06637,13,32765
8.20198,0.444269,1.11996,15,32765
8.18363,0.416927,1.11685,15,32765
8.15537,0.38933,1.11175,13,32765
8.14694,0.362549,1.10851,19,32765
8.12841,0.335363,1.1048,20,32765
7.97137,0.302729,1.08076,14,32765
7.923,0.275106,1.07259,14,32765
7.92408,0.249266,1.07093,14,32765
7.88555,0.221948,1.0632,14,32765
7.90628,0.19709,1.06412,14,32765
7.92697,0.17158,1.06478,14,32765
7.89802,0.145149,1.05885,15,32765
7.91841,0.119989,1.06041,15,32765
7.89924,0.0939092,1.05552,15,32765
7.8998,0.0686271,1.05325,15,32765
7.89042,0.0433155,1.04931,15,32765
7.84132,0.0183253,1.03991,15,32765
7.87147,-0.00656797,1.04094,15,32765
7.87174,-0.0320216,1.03844,14,32765
7.83228,-0.0569264,1.03059,14,32765
7.61442,-0.0798187,0.998336,15,32765
7.61456,-0.103372,0.995091,14,32765
7.64934,2.48865,1.17948,36,32765
7.70493,2.4798,1.18196,35,32765
7.76082,2.4699,1.18413,35,32765
7.8261,2.46284,1.1877,35,32765
7.8445,2.43997,1.1834,34,32765
7.90008,2.42931,1.18729,34,32765
7.95573,2.41832,1.19085,36,32765
8.01154,2.40702,1.19332,35,32765
8.03866,2.38702,1.19289,34,32765
8.13247,2.38597,1.20157,35,32765
8.17886,2.37042,1.20308,38,32765
8.18715,2.34357,1.19927,24,32765
8.47159,2.39466,1.23685,14,32765
8.46081,2.36166,1.23054,14,32765
8.31629,2.29175,1.20473,13,32765
8.42933,2.29336,1.21626,14,32765
8.44662,2.26852,1.21544,15,32765
8.46407,2.24344,1.21333,14,32765
8.47163,2.21588,1.21116,14,32765
8.441,2.17818,1.20209,14,32765
8.46765,2.15552,1.2021,14,32765
8.41738,2.11338,1.19116,14,32765
8.42485,2.08535,1.18776,14,32765
8.3934,2.04834,1.18047,14,32765
8.41013,2.02289,1.17921,15,32765
8.38803,1.98858,1.17323,14,32765
8.32721,1.94565,1.16143,14,32765
8.31466,1.91372,1.15595,15,32765
8.32102,1.88682,1.15441,15,32765
8.41446,1.87894,1.16469,14,32765
8.34354,1.83411,1.15139,13,32765
8.31112,1.79791,1.14423,13,32765
8.44359,1.79624,1.15908,12,32765
8.43035,1.76388,1.15498,12,32765
8.40724,1.73014,1.14915,12,32765
8.41296,1.70313,1.1476,12,32765
8.25351,1.64303,1.12255,20,32765
8.23951,1.61231,1.11888,16,32765
8.26455,1.58898,1.11913,16,32765
8.31864,1.57063,1.12471,19,32765
8.24585,1.52861,1.11394,15,32765
8.25119,1.50129,1.11157,14,32765
8.29539,1.48077,1.11525,15,32765
8.22234,1.43961,1.10322,14,32765
8.22727,1.41229,1.10175,15,32765
8.20262,1.38018,1.09739,15,32765
8.21705,1.35497,1.09731,15,32765
8.24125,1.33086,1.09863,15,32765
8.22619,1.30075,1.09448,14,32765
8.27959,1.28116,1.0998,13,32765
8.34283,1.26226,1.10632,20,32765
8.3471,1.23438,1.1056,20,32765
8.34155,1.20463,1.10339,19,32765
8.38501,1.18236,1.10689,23,32765
8.37921,1.15284,1.10484,21,32765
8.3635,1.12224,1.10115,21,32765
8.36728,1.09454,1.10032,21,32765
8.34151,1.06293,1.09532,19,32765
8.3156,1.03167,1.09036,13,32765
8.26985,0.998418,1.08292,12,32765
8.32251,0.977011,1.08801,12,32765
8.14843,0.929641,1.06381,12,32765
8.24037,0.912313,1.07404,13,32765
8.27301,0.888325,1.07718,13,32765
8.23663,0.856605,1.07085,11,32765
0,0,0,15,32765
8.09435,0.787651,1.04937,11,32765
8.16636,0.766879,1.05614,11,32765
8.20847,0.743307,1.06051,12,32765
8.21108,0.715966,1.05905,12,32765
8.16413,0.684834,1.05145,12,32765
8.12686,0.655045,1.04571,12,32765
8.05007,0.622276,1.03378,12,32765
8.10159,0.599791,1.03955,12,32765
8.12356,0.574527,1.04009,12,32765
8.08592,0.544987,1.03429,12,32765
8.09782,0.518705,1.0338,12,32765
8.03043,0.487519,1.02304,12,32765
8.07178,0.4636,1.02665,13,32765
8.1032,0.438796,1.02859,14,32765
8.12444,0.413744,1.0307,16,32765
8.08622,0.385819,1.02463,22,32765
8.1273,0.361421,1.02777,23,32765
8.13847,0.335481,1.028,24,32765
7.93165,0.300888,0.999216,16,32765
7.93277,0.275071,0.997762,17,32765
7.914,0.248533,0.993602,17,32765
7.91508,0.222321,0.991225,17,32765
7.89613,0.196339,0.986988,16,32765
7.91683,0.170818,0.987467,16,32765
7.89774,0.14456,0.983053,16,32765
7.88838,0.118909,0.980727,17,32765
7.86916,0.0928861,0.976034,17,32765
7.86969,0.067659,0.973769,17,32765
7.87019,0.0424572,0.971156,16,32765
7.87064,0.0176064,0.968339,17,32765
7.85116,-0.00737661,0.962989,17,32765
7.87125,-0.0328889,0.962926,16,32765
7.83172,-0.0578281,0.95545,17,32765
7.63341,-0.0809399,0.92767,16,32765
7.58389,-0.103909,0.918407,16,32765
7.66346,2.49809,1.06202,32,32765
7.69975,2.48215,1.06694,30,32765
7.75477,2.4725,1.07446,28,32765
7.80018,2.46024,1.08024,29,32765
7.83635,2.44468,1.08333,28,32765
7.91991,2.44304,1.09368,28,32765
7.94657,2.42327,1.09735,28,32765
7.98301,2.4058,1.1008,28,32765
8.02896,2.39116,1.10481,29,32765
8.09384,2.3818,1.11217,29,32765
8.14921,2.36961,1.11759,31,32765
8.22338,2.36262,1.12734,22,32765
8.49819,2.41165,1.16309,13,32765
8.48728,2.37823,1.15852,13,32765
8.36137,2.31301,1.14018,12,32765
8.41704,2.29824,1.14524,12,32765
8.49154,2.28885,1.15402,14,32765
8.49909,2.2611,1.1532,13,32765
8.48738,2.22859,1.14901,13,32765
8.42744,2.18365,1.13942,13,32765
8.52119,2.17817,1.1497,13,32765
8.44185,2.12855,1.13701,13,32765
8.42976,2.09619,1.13255,13,32765
8.42703,2.06641,1.13029,13,32765
8.40508,2.03147,1.12524,14,32765
8.41192,2.00357,1.12414,13,32765
8.37044,1.96419,1.11652,13,32765
8.33861,1.9271,1.10942,14,32765
8.36428,1.90394,1.11193,13,32765
8.8449,1.98267,1.17316,12,32765
8.63858,1.90668,1.14277,11,32765
8.64481,1.87883,1.14179,11,32765
8.61259,1.84176,1.13386,11,32765
8.58006,1.80477,1.12738,12,32765
8.23674,1.70331,1.07949,15,32765
8.30083,1.68762,1.08614,11,32765
8.23833,1.64681,1.0765,17,32765
8.23428,1.6178,1.07282,14,32765
8.23967,1.59089,1.07168,15,32765
8.28406,1.57102,1.07527,16,32765
8.2505,1.53614,1.06824,14,32765
8.26544,1.51082,1.06807,13,32765
8.26094,1.48119,1.06514,14,32765
8.25629,1.45207,1.06194,13,32765
8.24164,1.42125,1.05846,13,32765
8.26608,1.39727,1.05926,13,32765
8.23165,1.3638,1.05264,13,32765
8.23634,1.33637,1.05118,13,32765
8.20177,1.30261,1.04454,12,32765
8.28474,1.28703,1.05318,12,32765
8.33823,1.26669,1.058,17,32765
8.32291,1.23623,1.05422,18,32765
8.36651,1.21423,1.05717,17,32765
8.38046,1.18824,1.05683,19,32765
8.31571,1.15062,1.04723,18,32765
8.31964,1.123,1.04601,18,32765
8.32358,1.09537,1.04391,18,32765
8.28796,1.06257,1.03782,19,32765
8.26196,1.03194,1.03305,18,32765
8.25572,1.00359,1.02973,19,32765
8.25908,0.976755,1.02858,19,32765
8.24253,0.947621,1.02585,19,32765
8.27532,0.923676,1.02856,20,32765
8.24901,0.893055,1.0227,18,32765
8.16323,0.855981,1.01089,12,32765
8.2946,0.841727,1.0252,11,32765
8.20842,0.805718,1.0143,11,32765
8.26053,0.783614,1.0194,12,32765
8.26314,0.756832,1.01848,12,32765
8.1965,0.723363,1.00905,12,32765
8.13955,0.691235,1.0014,12,32765
8.14191,0.664096,1.00055,12,32765
8.18375,0.640012,1.00478,12,32765
8.23535,0.617025,1.01027,12,32765
8.20772,0.587905,1.00588,12,32765
8.26907,0.565467,1.01253,12,32765
8.06283,0.525383,0.987114,12,32765
8.19339,0.506994,1.00209,12,32765
8.19503,0.480451,1.00178,12,32765
8.13713,0.450419,0.994174,15,32765
8.13854,0.424153,0.994146,15,32765
8.12005,0.396818,0.991646,14,32765
8.11135,0.369895,0.990706,23,32765
8.17201,0.345917,0.998084,21,32765
7.95489,0.310418,0.971478,14,32765
7.93594,0.283761,0.969704,14,32765
7.92683,0.25772,0.969026,15,32765
7.91756,0.231646,0.969011,14,32765
7.89846,0.205225,0.966365,14,32765
7.89905,0.179066,0.966733,14,32765
7.89948,0.153482,0.967639,14,32765
7.9296,0.128258,0.972185,15,32765
7.89018,0.101988,0.968035,15,32765
7.88037,0.0765385,0.968273,14,32765
7.88044,0.0508472,0.96935,14,32765
7.89028,0.0255772,0.972248,15,32765
7.85046,0.000204791,0.968698,15,32765
7.8799,-0.0246691,0.974784,14,32765
7.82994,-0.0493628,0.970407,15,32765
7.66082,-0.0736141,0.951227,14,32765
7.60055,-0.098041,0.947466,14,32765
7.6432,2.49528,0.982379,39,32765
7.68898,2.48244,0.988228,38,32765
7.73462,2.4698,0.994062,36,32765
7.78955,2.46058,1.00069,35,32765
7.85418,2.45391,1.00713,36,32765
7.89993,2.44051,1.01188,36,32765
7.94561,2.42657,1.01779,37,32765
7.9821,2.40908,1.02095,37,32765
8.02811,2.39442,1.02459,37,32765
8.09307,2.38506,1.03138,36,32765
8.13897,2.37008,1.03512,38,32765
8.18462,2.3549,1.04058,34,32765
8.40241,2.38792,1.06644,14,32765
8.44874,2.37084,1.06933,14,32765
8.38007,2.32151,1.05956,13,32765
8.40709,2.2988,1.06052,14,32765
8.46251,2.28427,1.06624,16,32765
8.44127,2.24889,1.06179,14,32765
8.46791,2.22661,1.06262,14,32765
8.4175,2.18414,1.05488,14,32765
8.46326,2.16638,1.05831,14,32765
8.34529,2.10712,1.04167,14,32765
8.40054,2.09181,1.0458,14,32765
8.40742,2.06444,1.04484,14,32765
8.36613,2.02482,1.03768,15,32765
8.40193,2.00391,1.04017,15,32765
8.37972,1.96903,1.03541,14,32765
8.31884,1.92513,1.0251,16,32765
8.32517,1.89757,1.02504,17,32765
8.58348,1.92663,1.05432,12,32765
8.54154,1.88776,1.04624,12,32765
8.5283,1.85595,1.0429,12,32765
8.58333,1.83791,1.04603,12,32765
8.54102,1.7989,1.03874,12,32765
8.29452,1.71748,1.00603,21,32765
8.30035,1.68969,1.00504,12,32765
8.22804,1.64685,0.994871,21,32765
8.19473,1.61207,0.987767,16,32765
8.25861,1.59655,0.993666,17,32765
8.30305,1.57659,0.996876,21,32765
8.28898,1.54522,0.992553,16,32765
8.26488,1.51257,0.987616,15,32765
8.21149,1.47412,0.978953,15,32765
8.23614,1.45028,0.979341,15,32765
8.24104,1.42285,0.978378,16,32765
8.22633,1.3922,0.974348,15,32765
8.25062,1.36855,0.975058,15,32765
8.20629,1.33305,0.967811,14,32765
8.24033,1.31025,0.969633,14,32765
8.31359,1.29299,0.976366,13,32765
8.3377,1.26804,0.977254,20,32765
8.342,1.24044,0.975958,21,32765
8.36598,1.21549,0.976238,20,32765
8.37994,1.18945,0.975806,23,32765
8.384,1.16131,0.974865,21,32765
8.37811,1.13208,0.972487,21,32765
8.32298,1.09642,0.96354,20,32765
8.38585,1.07621,0.969204,19,32765
8.38944,1.04891,0.968123,13,32765
8.38323,1.02008,0.964854,11,32765
0,0,0,13,32765
0,0,0,0,32765
0,0,0,14,32765
0,0,0,16,32765
0,0,0,0,32765
0,0,0,16,32765
0,0,0,0,32765
0,0,0,0,32765
0,0,0,0,32765
0,0,0,0,32765
14.911,1.26709,1.69136,16,32765
14.8559,1.21244,1.68308,15,32765
14.86,1.16276,1.68192,14,32765
14.7846,1.10826,1.6719,15,32765
14.8676,1.0654,1.67952,14,32765
14.9008,1.01934,1.68173,15,32765
14.9833,0.976621,1.69078,13,32765
14.8378,0.918343,1.67257,12,32765
