x, y, z, intensity, ring
7.35712,1.84012,-0.496807,18,32765
7.28549,1.79641,-0.494946,18,32765
7.25254,1.76241,-0.494992,18,32765
7.20967,1.72658,-0.494514,19,32765
7.13767,1.68367,-0.491361,19,32765
7.11403,1.65257,-0.491999,19,32765
7.10009,1.62359,-0.492592,19,32765
7.06648,1.59077,-0.491854,19,32765
7.03267,1.55823,-0.491788,19,32765
6.97932,1.52167,-0.489072,17,32765
3.84329,0.824428,-0.270313,13,32765
3.75816,0.792799,-0.26494,14,32765
3.43842,0.713172,-0.243057,18,32765
3.36255,0.685642,-0.238252,17,32765
3.20829,0.642814,-0.228121,18,32765
3.32785,0.654989,-0.237461,17,32765
3.21248,0.621071,-0.229504,16,32765
3.19491,0.606472,-0.228751,14,32765
3.07919,0.573834,-0.221154,14,32765
3.15956,0.57771,-0.227622,14,32765
3.11239,0.558147,-0.224461,13,32765
2.91774,0.512957,-0.211088,13,32765
2.9096,0.501398,-0.21072,14,32765
2.77355,0.468424,-0.200999,14,32765
2.77506,0.459063,-0.201692,15,32765
2.72734,0.441643,-0.19873,14,32765
2.67956,0.424386,-0.19565,15,32765
2.70071,0.41815,-0.197286,15,32765
2.54432,0.384867,-0.186358,14,32765
2.53573,0.374665,-0.185998,16,32765
2.47774,0.357503,-0.18192,15,32765
2.40976,0.33942,-0.177311,14,32765
2.40099,0.329891,-0.176949,15,32765
2.39218,0.320457,-0.17656,14,32765
2.33388,0.304614,-0.172675,14,32765
2.31509,0.294188,-0.171468,15,32765
2.25666,0.279009,-0.167482,15,32765
2.30709,0.277317,-0.171251,14,32765
2.22874,0.260273,-0.165737,15,32765
2.16021,0.24488,-0.16097,14,32765
2.02222,0.222303,-0.150968,18,32765
2.04278,0.217599,-0.15266,21,32765
2.04347,0.210666,-0.153091,22,32765
2.05407,0.204806,-0.154119,18,32765
2.0448,0.196888,-0.153718,17,32765
2.02557,0.188202,-0.152519,15,32765
2.04601,0.183187,-0.154535,16,32765
1.987,0.171143,-0.150129,16,32765
2.0074,0.16609,-0.152193,16,32765
1.97811,0.156892,-0.150218,17,32765
1.93883,0.147204,-0.147537,16,32765
1.93928,0.140631,-0.14805,16,32765
1.90987,0.132037,-0.146095,16,32765
1.85059,0.121758,-0.141796,16,32765
1.8808,0.117489,-0.144529,15,32765
1.86124,0.110111,-0.143328,15,32765
1.86156,0.103953,-0.143832,16,32765
1.82204,0.0956848,-0.141056,16,32765
1.82234,0.0896794,-0.141164,17,32765
1.81263,0.0830988,-0.140947,17,32765
1.78297,0.075801,-0.139165,17,32765
1.7533,0.0687221,-0.137123,17,32765
1.73356,0.0621088,-0.136072,16,32765
1.72377,0.0560101,-0.135605,17,32765
1.69401,0.0493143,-0.13381,16,32765
1.72403,0.0444712,-0.136493,17,32765
1.7042,0.0382612,-0.135477,17,32765
1.65446,0.0316385,-0.131822,16,32765
1.67445,0.0265143,-0.133887,16,32765
1.67448,0.0209815,-0.134502,16,32765
1.64459,0.0152996,-0.132661,17,32765
1.6446,0.00998178,-0.133059,17,32765
1.64458,0.00460871,-0.133489,17,32765
1.6545,-0.000764324,-0.134991,17,32765
1.6046,-0.00605791,-0.131607,16,32765
1.5846,-0.0111708,-0.130467,17,32765
1.58449,-0.0163168,-0.13119,17,32765
1.5744,-0.0213136,-0.13122,17,32765
7.87631,2.6288,-0.524856,23,32765
7.80851,2.57841,-0.525926,21,32765
7.81648,2.5528,-0.532321,23,32765
7.80547,2.52107,-0.535993,28,32765
7.87987,2.5166,-0.546303,34,32765
7.86891,2.48405,-0.550188,37,32765
7.88621,2.46109,-0.555937,32,32765
7.8559,2.42303,-0.558001,23,32765
7.73947,2.35937,-0.553303,22,32765
7.67998,2.31387,-0.552795,22,32765
7.65861,2.27975,-0.555526,24,32765
7.57973,2.22904,-0.552761,21,32765
7.52948,2.18656,-0.552696,20,32765
7.45016,2.13663,-0.550229,20,32765
7.3802,2.09013,-0.547837,21,32765
7.31957,2.04672,-0.547012,21,32765
7.30687,2.01719,-0.548272,21,32765
7.25567,1.97666,-0.547451,21,32765
7.20437,1.93649,-0.545381,21,32765
7.14314,1.8943,-0.543373,21,32765
7.06247,1.84734,-0.539632,20,32765
7.04911,1.81867,-0.540803,20,32765
7.01627,1.78523,-0.540787,20,32765
7.00276,1.7567,-0.541217,20,32765
6.92124,1.71168,-0.537695,21,32765
6.86866,1.67411,-0.535723,21,32765
6.83523,1.6418,-0.53539,21,32765
6.81153,1.61154,-0.535189,21,32765
6.77795,1.57921,-0.534662,20,32765
6.74435,1.54686,-0.533443,21,32765
6.69106,1.51077,-0.530692,20,32765
6.67648,1.48375,-0.531664,20,32765
6.62294,1.44831,-0.528319,20,32765
3.6257,0.780091,-0.290143,12,32765
3.71606,0.786277,-0.297957,13,32765
3.81624,0.793923,-0.306697,13,32765
3.61373,0.739082,-0.291,12,32765
3.32295,0.667798,-0.268392,17,32765
3.23712,0.639058,-0.262256,18,32765
3.20986,0.622445,-0.260304,19,32765
3.13356,0.59663,-0.254591,16,32765
3.09629,0.578774,-0.252238,16,32765
3.04915,0.55922,-0.249053,18,32765
2.92348,0.525867,-0.238995,15,32765
2.85649,0.503722,-0.234155,14,32765
2.7894,0.482155,-0.228852,15,32765
2.79098,0.472812,-0.2291,15,32765
2.68434,0.44542,-0.220899,15,32765
2.75467,0.447442,-0.227184,15,32765
2.60851,0.414409,-0.215508,16,32765
2.60992,0.405343,-0.2157,15,32765
2.49302,0.378278,-0.206514,15,32765
2.45485,0.363842,-0.203602,16,32765
2.39687,0.346913,-0.198952,16,32765
2.35851,0.333241,-0.196133,16,32765
2.34973,0.323861,-0.19567,16,32765
2.33103,0.313249,-0.194357,16,32765
2.30239,0.301454,-0.192373,16,32765
2.27373,0.289848,-0.190149,16,32765
2.16587,0.268638,-0.18145,17,32765
2.18655,0.263669,-0.183199,17,32765
2.17751,0.255107,-0.182728,17,32765
2.11892,0.240974,-0.178127,16,32765
2.05036,0.226128,-0.172641,17,32765
2.09073,0.223433,-0.176195,16,32765
2.07161,0.214268,-0.174963,17,32765
1.97314,0.197388,-0.166866,18,32765
2.07296,0.200264,-0.175599,17,32765
1.96446,0.183136,-0.166642,16,32765
1.92532,0.172964,-0.163766,16,32765
1.93582,0.167302,-0.164704,17,32765
1.90653,0.158287,-0.162704,17,32765
1.88717,0.1502,-0.161283,17,32765
1.86777,0.142307,-0.159912,18,32765
1.85827,0.135235,-0.159553,17,32765
1.83881,0.127581,-0.158158,18,32765
1.85908,0.122763,-0.160135,18,32765
1.83955,0.115338,-0.158859,18,32765
1.77028,0.105123,-0.153161,17,32765
1.75068,0.0981357,-0.151915,17,32765
1.72113,0.0907379,-0.149609,17,32765
1.74131,0.0860333,-0.151443,17,32765
1.67188,0.0769597,-0.145896,17,32765
1.69199,0.0722356,-0.148148,18,32765
1.67229,0.0658311,-0.146682,18,32765
1.64259,0.0591148,-0.144543,18,32765
1.66267,0.0542785,-0.146599,17,32765
1.66279,0.0486449,-0.147146,17,32765
1.62309,0.0420867,-0.143924,17,32765
1.62317,0.0366476,-0.14446,17,32765
1.62326,0.0312332,-0.144761,18,32765
1.60339,0.0255645,-0.143441,17,32765
1.61338,0.0203786,-0.144925,17,32765
1.59347,0.0149714,-0.143679,17,32765
1.55363,0.00956024,-0.140463,17,32765
1.56358,0.00449978,-0.141772,17,32765
1.54361,-0.000609466,-0.140613,18,32765
1.54354,-0.0057369,-0.141269,18,32765
1.52355,-0.0106641,-0.139923,18,32765
1.54336,-0.0158287,-0.142455,17,32765
1.5034,-0.020302,-0.139596,18,32765
7.6479,2.56079,-0.632537,15,32765
7.63738,2.52946,-0.630241,16,32765
7.62655,2.49844,-0.629252,17,32765
7.61588,2.46706,-0.626792,17,32765
7.54806,2.41738,-0.620963,17,32765
7.52746,2.38316,-0.619919,18,32765
7.49719,2.34646,-0.616953,18,32765
7.4476,2.30419,-0.613531,18,32765
7.41695,2.26811,-0.610729,18,32765
7.38616,2.23216,-0.608011,19,32765
7.30761,2.18149,-0.602003,18,32765
7.28612,2.14862,-0.600229,19,32765
7.24536,2.11006,-0.597819,19,32765
7.2141,2.07435,-0.595581,19,32765
7.173,2.03649,-0.592594,19,32765
7.14135,2.0014,-0.590906,20,32765
7.12872,1.97206,-0.590508,19,32765
7.06795,1.92959,-0.585827,18,32765
7.04532,1.89825,-0.585211,18,32765
6.9553,1.84886,-0.577829,18,32765
6.94206,1.82027,-0.57826,18,32765
6.89996,1.78403,-0.574683,18,32765
6.86727,1.75046,-0.573216,18,32765
6.84404,1.71976,-0.572668,18,32765
6.82068,1.68954,-0.571174,18,32765
6.78745,1.65718,-0.569536,18,32765
6.73476,1.6203,-0.56585,17,32765
6.70133,1.58823,-0.563796,17,32765
6.68725,1.56063,-0.563283,17,32765
6.64386,1.52638,-0.561166,18,32765
6.49343,1.46827,-0.549538,17,32765
6.50796,1.44852,-0.551663,18,32765
6.503,1.42439,-0.551864,17,32765
6.56614,1.41476,-0.558388,18,32765
3.84106,0.813957,-0.327606,12,32765
4.02913,0.83937,-0.34421,13,32765
3.86596,0.791543,-0.330722,13,32765
3.56574,0.717222,-0.30593,13,32765
3.41173,0.674009,-0.293102,15,32765
3.28678,0.637711,-0.282814,16,32765
3.25951,0.620914,-0.281055,16,32765
3.22237,0.602569,-0.27815,15,32765
3.07728,0.564711,-0.266496,19,32765
3.0693,0.552523,-0.266504,17,32765
2.87487,0.507547,-0.249846,13,32765
3.06304,0.529997,-0.267018,14,32765
2.82902,0.479513,-0.247156,14,32765
2.80112,0.464774,-0.245434,14,32765
2.76332,0.448716,-0.242496,14,32765
2.65656,0.422025,-0.233611,14,32765
2.73665,0.425184,-0.241539,14,32765
2.61005,0.396393,-0.230249,14,32765
2.56204,0.380061,-0.22692,14,32765
2.53372,0.366951,-0.224728,15,32765
2.47571,0.349949,-0.220207,15,32765
2.42749,0.334813,-0.216351,14,32765
2.45816,0.330681,-0.219521,15,32765
2.36046,0.309424,-0.21111,15,32765
2.32194,0.296341,-0.208053,15,32765
2.26359,0.280986,-0.2032,15,32765
2.24471,0.270838,-0.202032,16,32765
2.23569,0.26211,-0.201452,16,32765
2.19694,0.250078,-0.198262,16,32765
2.18782,0.241652,-0.197891,16,32765
2.15887,0.231139,-0.19554,15,32765
2.1596,0.223874,-0.195957,16,32765
2.08104,0.208597,-0.18915,19,32765
2.08169,0.201524,-0.189579,16,32765
2.08234,0.194495,-0.189855,16,32765
2.04328,0.183921,-0.186529,16,32765
2.01409,0.174454,-0.184166,16,32765
2.02458,0.168598,-0.185111,16,32765
2.00524,0.160207,-0.183713,15,32765
1.98589,0.152008,-0.182063,16,32765
1.92677,0.140979,-0.176914,16,32765
1.93715,0.135262,-0.177955,16,32765
1.84815,0.122863,-0.169868,16,32765
1.88829,0.119156,-0.173718,16,32765
1.83896,0.1099,-0.169215,16,32765
1.79954,0.101505,-0.165662,17,32765
1.81973,0.0965619,-0.167762,16,32765
1.83001,0.0910208,-0.168513,17,32765
1.81039,0.0839765,-0.166882,16,32765
1.72113,0.074097,-0.158532,17,32765
1.76116,0.0699441,-0.162259,17,32765
1.73152,0.0629353,-0.159594,17,32765
1.73174,0.0571822,-0.159425,17,32765
1.72196,0.0511469,-0.158532,17,32765
1.70223,0.0449955,-0.156505,16,32765
1.75215,0.0405176,-0.161066,16,32765
1.71245,0.0338626,-0.157381,16,32765
1.70262,0.0279398,-0.156209,16,32765
1.66288,0.0217558,-0.15254,16,32765
1.64304,0.0161022,-0.150503,17,32765
1.6431,0.0107593,-0.150325,17,32765
1.6332,0.00533144,-0.149142,17,32765
1.57348,-7.02674e-05,-0.143376,16,32765
1.58346,-0.00537678,-0.143998,17,32765
1.57352,-0.0104987,-0.142563,17,32765
1.55361,-0.015482,-0.140167,17,32765
1.54365,-0.020432,-0.138696,17,32765
6.78019,2.27735,-0.628551,25,32765
7.12802,2.36814,-0.659389,21,32765
7.21136,2.36979,-0.666934,21,32765
7.18136,2.33356,-0.662594,21,32765
7.15113,2.29739,-0.659499,21,32765
7.0922,2.25235,-0.654606,21,32765
7.04256,2.21102,-0.64951,21,32765
7.04016,2.18491,-0.649846,22,32765
7.00918,2.15007,-0.646657,23,32765
6.96853,2.11249,-0.642668,22,32765
6.9374,2.0774,-0.640165,22,32765
6.88695,2.03721,-0.635442,22,32765
6.86499,2.00549,-0.634253,22,32765
6.8143,1.96547,-0.629828,22,32765
6.78247,1.93159,-0.627211,22,32765
6.74093,1.89504,-0.624185,21,32765
6.72798,1.86697,-0.623538,22,32765
6.68615,1.83102,-0.619938,21,32765
6.68246,1.80607,-0.620737,22,32765
6.64036,1.77062,-0.616861,21,32765
6.61725,1.74048,-0.616121,21,32765
6.58458,1.70777,-0.612957,21,32765
6.51308,1.66533,-0.607441,21,32765
6.49925,1.6382,-0.607422,21,32765
6.50465,1.61627,-0.608316,20,32765
6.4809,1.58725,-0.60714,20,32765
6.43771,1.55365,-0.60375,20,32765
6.38473,1.51791,-0.599453,19,32765
6.34134,1.48451,-0.59597,20,32765
6.32686,1.45808,-0.596028,19,32765
6.32202,1.43398,-0.596578,21,32765
6.28784,1.4039,-0.594175,21,32765
6.22439,1.36763,-0.588733,21,32765
6.09264,1.31685,-0.577312,20,32765
6.19431,1.31675,-0.588456,21,32765
3.78159,0.790274,-0.359754,13,32765
3.73546,0.767227,-0.355778,12,32765
3.738,0.754237,-0.356932,13,32765
3.58426,0.710326,-0.342634,13,32765
3.17615,0.618191,-0.304034,16,32765
3.20751,0.612941,-0.307596,18,32765
3.20952,0.602068,-0.308067,18,32765
3.15269,0.580385,-0.303485,16,32765
3.07618,0.555524,-0.296806,15,32765
2.98978,0.529516,-0.288686,14,32765
2.94244,0.510757,-0.284888,13,32765
2.82635,0.480594,-0.27417,15,32765
2.79847,0.465827,-0.272168,16,32765
2.72142,0.443334,-0.265029,15,32765
2.66389,0.424556,-0.259899,15,32765
2.64556,0.412364,-0.258955,15,32765
2.54856,0.388312,-0.249334,15,32765
2.54979,0.379477,-0.250346,16,32765
2.52149,0.366375,-0.247872,16,32765
2.45368,0.347975,-0.241814,15,32765
2.39563,0.33151,-0.236512,16,32765
2.37696,0.320815,-0.235081,16,32765
2.35825,0.310162,-0.233535,16,32765
2.33951,0.299581,-0.232062,17,32765
2.22198,0.276746,-0.220763,15,32765
2.22285,0.269106,-0.221364,17,32765
2.20395,0.259266,-0.219704,16,32765
2.12568,0.242792,-0.212186,16,32765
2.13632,0.236774,-0.213684,17,32765
2.07771,0.223218,-0.208072,18,32765
1.94975,0.202823,-0.195568,21,32765
1.95039,0.196186,-0.195928,20,32765
2.05004,0.19916,-0.206298,16,32765
1.98133,0.185719,-0.199585,16,32765
1.95219,0.176352,-0.196869,18,32765
1.90318,0.165444,-0.192207,17,32765
1.94337,0.162427,-0.196248,17,32765
1.92403,0.154287,-0.194646,17,32765
1.865,0.143288,-0.188785,17,32765
1.85552,0.13628,-0.188083,18,32765
1.8361,0.128697,-0.186194,17,32765
1.83651,0.122564,-0.186319,17,32765
1.81703,0.115113,-0.184495,18,32765
1.84719,0.110836,-0.187589,19,32765
1.78795,0.101263,-0.181643,17,32765
1.75844,0.0936994,-0.178876,17,32765
1.72895,0.086362,-0.175689,16,32765
1.73915,0.0810259,-0.176892,18,32765
1.67978,0.0726432,-0.170731,17,32765
1.67007,0.0666355,-0.16978,17,32765
1.67028,0.0610029,-0.169862,18,32765
1.63071,0.0541181,-0.165659,18,32765
1.65077,0.0492925,-0.167702,17,32765
1.62111,0.0430919,-0.164486,18,32765
1.6113,0.0374853,-0.163464,18,32765
1.59152,0.0316787,-0.161423,17,32765
1.57175,0.0259824,-0.159169,17,32765
1.56188,0.0206092,-0.158147,18,32765
1.57191,0.0155668,-0.158953,17,32765
1.56202,0.0103751,-0.157778,17,32765
1.55212,0.00519854,-0.156515,16,32765
1.58201,4.9186e-05,-0.159214,16,32765
1.54223,-0.0051342,-0.154931,16,32765
1.48256,-0.00980674,-0.148435,16,32765
1.49252,-0.0148014,-0.148863,18,32765
1.47262,-0.0194344,-0.146331,18,32765
7.15302,2.39547,-0.633219,17,32765
7.34961,2.43449,-0.655258,17,32765
7.35717,2.41009,-0.66063,17,32765
7.28879,2.36134,-0.658539,18,32765
7.22979,2.31583,-0.656915,17,32765
7.18017,2.27339,-0.656145,18,32765
7.13981,2.23452,-0.655856,19,32765
7.0707,2.18724,-0.652677,19,32765
7.0585,2.15805,-0.654621,19,32765
6.97935,2.10895,-0.650684,19,32765
6.96684,2.08029,-0.652345,18,32765
6.897,2.03464,-0.648059,19,32765
6.86515,2.00045,-0.64837,19,32765
6.82374,1.96361,-0.646293,18,32765
6.81077,1.93525,-0.648297,19,32765
6.74033,1.89031,-0.644673,19,32765
6.65053,1.84084,-0.637734,18,32765
6.68528,1.82612,-0.643391,19,32765
6.60456,1.78033,-0.637996,19,32765
6.59093,1.75328,-0.638855,19,32765
6.58689,1.7287,-0.640383,17,32765
6.2936,1.62927,-0.613955,17,32765
6.51105,1.66215,-0.637204,19,32765
6.48748,1.63262,-0.63681,19,32765
6.33813,1.57227,-0.624232,18,32765
6.42067,1.56925,-0.634044,17,32765
6.29023,1.51482,-0.62315,18,32765
6.21766,1.47502,-0.617571,18,32765
6.23209,1.45628,-0.620612,19,32765
6.30457,1.45116,-0.629655,21,32765
6.10535,1.38387,-0.611357,18,32765
6.11941,1.3657,-0.614552,20,32765
6.14333,1.34911,-0.617879,19,32765
6.17695,1.33427,-0.62249,19,32765
6.07426,1.29019,-0.613472,19,32765
5.9811,1.24896,-0.60513,13,32765
3.83083,0.786522,-0.388576,13,32765
3.99916,0.807137,-0.406556,13,32765
3.92367,0.778021,-0.399911,11,32765
3.60389,0.701998,-0.367836,13,32765
3.313,0.633564,-0.33875,15,32765
3.23681,0.607513,-0.331764,16,32765
3.1899,0.587389,-0.327267,15,32765
3.12325,0.56405,-0.321326,14,32765
3.15447,0.558702,-0.324885,14,32765
3.06805,0.532581,-0.316782,13,32765
3.00112,0.510586,-0.310164,13,32765
2.90463,0.484058,-0.300698,14,32765
2.82762,0.461364,-0.293473,14,32765
2.78984,0.445452,-0.28978,14,32765
2.70283,0.422006,-0.281309,14,32765
2.6452,0.403647,-0.275881,14,32765
2.69572,0.401818,-0.281455,14,32765
2.5789,0.375297,-0.269841,14,32765
2.49149,0.353937,-0.260992,14,32765
2.50249,0.34672,-0.262555,15,32765
2.46415,0.332916,-0.259106,14,32765
2.39623,0.315455,-0.251889,14,32765
2.34789,0.300923,-0.24751,15,32765
2.34884,0.293022,-0.24795,15,32765
2.29055,0.277822,-0.242068,14,32765
2.3013,0.271287,-0.243602,15,32765
2.26262,0.259039,-0.239925,15,32765
2.24366,0.249132,-0.238385,16,32765
2.12581,0.228745,-0.226094,15,32765
2.08696,0.217314,-0.222398,16,32765
2.1371,0.215248,-0.228151,16,32765
2.0586,0.200306,-0.220067,14,32765
2.08893,0.196108,-0.223623,15,32765
2.04992,0.185531,-0.219783,17,32765
2.02075,0.175921,-0.217283,16,32765
2.0114,0.168228,-0.21652,16,32765
1.99209,0.159795,-0.214846,16,32765
1.97275,0.15149,-0.2131,16,32765
1.95339,0.143354,-0.211271,16,32765
1.9439,0.136019,-0.210558,16,32765
1.89471,0.126198,-0.205557,16,32765
1.89507,0.11982,-0.206076,15,32765
1.82597,0.10927,-0.198773,16,32765
1.81634,0.102652,-0.19814,16,32765
1.81665,0.0964919,-0.19845,17,32765
1.78714,0.0889516,-0.195534,16,32765
1.77744,0.0825443,-0.194926,16,32765
1.77766,0.076571,-0.19532,16,32765
1.77785,0.0706483,-0.195835,17,32765
1.74824,0.0635819,-0.192882,17,32765
1.7186,0.0567095,-0.189978,16,32765
1.68894,0.0501584,-0.187019,16,32765
1.67911,0.0442278,-0.186351,16,32765
1.67919,0.0386494,-0.186845,16,32765
1.70908,0.0336226,-0.190569,16,32765
1.62965,0.0266221,-0.182058,16,32765
1.62968,0.0211672,-0.182472,16,32765
1.61975,0.0156281,-0.181861,16,32765
1.64956,0.0105442,-0.18557,16,32765
1.57997,0.00485894,-0.178222,16,32765
1.5799,-0.000331155,-0.178922,16,32765
1.59973,-0.0055743,-0.181434,16,32765
1.51022,-0.0102272,-0.171852,16,32765
1.52004,-0.0152482,-0.173631,17,32765
1.52986,-0.020427,-0.175229,17,32765
6.83331,2.29566,-0.6733,27,32765
6.98212,2.3201,-0.692301,27,32765
6.96092,2.28752,-0.694581,22,32765
6.92063,2.24919,-0.694342,23,32765
6.88976,2.21393,-0.694714,22,32765
6.82089,2.1665,-0.691258,22,32765
6.76124,2.12277,-0.688371,22,32765
6.70136,2.07959,-0.685218,21,32765
6.66028,2.04279,-0.683858,22,32765
6.62848,2.00931,-0.683768,22,32765
6.57753,1.97031,-0.681126,21,32765
6.53606,1.93431,-0.678909,21,32765
6.48481,1.89566,-0.676654,21,32765
6.45267,1.86277,-0.67498,21,32765
6.42983,1.83285,-0.675588,21,32765
6.41658,1.80527,-0.677078,21,32765
6.38413,1.77276,-0.675184,22,32765
6.30348,1.72734,-0.668796,21,32765
6.28016,1.69832,-0.668528,22,32765
6.25667,1.6697,-0.668045,20,32765
6.1177,1.61072,-0.654944,21,32765
6.18057,1.60515,-0.663676,22,32765
6.13754,1.57185,-0.660929,23,32765
6.10406,1.54108,-0.659078,20,32765
6.06074,1.50831,-0.656348,21,32765
6.09469,1.49439,-0.661576,22,32765
6.04148,1.45962,-0.657666,21,32765
5.99784,1.42748,-0.654426,20,32765
5.94433,1.39354,-0.650081,22,32765
5.97777,1.38041,-0.655429,23,32765
5.95306,1.35373,-0.654241,20,32765
5.95731,1.33385,-0.656409,22,32765
5.86459,1.2921,-0.647036,22,32765
5.89799,1.27817,-0.651856,23,32765
5.83412,1.24324,-0.646039,23,32765
5.84794,1.22515,-0.648575,23,32765
0,0,-0,0,32765
3.7219,0.753647,-0.414551,12,32765
3.76332,0.748682,-0.42013,12,32765
3.87306,0.756916,-0.432915,13,32765
3.60219,0.691144,-0.403275,14,32765
3.243,0.610691,-0.36385,17,32765
3.17661,0.586882,-0.356693,18,32765
3.16871,0.574163,-0.3567,18,32765
3.07272,0.546036,-0.346215,19,32765
3.02551,0.526953,-0.341668,20,32765
3.03701,0.518424,-0.343248,15,32765
2.87204,0.480235,-0.325089,14,32765
2.79509,0.457595,-0.317106,15,32765
2.84566,0.455902,-0.323061,15,32765
2.68024,0.419899,-0.304831,14,32765
2.57354,0.394051,-0.29324,15,32765
2.53554,0.379233,-0.289184,14,32765
2.50726,0.366124,-0.286516,15,32765
2.56747,0.365987,-0.293691,16,32765
2.43087,0.337963,-0.278455,15,32765
2.40239,0.325701,-0.275742,16,32765
2.40348,0.317514,-0.275782,16,32765
2.34534,0.301651,-0.269805,15,32765
2.297,0.287566,-0.264568,15,32765
2.1993,0.267701,-0.253567,15,32765
2.2396,0.264957,-0.258595,16,32765
2.25029,0.258554,-0.260237,16,32765
2.19186,0.244261,-0.253932,16,32765
2.09388,0.226129,-0.2428,15,32765
2.1341,0.223038,-0.247904,16,32765
2.05572,0.207817,-0.239188,16,32765
2.01683,0.196973,-0.234948,16,32765
2.02733,0.191041,-0.23647,16,32765
2.02792,0.184236,-0.236867,16,32765
1.9394,0.169487,-0.227125,17,32765
1.90035,0.159556,-0.222777,17,32765
1.87113,0.150682,-0.219728,16,32765
1.9211,0.14811,-0.225922,17,32765
1.90174,0.140127,-0.223898,17,32765
1.87245,0.131555,-0.220747,17,32765
1.85302,0.123934,-0.218774,16,32765
1.82363,0.115791,-0.215764,17,32765
1.81407,0.109027,-0.214839,17,32765
1.7648,0.100178,-0.209405,17,32765
1.75518,0.0936472,-0.208528,17,32765
1.73561,0.0867864,-0.2065,17,32765
1.71599,0.08007,-0.204602,17,32765
1.69637,0.0734284,-0.202613,17,32765
1.6767,0.0669684,-0.20073,17,32765
1.66696,0.0609477,-0.199856,17,32765
1.64726,0.0546584,-0.197844,17,32765
1.64739,0.0492126,-0.198172,17,32765
1.63757,0.0434048,-0.1974,17,32765
1.64758,0.0381795,-0.199082,17,32765
1.58809,0.0314763,-0.192264,17,32765
1.59808,0.026327,-0.193812,17,32765
1.56833,0.0205724,-0.190599,18,32765
1.53855,0.0150287,-0.187457,17,32765
1.54848,0.0100694,-0.189006,17,32765
1.53852,0.00488773,-0.18826,17,32765
1.49874,-0.000175246,-0.184066,17,32765
1.48878,-0.00506323,-0.18309,17,32765
1.49861,-0.0100367,-0.184866,17,32765
1.46872,-0.0146368,-0.18182,17,32765
1.45868,-0.019394,-0.181033,17,32765
6.7271,2.26729,-0.76498,26,32765
6.64979,2.21655,-0.754794,19,32765
6.60983,2.17887,-0.750139,18,32765
6.57913,2.14471,-0.746249,18,32765
6.41579,2.06797,-0.727683,18,32765
6.53636,2.0824,-0.741374,18,32765
6.50531,2.04841,-0.737942,18,32765
6.47409,2.01447,-0.735203,18,32765
6.37629,1.96037,-0.723873,16,32765
6.33514,1.92453,-0.719602,19,32765
6.4176,1.92603,-0.729707,17,32765
6.29994,1.86767,-0.717442,18,32765
6.26793,1.83512,-0.714337,18,32765
6.25482,1.80834,-0.713894,16,32765
6.22251,1.77634,-0.71069,19,32765
6.26664,1.76593,-0.716412,19,32765
6.23412,1.73403,-0.713463,20,32765
6.15341,1.6895,-0.705329,18,32765
6.07252,1.6453,-0.697439,18,32765
6.04905,1.61725,-0.695325,19,32765
6.06405,1.59898,-0.697569,18,32765
6.12698,1.59324,-0.706169,18,32765
5.97814,1.53283,-0.690197,18,32765
6.01209,1.51966,-0.694973,19,32765
5.92062,1.47552,-0.68463,19,32765
5.92537,1.45532,-0.686727,19,32765
5.91071,1.4308,-0.686125,19,32765
5.98293,1.42702,-0.695904,19,32765
5.81354,1.36568,-0.676623,19,32765
5.86648,1.35663,-0.6838,20,32765
5.74507,1.30718,-0.671065,17,32765
5.84632,1.30899,-0.684091,21,32765
5.70506,1.25676,-0.668801,19,32765
5.81597,1.26039,-0.682667,19,32765
5.72288,1.21993,-0.672682,17,32765
5.74627,1.20442,-0.676616,20,32765
5.64318,1.16273,-0.665289,20,32765
3.93334,0.796442,-0.464899,13,32765
4.01389,0.798584,-0.474753,12,32765
3.98721,0.779115,-0.472442,12,32765
3.92147,0.752222,-0.46547,12,32765
3.45539,0.650589,-0.410653,13,32765
3.3207,0.613518,-0.39562,16,32765
3.20542,0.580963,-0.382316,20,32765
3.22686,0.573546,-0.385255,15,32765
3.17002,0.552143,-0.379076,15,32765
3.01517,0.514565,-0.361114,15,32765
3.00702,0.502569,-0.360747,13,32765
2.89105,0.472961,-0.347368,13,32765
2.84356,0.455234,-0.341943,13,32765
2.85484,0.44692,-0.34391,13,32765
2.76792,0.423701,-0.333888,13,32765
2.69075,0.402341,-0.324926,14,32765
2.61344,0.381574,-0.316145,14,32765
2.64416,0.376797,-0.320214,13,32765
2.51752,0.349922,-0.305381,14,32765
2.41042,0.326764,-0.292539,14,32765
2.4705,0.326456,-0.30024,14,32765
2.46169,0.316846,-0.299505,15,32765
2.38388,0.298695,-0.290376,14,32765
2.33557,0.284549,-0.284674,14,32765
2.3069,0.27307,-0.281486,14,32765
2.23874,0.257297,-0.273349,15,32765
2.2297,0.248621,-0.272425,15,32765
2.22064,0.240058,-0.271383,15,32765
2.19177,0.229349,-0.268251,15,32765
2.1629,0.218859,-0.264683,15,32765
2.09443,0.204693,-0.256673,14,32765
2.09512,0.197493,-0.256652,15,32765
2.05621,0.186821,-0.252025,15,32765
2.05682,0.179822,-0.252132,16,32765
1.99804,0.167854,-0.245057,15,32765
1.99858,0.161108,-0.245218,16,32765
1.9793,0.152817,-0.242914,15,32765
1.95998,0.144698,-0.240715,16,32765
1.89115,0.133197,-0.232216,15,32765
1.9213,0.128801,-0.235868,15,32765
1.95144,0.12425,-0.239472,15,32765
1.85275,0.111696,-0.227426,16,32765
1.91256,0.108991,-0.234824,16,32765
1.84354,0.0988922,-0.226232,16,32765
1.83393,0.0922715,-0.225113,16,32765
1.80451,0.0847469,-0.221301,16,32765
1.80478,0.0787021,-0.221342,16,32765
1.76538,0.0710447,-0.216297,16,32765
1.75569,0.0647403,-0.215112,16,32765
1.73607,0.0581766,-0.212533,16,32765
1.67675,0.0505075,-0.205112,16,32765
1.70668,0.045629,-0.208729,17,32765
1.69695,0.0397455,-0.207078,16,32765
1.707,0.0342446,-0.208263,16,32765
1.6575,0.0277605,-0.202041,16,32765
1.64768,0.0221786,-0.200681,16,32765
1.6279,0.0165478,-0.198126,16,32765
1.628,0.0111924,-0.197682,16,32765
1.58835,0.00557101,-0.192623,16,32765
1.56855,0.000301143,-0.18985,16,32765
1.56857,-0.00486968,-0.189633,16,32765
1.56861,-0.0101162,-0.189116,16,32765
1.51897,-0.0149029,-0.182793,16,32765
1.53884,-0.0202964,-0.184576,17,32765
6.32254,2.13808,-0.782616,21,32765
6.31088,2.11062,-0.779777,21,32765
6.28008,2.07711,-0.775792,21,32765
6.26799,2.05013,-0.773848,21,32765
6.21799,2.01092,-0.767572,21,32765
6.21525,1.98672,-0.767184,20,32765
6.18394,1.95373,-0.763343,20,32765
6.1335,1.91487,-0.757817,20,32765
6.07349,1.87351,-0.750127,21,32765
6.07962,1.85307,-0.751211,21,32765
6.08568,1.83251,-0.752603,21,32765
6.05354,1.80062,-0.749644,21,32765
6.06901,1.78282,-0.752026,20,32765
6.04622,1.75387,-0.750164,22,32765
5.98515,1.71429,-0.742999,21,32765
5.92393,1.67494,-0.735991,22,32765
5.90073,1.64678,-0.733785,21,32765
5.89643,1.62436,-0.734258,23,32765
5.8346,1.58613,-0.727839,22,32765
5.83975,1.56652,-0.728994,25,32765
5.81618,1.53876,-0.726503,24,32765
5.8212,1.5188,-0.728376,21,32765
5.76846,1.48403,-0.722873,24,32765
5.73486,1.45446,-0.719434,22,32765
5.65293,1.41354,-0.709333,21,32765
5.72495,1.41082,-0.719824,22,32765
5.66193,1.3752,-0.712911,24,32765
5.61805,1.34451,-0.708657,23,32765
5.59352,1.31844,-0.705928,22,32765
5.5399,1.28544,-0.700079,25,32765
5.59257,1.27679,-0.708075,24,32765
5.54835,1.24648,-0.703576,24,32765
5.52334,1.22086,-0.701569,23,32765
5.54673,1.20613,-0.705327,24,32765
5.51181,1.17894,-0.701759,22,32765
5.43793,1.14368,-0.69344,22,32765
5.41251,1.11901,-0.690943,22,32765
5.38689,1.0945,-0.689268,22,32765
3.87258,0.773116,-0.495805,16,32765
3.91401,0.767443,-0.501916,14,32765
3.87754,0.746361,-0.498026,13,32765
3.6655,0.692535,-0.471307,12,32765
3.25799,0.604018,-0.419848,14,32765
3.28922,0.598224,-0.424298,17,32765
3.21304,0.573079,-0.414833,20,32765
3.16604,0.553377,-0.409355,18,32765
3.06027,0.524092,-0.396228,15,32765
3.06195,0.513548,-0.39705,15,32765
2.97551,0.488497,-0.386377,14,32765
2.90856,0.467287,-0.377956,14,32765
2.84147,0.446408,-0.369833,14,32765
2.74486,0.421669,-0.357692,15,32765
2.57951,0.387088,-0.336465,14,32765
2.58074,0.378155,-0.337164,15,32765
2.58196,0.369263,-0.337657,15,32765
2.56349,0.357606,-0.335744,15,32765
2.49586,0.33958,-0.327031,16,32765
2.36913,0.314208,-0.310808,16,32765
2.39962,0.309996,-0.315128,15,32765
2.31205,0.290769,-0.303947,15,32765
2.31299,0.282848,-0.304243,15,32765
2.2942,0.272585,-0.302067,15,32765
2.18673,0.252267,-0.288085,15,32765
2.18753,0.244846,-0.288361,15,32765
2.13904,0.232122,-0.282025,16,32765
2.11018,0.221663,-0.278594,15,32765
2.09119,0.212425,-0.276047,15,32765
2.09185,0.205243,-0.276498,16,32765
2.03332,0.192426,-0.268652,16,32765
1.99444,0.181934,-0.263646,16,32765
2.04442,0.17946,-0.270278,16,32765
1.97584,0.166667,-0.261335,16,32765
1.91708,0.155177,-0.25365,17,32765
1.90769,0.147906,-0.252463,17,32765
1.85872,0.137805,-0.246141,17,32765
1.84928,0.13081,-0.244844,17,32765
1.84971,0.124546,-0.244849,17,32765
1.86002,0.118958,-0.246117,18,32765
1.81092,0.10967,-0.239679,17,32765
1.82116,0.104264,-0.241085,17,32765
1.8017,0.0971074,-0.238392,18,32765
1.7723,0.0896055,-0.234557,16,32765
1.78252,0.0841341,-0.235708,17,32765
1.74317,0.0764092,-0.23051,16,32765
1.71372,0.069336,-0.226407,16,32765
1.71394,0.0635546,-0.226436,17,32765
1.66462,0.0561095,-0.21975,17,32765
1.63509,0.0495581,-0.215695,17,32765
1.62534,0.0437421,-0.214366,17,32765
1.62553,0.0383446,-0.213946,18,32765
1.56618,0.0316664,-0.206095,18,32765
1.58612,0.0267998,-0.208544,17,32765
1.57631,0.0214363,-0.207097,17,32765
1.55656,0.0160233,-0.204362,17,32765
1.52692,0.0106796,-0.200041,17,32765
1.53689,0.00555892,-0.201109,17,32765
1.51711,0.000442874,-0.198162,17,32765
1.50722,-0.00454293,-0.196658,16,32765
1.47751,-0.00940955,-0.19229,17,32765
1.45768,-0.0141983,-0.189384,17,32765
1.4577,-0.0191374,-0.18881,17,32765
6.47748,2.18431,-0.778089,18,32765
6.46502,2.15687,-0.78165,18,32765
6.3488,2.09537,-0.77136,20,32765
6.36453,2.07732,-0.777853,18,32765
6.25732,2.01973,-0.768776,16,32765
6.24453,1.99288,-0.770914,19,32765
6.28843,1.98424,-0.779764,19,32765
6.2281,1.9427,-0.775581,19,32765
6.14861,1.89562,-0.769138,18,32765
6.08797,1.85501,-0.764,18,32765
6.13179,1.84584,-0.772356,19,32765
6.08045,1.80807,-0.76881,18,32765
6.05765,1.77872,-0.768529,19,32765
5.96802,1.73007,-0.759762,17,32765
5.97351,1.70975,-0.762583,19,32765
5.89287,1.66502,-0.755439,18,32765
5.86946,1.63698,-0.754548,18,32765
5.79799,1.59614,-0.747837,18,32765
5.7456,1.56095,-0.742642,20,32765
5.875,1.57517,-0.761645,20,32765
5.70736,1.50952,-0.74159,20,32765
5.76959,1.50544,-0.752065,19,32765
5.65896,1.45668,-0.739149,20,32765
5.66359,1.43757,-0.741131,20,32765
5.58143,1.39689,-0.732389,18,32765
5.61479,1.38459,-0.738869,20,32765
5.59033,1.35815,-0.737344,20,32765
5.479,1.31121,-0.723624,20,32765
5.50253,1.29691,-0.728157,20,32765
5.45831,1.26702,-0.723898,20,32765
5.48175,1.25266,-0.728126,20,32765
5.46635,1.22958,-0.727772,20,32765
5.41224,1.1981,-0.721363,20,32765
5.34828,1.16464,-0.714054,19,32765
5.36169,1.1484,-0.71719,20,32765
5.32663,1.12138,-0.713854,19,32765
5.34973,1.10694,-0.717743,20,32765
5.36299,1.0905,-0.720808,20,32765
5.1332,1.02537,-0.690826,18,32765
4.01779,0.788261,-0.541206,15,32765
4.02032,0.774493,-0.542282,12,32765
3.96432,0.749748,-0.535683,12,32765
3.87902,0.720016,-0.524552,12,32765
3.42301,0.623267,-0.463321,14,32765
3.29816,0.588804,-0.447038,15,32765
3.16339,0.553499,-0.429168,15,32765
3.16519,0.542583,-0.429891,14,32765
3.14737,0.528602,-0.427836,14,32765
3.10021,0.509798,-0.421569,13,32765
3.0138,0.484983,-0.41009,14,32765
2.90774,0.457395,-0.395917,14,32765
2.82109,0.433647,-0.384473,13,32765
2.68531,0.403299,-0.366173,13,32765
2.75522,0.404256,-0.376051,14,32765
2.63881,0.37804,-0.360392,14,32765
2.6695,0.373074,-0.364688,14,32765
2.68053,0.365105,-0.366567,14,32765
2.51475,0.333607,-0.344021,15,32765
2.49615,0.322371,-0.341896,14,32765
2.38905,0.300278,-0.327385,14,32765
2.42935,0.296987,-0.333099,14,32765
2.38111,0.282881,-0.326608,14,32765
2.32293,0.268019,-0.318999,14,32765
2.20564,0.246822,-0.303007,14,32765
2.23597,0.242472,-0.307479,15,32765
2.17762,0.228548,-0.299737,14,32765
2.17836,0.221041,-0.299947,14,32765
2.21853,0.217484,-0.305506,14,32765
2.11069,0.199652,-0.29107,15,32765
2.08171,0.189847,-0.287284,15,32765
2.0724,0.181923,-0.286448,16,32765
2.07294,0.174897,-0.286927,16,32765
2.01427,0.163139,-0.278772,15,32765
1.97525,0.153222,-0.273668,15,32765
1.98559,0.147259,-0.275423,15,32765
1.97616,0.139816,-0.274279,16,32765
1.92716,0.129767,-0.26783,16,32765
1.8979,0.121409,-0.263909,16,32765
1.89823,0.115056,-0.264337,16,32765
1.88868,0.108158,-0.263251,16,32765
1.80985,0.0975707,-0.252651,16,32765
1.86945,0.0944347,-0.2614,16,32765
1.83015,0.0862671,-0.256119,16,32765
1.8007,0.0787594,-0.252361,17,32765
1.77121,0.071492,-0.248638,16,32765
1.72189,0.0637003,-0.24214,16,32765
1.72203,0.0578981,-0.242639,16,32765
1.72215,0.0521782,-0.243067,16,32765
1.74206,0.0469674,-0.246186,16,32765
1.72236,0.0407334,-0.243745,16,32765
1.6927,0.0342715,-0.240198,17,32765
1.67296,0.0282063,-0.237715,16,32765
1.65319,0.0223108,-0.235296,16,32765
1.66307,0.0169015,-0.237323,16,32765
1.65313,0.0113977,-0.236473,16,32765
1.59371,0.00574503,-0.228408,16,32765
1.58372,0.000495253,-0.22763,16,32765
1.59353,-0.00480516,-0.22964,15,32765
1.52413,-0.00972024,-0.220278,16,32765
1.54378,-0.0150094,-0.223857,16,32765
1.54363,-0.0201033,-0.224506,16,32765
6.15779,2.08357,-0.801767,21,32765
6.10739,2.0445,-0.79993,20,32765
6.04752,2.00273,-0.795616,21,32765
6.06292,1.98563,-0.801957,22,32765
6.01221,1.94723,-0.799065,20,32765
5.96141,1.90903,-0.795804,22,32765
5.86314,1.85637,-0.785833,20,32765
5.88769,1.84281,-0.792191,22,32765
5.8459,1.80847,-0.789805,21,32765
5.7661,1.76297,-0.781293,21,32765
5.7621,1.74051,-0.783386,20,32765
5.73901,1.71241,-0.782956,21,32765
5.6874,1.67574,-0.778309,21,32765
5.68324,1.65319,-0.780172,19,32765
5.70754,1.63925,-0.785486,22,32765
5.54095,1.57099,-0.76548,20,32765
5.61273,1.57079,-0.777369,22,32765
5.55071,1.53335,-0.771107,22,32765
5.54601,1.51194,-0.771918,23,32765
5.53151,1.48822,-0.772004,24,32765
5.51709,1.46425,-0.77157,21,32765
5.40654,1.41561,-0.758309,22,32765
5.46848,1.41255,-0.768411,23,32765
5.45376,1.38913,-0.767628,24,32765
5.32351,1.33698,-0.751176,22,32765
5.34702,1.32316,-0.756456,24,32765
5.30314,1.29289,-0.751819,22,32765
5.33626,1.28152,-0.757412,24,32765
5.30181,1.25399,-0.753861,23,32765
5.30576,1.23593,-0.755934,23,32765
5.23252,1.19991,-0.746532,23,32765
5.27494,1.19071,-0.754184,23,32765
5.23045,1.16195,-0.748557,23,32765
5.1955,1.13537,-0.744701,23,32765
5.2088,1.1196,-0.747882,24,32765
5.19307,1.09715,-0.746912,24,32765
5.09002,1.05695,-0.732812,23,32765
5.0837,1.03739,-0.733092,22,32765
5.06765,1.01589,-0.731637,23,32765
5.07096,0.998449,-0.732706,23,32765
4.79227,0.92652,-0.693286,14,32765
3.87116,0.734766,-0.560944,13,32765
3.97086,0.739723,-0.575772,14,32765
3.73953,0.683366,-0.542685,14,32765
3.25453,0.583124,-0.47289,16,32765
3.28568,0.576989,-0.477812,17,32765
3.18024,0.547155,-0.462944,18,32765
3.12342,0.526502,-0.455019,17,32765
3.16422,0.522237,-0.461094,16,32765
3.07798,0.497138,-0.448788,16,32765
2.84501,0.449185,-0.415059,15,32765
2.8367,0.43767,-0.414191,14,32765
2.77942,0.418994,-0.406026,15,32765
2.71221,0.399439,-0.396535,15,32765
2.63513,0.378936,-0.385485,15,32765
2.63638,0.369841,-0.385759,15,32765
2.60817,0.3566,-0.381982,15,32765
2.37392,0.31613,-0.347784,16,32765
2.44362,0.316801,-0.358395,14,32765
2.38574,0.301023,-0.350056,14,32765
2.34741,0.288088,-0.344609,15,32765
2.34835,0.280082,-0.344858,15,32765
2.32955,0.269844,-0.342464,16,32765
2.24193,0.25188,-0.329692,16,32765
2.23289,0.243108,-0.32866,16,32765
2.0959,0.22086,-0.308762,18,32765
2.16552,0.220634,-0.319119,16,32765
2.12686,0.209355,-0.313442,16,32765
2.04869,0.194593,-0.302319,17,32765
2.07885,0.190382,-0.306974,16,32765
2.06955,0.182445,-0.306046,16,32765
2.00109,0.169561,-0.296307,16,32765
1.9622,0.159614,-0.290511,16,32765
1.92323,0.149846,-0.285025,17,32765
1.93354,0.144042,-0.286863,16,32765
1.86491,0.132546,-0.276832,17,32765
1.86529,0.126185,-0.277228,17,32765
1.82619,0.117375,-0.271553,17,32765
1.83639,0.111845,-0.273436,17,32765
1.82684,0.105134,-0.272248,17,32765
1.77773,0.0963253,-0.265309,16,32765
1.80762,0.0917874,-0.270181,17,32765
1.77824,0.084271,-0.265996,17,32765
1.7093,0.0751782,-0.256028,16,32765
1.6996,0.0689991,-0.254968,17,32765
1.64046,0.0610555,-0.246499,17,32765
1.68012,0.0568493,-0.252926,18,32765
1.61105,0.0491419,-0.242913,17,32765
1.67047,0.0453628,-0.252166,17,32765
1.62113,0.0386398,-0.245042,17,32765
1.60139,0.032704,-0.242674,17,32765
1.60144,0.0272659,-0.242986,17,32765
1.58169,0.0215927,-0.240364,17,32765
1.54213,0.0158982,-0.234929,17,32765
1.58163,0.0111215,-0.241491,17,32765
1.54205,0.00575553,-0.235871,17,32765
1.54197,0.000664348,-0.236495,17,32765
1.49246,-0.00433835,-0.229465,16,32765
1.54176,-0.0096801,-0.237692,17,32765
1.50207,-0.0144697,-0.232297,17,32765
1.48216,-0.0191844,-0.229864,17,32765
5.85515,1.98649,-0.841858,18,32765
5.90817,1.9829,-0.851886,18,32765
5.82033,1.93244,-0.839964,20,32765
5.78873,1.90065,-0.837058,19,32765
5.86076,1.90266,-0.848386,18,32765
5.78195,1.85561,-0.838284,17,32765
5.75952,1.82708,-0.836453,19,32765
5.70868,1.78994,-0.829905,18,32765
5.69547,1.76496,-0.828772,20,32765
5.6443,1.72853,-0.821984,19,32765
5.51722,1.66918,-0.804057,19,32765
5.63657,1.6843,-0.822106,18,32765
5.52808,1.63137,-0.807107,19,32765
5.5905,1.62907,-0.816587,18,32765
5.50056,1.58283,-0.804309,21,32765
5.53436,1.57213,-0.809577,19,32765
5.44407,1.52654,-0.797436,19,32765
5.49677,1.52124,-0.805538,20,32765
5.39663,1.47387,-0.791589,20,32765
5.44918,1.46849,-0.799974,21,32765
5.40614,1.4369,-0.79463,20,32765
5.40124,1.41587,-0.794698,19,32765
5.35803,1.38479,-0.788641,20,32765
5.38178,1.37132,-0.792467,20,32765
5.39581,1.3555,-0.795131,21,32765
5.27529,1.3062,-0.777961,20,32765
5.31794,1.29774,-0.785028,23,32765
5.2548,1.26348,-0.776098,21,32765
5.22037,1.23634,-0.771761,21,32765
5.18586,1.2092,-0.767528,21,32765
5.22849,1.19972,-0.774603,20,32765
5.21321,1.17672,-0.773129,21,32765
5.18819,1.15191,-0.769855,20,32765
5.19195,1.13385,-0.771293,20,32765
5.18598,1.11394,-0.77093,21,32765
5.17988,1.09409,-0.770905,20,32765
5.07684,1.05413,-0.756364,22,32765
5.02201,1.02487,-0.749269,21,32765
5.03508,1.00948,-0.751694,21,32765
5.03831,0.992118,-0.753173,21,32765
5.05125,0.976447,-0.755947,21,32765
4.53925,0.861076,-0.680176,13,32765
4.03629,0.751164,-0.605468,13,32765
3.99979,0.730006,-0.600742,13,32765
3.38864,0.60645,-0.509617,13,32765
3.37112,0.591302,-0.507456,16,32765
3.27549,0.562867,-0.493885,16,32765
3.23827,0.545106,-0.488714,17,32765
3.14238,0.517871,-0.475029,15,32765
3.14404,0.507202,-0.47559,18,32765
3.06749,0.483999,-0.464567,13,32765
2.99084,0.461285,-0.453528,14,32765
2.87496,0.433092,-0.436643,14,32765
2.77851,0.408592,-0.422515,14,32765
2.77005,0.39759,-0.421498,14,32765
2.70276,0.378379,-0.411748,14,32765
2.62554,0.358305,-0.400677,13,32765
2.52868,0.336291,-0.386097,13,32765
2.52973,0.327657,-0.386672,13,32765
2.51114,0.316615,-0.384085,14,32765
2.48266,0.304479,-0.380225,14,32765
2.48364,0.29601,-0.380516,14,32765
2.37651,0.275123,-0.364552,14,32765
2.3479,0.263644,-0.360509,14,32765
2.26027,0.246024,-0.347354,14,32765
2.2512,0.237202,-0.346303,15,32765
2.22244,0.226446,-0.342143,15,32765
2.20348,0.216879,-0.339463,16,32765
2.21399,0.210352,-0.341303,15,32765
2.13593,0.195666,-0.329272,16,32765
2.14637,0.189243,-0.331158,15,32765
2.09766,0.177751,-0.324226,15,32765
2.04899,0.166651,-0.316682,15,32765
2.0101,0.156644,-0.310754,15,32765
1.9909,0.148356,-0.307745,15,32765
1.99136,0.141637,-0.307958,16,32765
1.95235,0.132171,-0.302117,16,32765
1.95274,0.125574,-0.3024,15,32765
1.93343,0.117761,-0.299279,15,32765
1.91408,0.110078,-0.296253,16,32765
1.91441,0.103687,-0.296438,16,32765
1.86539,0.094695,-0.288877,15,32765
1.83608,0.0870447,-0.284311,15,32765
1.82649,0.0804827,-0.282742,15,32765
1.78726,0.0727689,-0.276617,16,32765
1.75788,0.0656995,-0.271913,16,32765
1.76797,0.0600798,-0.273416,16,32765
1.72866,0.0528937,-0.267283,16,32765
1.69918,0.0463202,-0.262755,16,32765
1.64008,0.0392054,-0.253386,16,32765
1.7094,0.0350987,-0.263865,16,32765
1.67,0.0286575,-0.257653,16,32765
1.65034,0.022813,-0.254445,16,32765
1.61092,0.0170137,-0.248116,15,32765
1.65055,0.0119968,-0.253852,16,32765
1.58144,0.00634555,-0.242911,15,32765
1.56173,0.0010207,-0.239601,16,32765
1.56178,-0.00415573,-0.239239,16,32765
1.54204,-0.00925787,-0.235834,16,32765
1.53221,-0.0142805,-0.233752,16,32765
1.50259,-0.018955,-0.228642,16,32765
5.62044,1.91367,-0.86516,21,32765
5.61689,1.89188,-0.866846,20,32765
5.56648,1.85476,-0.85972,23,32765
5.52529,1.82064,-0.854886,22,32765
5.53111,1.80206,-0.856591,22,32765
5.48978,1.76815,-0.851378,21,32765
5.4577,1.73753,-0.847695,23,32765
5.47271,1.72209,-0.850776,24,32765
5.44988,1.6949,-0.847927,22,32765
5.46476,1.67954,-0.850828,24,32765
5.38507,1.63504,-0.838934,23,32765
5.34307,1.60232,-0.832963,24,32765
5.28191,1.56431,-0.824168,23,32765
5.382,1.57393,-0.840086,23,32765
5.32053,1.53652,-0.831278,24,32765
5.24953,1.49657,-0.820445,21,32765
5.27338,1.48399,-0.825161,22,32765
5.27823,1.46601,-0.826241,23,32765
5.27344,1.44541,-0.826156,24,32765
5.21129,1.40944,-0.817023,24,32765
5.14903,1.37349,-0.808149,23,32765
5.22043,1.3734,-0.820074,22,32765
5.11017,1.3255,-0.802998,22,32765
5.07623,1.29814,-0.797935,22,32765
5.09001,1.2833,-0.800626,23,32765
5.0654,1.25877,-0.797282,22,32765
5.04062,1.23452,-0.794082,23,32765
5.06386,1.22199,-0.798083,23,32765
5.04859,1.20001,-0.796362,23,32765
4.99478,1.16888,-0.788675,24,32765
5.03721,1.16004,-0.796076,24,32765
4.94472,1.1202,-0.782173,24,32765
4.93885,1.10056,-0.781624,23,32765
4.91348,1.07697,-0.77841,23,32765
4.93632,1.0642,-0.782494,24,32765
4.95907,1.0513,-0.786914,26,32765
4.81737,1.00395,-0.765151,22,32765
4.81087,0.985411,-0.765119,22,32765
4.83347,0.972649,-0.769141,22,32765
4.8075,0.950184,-0.765932,23,32765
4.81059,0.933388,-0.767195,22,32765
4.76509,0.907291,-0.760806,21,32765
4.59324,0.858013,-0.73409,16,32765
3.8964,0.713806,-0.623431,14,32765
3.8306,0.688128,-0.613635,14,32765
3.3367,0.587477,-0.534967,15,32765
3.29961,0.569163,-0.529834,18,32765
3.27221,0.552916,-0.525865,18,32765
3.12777,0.517433,-0.503421,18,32765
3.16842,0.513097,-0.510261,18,32765
3.04324,0.482022,-0.49064,15,32765
2.93742,0.4548,-0.474126,14,32765
2.88028,0.435581,-0.465579,14,32765
2.83283,0.418208,-0.458427,15,32765
2.77555,0.399944,-0.449416,15,32765
2.67904,0.376539,-0.434263,15,32765
2.69975,0.369895,-0.438322,15,32765
2.56393,0.342341,-0.416466,15,32765
2.565,0.33356,-0.417051,15,32765
2.43872,0.308728,-0.396758,15,32765
2.35148,0.289565,-0.383025,16,32765
2.323,0.278,-0.378511,15,32765
2.29442,0.266717,-0.374281,15,32765
2.28544,0.257699,-0.373146,15,32765
2.28624,0.249896,-0.373572,15,32765
2.22812,0.235764,-0.364408,15,32765
2.14049,0.219028,-0.350324,15,32765
2.12153,0.209715,-0.347446,15,32765
2.11236,0.201571,-0.346148,16,32765
2.09335,0.192612,-0.343031,17,32765
2.0153,0.178479,-0.330494,16,32765
2.04529,0.174097,-0.335979,16,32765
2.02619,0.165552,-0.332814,16,32765
1.95784,0.153282,-0.321665,16,32765
1.91898,0.143673,-0.315235,17,32765
1.88989,0.135066,-0.310588,16,32765
1.91984,0.130606,-0.315695,17,32765
1.88083,0.121553,-0.309492,17,32765
1.8714,0.114564,-0.307808,16,32765
1.82251,0.105359,-0.299735,17,32765
1.82283,0.0992556,-0.299912,17,32765
1.80343,0.0920541,-0.296747,17,32765
1.77416,0.0845871,-0.291901,17,32765
1.74486,0.0773381,-0.286998,17,32765
1.70568,0.0698721,-0.280502,17,32765
1.71578,0.0645358,-0.282007,17,32765
1.70613,0.0583681,-0.280363,17,32765
1.66687,0.0513668,-0.273859,17,32765
1.66703,0.0457905,-0.273912,17,32765
1.63761,0.0394703,-0.268847,17,32765
1.63777,0.0339349,-0.26865,17,32765
1.59842,0.0277125,-0.262071,17,32765
1.5788,0.0220877,-0.258683,17,32765
1.61837,0.0173467,-0.264916,17,32765
1.54939,0.0114893,-0.253278,17,32765
1.54947,0.00642959,-0.252983,17,32765
1.53966,0.00120147,-0.251102,17,32765
1.52984,-0.00389233,-0.249138,16,32765
1.51014,-0.00890566,-0.245554,16,32765
1.49045,-0.013748,-0.241791,16,32765
0,-0,-0,0,32765
7.49479,5.52908,1.65802,21,32765
7.53698,5.52241,1.66043,36,32765
7.52356,5.47501,1.65009,38,32765
7.5426,5.44986,1.64644,37,32765
7.54547,5.4135,1.63851,36,32765
7.55629,5.38268,1.63265,37,32765
7.55873,5.34631,1.6256,36,32765
7.56927,5.31553,1.61968,38,32765
7.57995,5.28451,1.61332,37,32765
7.61433,5.27077,1.61276,38,32765
7.5998,5.2239,1.60111,35,32765
7.6011,5.18844,1.59341,37,32765
7.62663,5.16945,1.5918,39,32765
7.66075,5.15552,1.59073,38,32765
7.66195,5.1197,1.58291,39,32765
7.67941,5.09461,1.57926,40,32765
7.68044,5.05865,1.57156,38,32765
7.67281,5.01786,1.56174,35,32765
7.68158,4.98734,1.55689,28,32765
7.67355,4.94644,1.54822,19,32765
7.67404,4.91049,1.54068,13,32765
7.69072,4.88538,1.53734,12,32765
7.66556,4.83409,1.52541,12,32765
7.72375,4.83541,1.52974,13,32765
7.69826,4.78446,1.51717,12,32765
7.72291,4.76439,1.51566,13,32765
7.73081,4.73376,1.51069,13,32765
7.74683,4.70842,1.50783,13,32765
7.27341,4.38707,1.40825,20,32765
7.22895,4.32786,1.39409,32,32765
7.27773,4.32434,1.39686,32,32765
7.30947,4.31048,1.39695,27,32765
7.31541,4.28184,1.39238,30,32765
7.27011,4.2233,1.37829,29,32765
7.58357,4.37221,1.43184,24,32765
7.52126,4.30343,1.41407,18,32765
7.41587,4.21044,1.38805,13,32765
7.38704,4.16183,1.37799,14,32765
7.4013,4.13758,1.37455,15,32765
7.4238,4.11825,1.37373,15,32765
7.80114,4.2939,1.437,14,32765
7.89386,4.31053,1.44858,14,32765
7.90862,4.28403,1.44667,13,32765
7.88875,4.2388,1.43707,13,32765
7.93787,4.23156,1.44089,13,32765
7.87325,4.16442,1.42477,13,32765
7.9658,4.18034,1.43625,13,32765
7.90092,4.11356,1.41932,14,32765
7.915,4.08731,1.41673,14,32765
7.9289,4.061,1.41465,14,32765
7.98722,4.05655,1.41901,14,32765
8.06318,4.06059,1.42703,16,32765
8.12124,4.05555,1.43319,18,32765
8.15299,4.03684,1.43413,17,32765
8.1933,4.02304,1.43618,18,32765
8.21589,4.00038,1.43479,17,32765
8.23836,3.97752,1.43398,18,32765
8.25173,3.95046,1.43192,18,32765
8.22064,3.90199,1.42111,19,32765
8.26064,3.88765,1.42324,14,32765
18.3386,8.55631,3.14865,27,32765
18.3947,8.50788,3.14814,29,32765
18.4146,8.4433,3.14068,33,32765
18.2815,8.30855,3.10741,21,32765
17.9494,8.08573,3.04062,16,32765
18.0493,8.05862,3.04646,14,32765
18.4115,8.14632,3.09683,15,32765
18.4933,8.10969,3.10102,18,32765
18.5215,8.04817,3.09281,17,32765
18.6124,8.01379,3.09969,21,32765
18.5399,7.9095,3.07657,19,32765
18.667,7.89051,3.08776,20,32765
18.6667,7.81744,3.07605,18,32765
18.63,7.729,3.05725,22,32765
18.6651,7.67141,3.0546,20,32765
18.7464,7.63257,3.05544,18,32765
18.7353,7.55675,3.04441,15,32765
18.8984,7.55117,3.06047,14,32765
18.8508,7.46025,3.04009,12,32765
18.5997,7.2911,2.98872,13,32765
18.7351,7.27305,3.0003,14,32765
8.45671,3.25085,1.34967,15,32765
8.51395,3.24121,1.35328,25,32765
8.5343,3.21683,1.35139,28,32765
8.5265,3.18235,1.3459,29,32765
8.54658,3.1581,1.34405,30,32765
8.52958,3.11991,1.33595,28,32765
8.49341,3.0756,1.32649,31,32765
8.49472,3.04449,1.32104,27,32765
8.37423,2.97133,1.29763,25,32765
8.37498,2.94116,1.29233,17,32765
8.40364,2.9209,1.29122,17,32765
8.41345,2.89414,1.28759,16,32765
8.38584,2.85424,1.27809,16,32765
8.46088,2.85006,1.28492,14,32765
8.47997,2.82619,1.28208,16,32765
8.45169,2.78734,1.27269,16,32765
8.45149,2.75841,1.26648,20,32765
8.47962,2.73812,1.26444,25,32765
8.50756,2.71794,1.26281,41,32765
8.50735,2.68866,1.25547,43,32765
7.44056,5.49531,1.55695,17,32765
7.49857,5.50047,1.56241,22,32765
7.5488,5.49956,1.56569,44,32765
7.55993,5.46849,1.56037,49,32765
7.57885,5.44351,1.55591,48,32765
7.59778,5.41825,1.55175,48,32765
7.60031,5.38166,1.54486,48,32765
7.61902,5.35636,1.54064,49,32765
7.61362,5.31381,1.53109,49,32765
7.63189,5.2887,1.52707,49,32765
7.63362,5.25286,1.51902,50,32765
7.60239,5.19495,1.50503,43,32765
7.6116,5.16484,1.5001,34,32765
7.62934,5.13991,1.49564,27,32765
7.62224,5.09863,1.48643,21,32765
7.61495,5.05724,1.478,19,32765
7.64053,5.03772,1.4753,15,32765
7.60799,4.98076,1.46102,14,32765
7.64973,4.97191,1.46262,14,32765
7.64161,4.93103,1.45424,14,32765
7.6337,4.8898,1.44533,15,32765
7.68363,4.88597,1.44829,15,32765
7.69182,4.85567,1.44309,14,32765
7.74174,4.85168,1.44537,15,32765
7.71624,4.80057,1.43325,15,32765
7.74935,4.7856,1.4332,15,32765
7.76572,4.75998,1.42986,15,32765
7.76494,4.72421,1.42389,15,32765
7.67156,4.6319,1.39911,15,32765
7.28036,4.36302,1.32233,31,32765
7.29531,4.33912,1.31856,43,32765
7.29307,4.30509,1.31233,43,32765
7.35866,4.31142,1.31855,36,32765
7.31338,4.25262,1.30509,40,32765
7.35337,4.24365,1.30669,35,32765
7.61645,4.36214,1.34752,34,32765
7.59704,4.31748,1.33789,26,32765
7.42214,4.18564,1.30256,16,32765
7.40196,4.14191,1.29307,17,32765
7.42449,4.12255,1.29216,18,32765
7.43858,4.09822,1.2885,19,32765
7.66953,4.19198,1.32333,16,32765
7.90989,4.28872,1.36034,17,32765
7.89868,4.24808,1.3526,16,32765
7.89553,4.21288,1.34711,17,32765
7.94437,4.20588,1.35115,16,32765
7.92334,4.16184,1.34249,16,32765
7.95476,4.14534,1.34269,16,32765
7.96895,4.11886,1.34008,17,32765
7.99175,4.09684,1.33946,18,32765
7.98852,4.0608,1.33303,18,32765
7.98507,4.02479,1.32718,17,32765
8.06077,4.02885,1.33582,19,32765
8.15449,4.04108,1.34684,24,32765
8.19484,4.02724,1.34861,23,32765
8.21745,4.00455,1.34712,24,32765
8.23995,3.98165,1.34621,23,32765
8.27117,3.96309,1.34706,22,32765
8.26687,3.9272,1.34105,23,32765
8.28908,3.90425,1.33999,25,32765
8.28444,3.86845,1.33444,17,32765
18.4182,8.52565,2.95692,25,32765
18.4471,8.46501,2.95098,23,32765
18.458,8.39545,2.94235,22,32765
18.4145,8.30177,2.92509,19,32765
18.0091,8.04698,2.84994,17,32765
18.0459,7.99075,2.84549,21,32765
18.4172,8.08256,2.89481,23,32765
18.5815,8.0804,2.90794,22,32765
18.6089,8.01835,2.90421,20,32765
18.6182,7.94886,2.89486,19,32765
18.6453,7.88717,2.88945,15,32765
