x, y, z, intensity, ring
6.79998,2.10383,-0.560181,13,32765
6.86401,2.09902,-0.565199,13,32765
6.83268,2.06489,-0.56245,13,32765
6.83954,2.04176,-0.563443,14,32765
6.92277,2.04147,-0.570296,14,32765
6.92951,2.01807,-0.571758,13,32765
6.93627,1.99446,-0.572643,13,32765
6.94285,1.97115,-0.573581,13,32765
6.97817,1.95567,-0.577404,14,32765
7.06147,1.95345,-0.584937,13,32765
7.04872,1.92434,-0.584233,13,32765
7.01645,1.89047,-0.582813,14,32765
7.06127,1.87703,-0.586632,13,32765
7.06741,1.85313,-0.588701,13,32765
7.09297,1.83393,-0.590758,13,32765
7.1184,1.81447,-0.594178,13,32765
7.14371,1.79506,-0.597743,13,32765
7.09157,1.75665,-0.593859,14,32765
6.93269,1.69264,-0.581723,14,32765
6.73476,1.6203,-0.56585,15,32765
6.63344,1.57214,-0.558085,24,32765
6.68725,1.56063,-0.563283,31,32765
6.64386,1.52638,-0.561166,27,32765
6.57119,1.48586,-0.556119,25,32765
6.47878,1.44203,-0.549189,18,32765
6.49326,1.42226,-0.551038,20,32765
6.36156,1.37068,-0.54099,20,32765
6.34652,1.34489,-0.541298,20,32765
6.39002,1.3312,-0.545902,20,32765
6.43351,1.31724,-0.550368,19,32765
6.51602,1.31065,-0.559057,19,32765
6.46176,1.27656,-0.55513,16,32765
6.52466,1.26593,-0.56142,16,32765
6.56795,1.25115,-0.566331,17,32765
6.55247,1.22528,-0.5656,16,32765
6.53678,1.19956,-0.566091,19,32765
6.65832,1.1986,-0.578134,18,32765
6.57393,1.1606,-0.571319,19,32765
6.68567,1.15682,-0.582818,20,32765
6.58141,1.11553,-0.57498,21,32765
6.67353,1.1073,-0.584736,20,32765
6.67721,1.08426,-0.58596,17,32765
6.99561,1.11133,-0.615175,13,32765
7.03852,1.09355,-0.621224,13,32765
7.03236,1.06802,-0.620369,18,32765
7.04562,1.04517,-0.624031,20,32765
7.06879,1.02375,-0.626965,21,32765
7.08191,1.00105,-0.629914,20,32765
7.0851,0.977218,-0.631463,19,32765
7.12768,0.958841,-0.636524,20,32765
7.19003,0.942512,-0.643046,20,32765
7.18319,0.916765,-0.643636,19,32765
2.30313,0.285894,-0.20675,19,32765
2.4326,0.293507,-0.218942,18,32765
2.36429,0.277187,-0.21304,13,32765
0,0,-0,0,32765
2.5145,0.277736,-0.227441,12,32765
2.36684,0.253405,-0.214377,11,32765
2.36764,0.24544,-0.214833,12,32765
2.39815,0.240383,-0.217972,12,32765
2.35925,0.228394,-0.214857,12,32765
2.34015,0.218575,-0.213361,11,32765
2.34084,0.210705,-0.213694,12,32765
2.4804,0.214844,-0.226806,12,32765
2.39178,0.199177,-0.218685,13,32765
0,0,-0,11,32765
2.45257,0.18773,-0.224848,12,32765
2.36376,0.172954,-0.217039,12,32765
2.47359,0.172719,-0.227235,12,32765
8.08813,0.537693,-0.743399,11,32765
7.99043,0.504219,-0.735101,11,32765
8.01192,0.47881,-0.737229,11,32765
7.96372,0.449202,-0.733124,11,32765
8.09434,0.429516,-0.746219,11,32765
8.24497,0.410088,-0.759225,11,32765
8.18653,0.37974,-0.754638,11,32765
8.22758,0.354209,-0.757837,11,32765
8.18889,0.32522,-0.75446,11,32765
8.39888,0.305273,-0.774121,11,32765
0,0,-0,0,32765
8.36097,0.248344,-0.769749,11,32765
8.49123,0.224451,-0.780695,11,32765
0,0,-0,0,32765
0,0,-0,0,32765
0,0,-0,0,32765
0,0,-0,0,32765
0,0,-0,0,32765
0,0,-0,0,32765
7.15021,0.0233413,-0.652952,11,32765
0,-0,-0,0,32765
0,-0,-0,0,32765
0,-0,-0,0,32765
0,-0,-0,0,32765
0,-0,-0,0,32765
6.66687,2.23928,-0.618046,15,32765
6.69316,2.22366,-0.619161,15,32765
6.70032,2.20186,-0.619671,15,32765
6.74555,2.19194,-0.622384,14,32765
6.77176,2.17552,-0.624512,15,32765
6.77889,2.15285,-0.625688,15,32765
6.76694,2.12449,-0.62409,15,32765
6.81183,2.11405,-0.62877,15,32765
6.79967,2.0858,-0.627328,15,32765
6.82554,2.06914,-0.629481,15,32765
6.85152,2.05168,-0.63224,15,32765
6.86785,2.03156,-0.63368,15,32765
6.87456,2.00828,-0.635137,15,32765
6.88129,1.98479,-0.63602,15,32765
6.96449,1.98343,-0.644043,15,32765
6.97106,1.95974,-0.645494,15,32765
6.99672,1.94154,-0.648444,15,32765
6.98396,1.91257,-0.64755,15,32765
6.91322,1.86844,-0.642172,14,32765
6.92907,1.8476,-0.643681,14,32765
6.89658,1.81395,-0.642129,15,32765
6.91236,1.79278,-0.643471,16,32765
6.74465,1.72454,-0.629039,18,32765
6.60548,1.66497,-0.617351,21,32765
6.55298,1.62828,-0.612836,21,32765
6.46155,1.58251,-0.605328,17,32765
6.32154,1.52562,-0.592855,20,32765
6.25878,1.48796,-0.587628,22,32765
6.30256,1.47543,-0.592325,25,32765
6.28804,1.44914,-0.592372,25,32765
6.27346,1.42296,-0.591996,24,32765
6.29756,1.40607,-0.595094,25,32765
6.29247,1.38259,-0.595172,21,32765
6.54034,1.41361,-0.619735,23,32765
6.54493,1.39128,-0.621765,22,32765
6.58855,1.37687,-0.626787,20,32765
6.53462,1.34215,-0.622379,20,32765
6.58785,1.32927,-0.629057,21,32765
6.60208,1.30839,-0.631119,20,32765
6.54775,1.27442,-0.626777,19,32765
6.57147,1.25578,-0.630197,20,32765
6.52667,1.22433,-0.626465,23,32765
6.47183,1.19141,-0.622993,23,32765
6.60302,1.19243,-0.637092,25,32765
6.56771,1.1632,-0.634163,23,32765
6.52241,1.13218,-0.631501,25,32765
6.56538,1.11638,-0.636875,26,32765
6.64759,1.10654,-0.646519,24,32765
6.61196,1.07713,-0.643915,24,32765
6.64498,1.05904,-0.648308,23,32765
6.77618,1.0562,-0.66327,15,32765
7.06511,1.07648,-0.691204,13,32765
7.0193,1.04466,-0.689177,16,32765
7.0326,1.02184,-0.69133,24,32765
7.07527,1.0034,-0.697278,24,32765
7.07846,0.979522,-0.698829,23,32765
7.11114,0.959783,-0.703292,23,32765
7.1537,0.940868,-0.708423,15,32765
2.26054,0.289468,-0.224228,22,32765
2.37998,0.296426,-0.236462,17,32765
2.31177,0.27987,-0.230219,12,32765
2.37197,0.27903,-0.236453,12,32765
2.30365,0.263119,-0.22995,12,32765
2.38358,0.264179,-0.238416,12,32765
2.35474,0.25298,-0.235815,12,32765
2.38522,0.248123,-0.239248,13,32765
2.31671,0.233033,-0.232727,12,32765
2.29763,0.223214,-0.231213,12,32765
2.33797,0.219148,-0.23551,13,32765
2.22966,0.201417,-0.22485,12,32765
2.3988,0.208528,-0.24226,13,32765
2.3499,0.196404,-0.237299,13,32765
0,0,-0,0,32765
2.27173,0.174537,-0.229956,12,32765
2.32188,0.170532,-0.235355,12,32765
2.3125,0.162089,-0.234504,11,32765
0,0,-0,0,32765
0,0,-0,0,32765
0,0,-0,0,32765
0,0,-0,0,32765
0,0,-0,0,32765
0,0,-0,0,32765
0,0,-0,0,32765
0,0,-0,0,32765
0,0,-0,0,32765
0,0,-0,0,32765
0,0,-0,0,32765
0,0,-0,0,32765
0,0,-0,0,32765
0,0,-0,0,32765
0,0,-0,0,32765
0,0,-0,0,32765
0,0,-0,0,32765
0,0,-0,0,32765
7.1037,0.0471837,-0.71754,11,32765
0,0,-0,0,32765
0,0,-0,0,32765
0,-0,-0,0,32765
0,-0,-0,0,32765
0,-0,-0,0,32765
0,-0,-0,0,32765
6.69946,2.24358,-0.593068,13,32765
6.67802,2.21204,-0.595382,13,32765
6.7133,2.19916,-0.602815,13,32765
6.7201,2.1771,-0.607157,14,32765
6.77437,2.16995,-0.615535,13,32765
6.78127,2.14709,-0.619692,14,32765
6.80706,2.13038,-0.62529,13,32765
6.79473,2.10187,-0.627202,14,32765
6.82036,2.08524,-0.632535,14,32765
6.8268,2.06285,-0.636461,13,32765
6.83323,2.04039,-0.639835,14,32765
6.8779,2.02901,-0.646264,14,32765
6.92251,2.01717,-0.653788,14,32765
6.89073,1.98289,-0.652638,13,32765
6.96404,1.9788,-0.662886,13,32765
6.98962,1.96022,-0.668515,13,32765
6.97682,1.93115,-0.669023,13,32765
6.94462,1.89696,-0.66835,13,32765
6.98911,1.88399,-0.675143,13,32765
6.87959,1.83006,-0.666834,13,32765
6.82764,1.79188,-0.663789,14,32765
6.6984,1.73406,-0.653444,15,32765
6.6268,1.6917,-0.648532,16,32765
6.48748,1.63262,-0.63681,19,32765
6.46373,1.60343,-0.636603,18,32765
6.27563,1.5338,-0.619721,17,32765
6.19346,1.49152,-0.613563,21,32765
6.14018,1.45664,-0.609875,24,32765
6.24179,1.45854,-0.621577,22,32765
6.21728,1.43107,-0.620937,20,32765
6.34801,1.43887,-0.635656,19,32765
6.4788,1.44591,-0.650645,19,32765
6.44467,1.41529,-0.648186,19,32765
6.56605,1.41832,-0.661702,18,32765
6.66806,1.41632,-0.673443,16,32765
6.57531,1.37305,-0.665248,18,32765
6.61867,1.3589,-0.671356,17,32765
6.42791,1.29732,-0.653464,19,32765
6.58825,1.30638,-0.671493,17,32765
6.40691,1.248,-0.653931,15,32765
0,0,-0,0,32765
6.47363,1.21503,-0.663528,21,32765
6.48744,1.1946,-0.665577,19,32765
6.45211,1.16523,-0.663806,19,32765
6.54406,1.15905,-0.673986,20,32765
6.53798,1.13492,-0.675059,19,32765
6.58088,1.11962,-0.680132,20,32765
6.53541,1.08913,-0.676571,20,32765
6.57814,1.07331,-0.682732,19,32765
6.66025,1.06344,-0.691798,19,32765
6.6637,1.04044,-0.693556,19,32765
6.84407,1.04438,-0.713804,13,32765
7.11317,1.06027,-0.742671,12,32765
7.01816,1.02132,-0.73434,16,32765
7.05101,1.00166,-0.738618,20,32765
7.005,0.970542,-0.734947,21,32765
7.12632,0.962794,-0.749334,19,32765
2.2779,0.299877,-0.23945,19,32765
2.32816,0.298394,-0.24543,19,32765
2.40806,0.300409,-0.254201,15,32765
2.37941,0.288599,-0.251458,11,32765
2.47908,0.292245,-0.262421,12,32765
2.41082,0.276007,-0.255641,11,32765
2.4018,0.266692,-0.255187,12,32765
2.43232,0.261727,-0.258693,12,32765
2.33423,0.243062,-0.248748,12,32765
2.42403,0.244148,-0.258783,12,32765
2.39511,0.233049,-0.25604,12,32765
2.34634,0.220273,-0.251178,12,32765
2.44604,0.221382,-0.262253,12,32765
2.40707,0.209553,-0.258822,12,32765
2.487,0.208006,-0.267717,12,32765
2.25968,0.18126,-0.243706,12,32765
0,0,-0,0,32765
0,0,-0,0,32765
0,0,-0,0,32765
0,0,-0,0,32765
0,0,-0,0,32765
7.77028,0.464993,-0.845864,11,32765
7.92045,0.44763,-0.86402,11,32765
0,0,-0,0,32765
0,0,-0,0,32765
8.21197,0.381364,-0.900582,11,32765
8.30238,0.357617,-0.912222,11,32765
8.13442,0.323246,-0.896028,11,32765
8.28429,0.301292,-0.913998,11,32765
0,0,-0,0,32765
8.23605,0.244596,-0.911991,11,32765
0,0,-0,0,32765
0,0,-0,0,32765
0,0,-0,0,32765
0,0,-0,0,32765
0,0,-0,0,32765
0,0,-0,0,32765
7.02554,0.0449082,-0.790348,11,32765
0,0,-0,0,32765
0,-0,-0,0,32765
0,-0,-0,0,32765
0,-0,-0,0,32765
0,-0,-0,0,32765
0,-0,-0,0,32765
6.63511,2.22908,-0.653771,15,32765
6.67033,2.2165,-0.661386,15,32765
6.67719,2.19428,-0.666269,15,32765
6.74075,2.19073,-0.676295,15,32765
6.72865,2.16216,-0.678469,15,32765
6.73551,2.13938,-0.682606,15,32765
6.79923,2.1347,-0.692239,15,32765
6.74889,2.09434,-0.690078,15,32765
6.81252,2.08948,-0.699489,15,32765
6.84752,2.07571,-0.706363,14,32765
6.82538,2.04455,-0.706792,15,32765
6.83185,2.02185,-0.709634,15,32765
6.85728,2.00454,-0.715519,15,32765
6.93065,2.00075,-0.724978,15,32765
6.93694,1.9774,-0.728871,15,32765
6.81882,1.91844,-0.719522,15,32765
6.72921,1.86858,-0.71168,16,32765
6.55294,1.7957,-0.695263,17,32765
6.45301,1.74506,-0.686928,17,32765
6.36239,1.69792,-0.679333,17,32765
6.32932,1.66644,-0.677599,18,32765
6.25759,1.62515,-0.671946,18,32765
6.22425,1.59405,-0.670267,19,32765
6.21014,1.56786,-0.670531,19,32765
6.1283,1.52512,-0.663664,21,32765
6.13332,1.50386,-0.665769,24,32765
6.23481,1.50633,-0.678712,23,32765
6.49121,1.5449,-0.708258,21,32765
6.56393,1.53879,-0.717841,22,32765
6.43313,1.48556,-0.705357,22,32765
6.55419,1.49043,-0.720304,23,32765
6.54916,1.46637,-0.721622,30,32765
6.45688,1.42259,-0.712382,28,32765
6.4907,1.40662,-0.717364,28,32765
6.40781,1.36549,-0.709566,25,32765
6.30527,1.32096,-0.699296,22,32765
6.32894,1.30368,-0.703529,13,32765
6.34282,1.28436,-0.706473,23,32765
6.40544,1.27431,-0.715092,20,32765
6.44859,1.26026,-0.720798,24,32765
6.39413,1.22683,-0.715841,23,32765
6.4567,1.21586,-0.724412,27,32765
6.48028,1.19724,-0.727654,35,32765
6.53301,1.18377,-0.735418,39,32765
6.51729,1.15815,-0.734329,37,32765
6.53078,1.13747,-0.737516,28,32765
6.61284,1.12883,-0.747395,24,32765
6.59686,1.10307,-0.746706,24,32765
6.61015,1.08217,-0.749927,25,32765
6.62352,1.06115,-0.751951,24,32765
6.64659,1.04129,-0.755936,24,32765
6.64014,1.01671,-0.756604,23,32765
6.73195,1.00688,-0.767794,17,32765
7.04983,1.02946,-0.805615,13,32765
7.04333,1.00401,-0.805682,15,32765
2.25372,0.313334,-0.258163,20,32765
2.26455,0.307013,-0.259921,23,32765
2.34438,0.309706,-0.269001,17,32765
2.2665,0.291511,-0.260736,12,32765
2.25757,0.282629,-0.260026,12,32765
2.30779,0.280906,-0.266075,12,32765
2.48626,0.294137,-0.287074,12,32765
2.32925,0.267626,-0.269368,12,32765
2.32021,0.258564,-0.268802,13,32765
2.35067,0.253862,-0.272578,13,32765
2.30207,0.240592,-0.267415,13,32765
2.20397,0.222804,-0.256437,12,32765
2.38263,0.232699,-0.277561,13,32765
2.26468,0.213407,-0.264155,12,32765
2.33458,0.212096,-0.272686,13,32765
2.36489,0.20667,-0.276954,13,32765
2.36553,0.198614,-0.277311,13,32765
2.34633,0.18895,-0.275532,12,32765
7.85274,0.60542,-0.923487,11,32765
7.89422,0.581672,-0.929411,12,32765
7.82664,0.549888,-0.922701,12,32765
7.89762,0.528211,-0.932421,12,32765
7.93875,0.504069,-0.939278,12,32765
7.8808,0.473642,-0.933319,12,32765
7.98125,0.453054,-0.947027,12,32765
8.07183,0.430672,-0.958995,11,32765
8.07304,0.403681,-0.96052,11,32765
8.15344,0.380448,-0.972157,12,32765
8.13462,0.352113,-0.971596,11,32765
8.13547,0.324935,-0.973954,11,32765
8.11649,0.296757,-0.973108,11,32765
8.33554,0.276585,-1.00114,11,32765
0,0,-0,0,32765
0,0,-0,0,32765
0,0,-0,0,32765
0,0,-0,0,32765
0,0,-0,0,32765
0,0,-0,0,32765
6.97807,0.0681626,-0.850206,11,32765
0,0,-0,0,32765
0,0,-0,0,32765
0,-0,-0,0,32765
0,-0,-0,0,32765
0,-0,-0,0,32765
0,-0,-0,0,32765
0,-0,-0,0,32765
6.66114,2.24506,-0.75748,14,32765
6.66866,2.22283,-0.756935,14,32765
6.69481,2.20689,-0.759783,14,32765
6.70201,2.18477,-0.760188,14,32765
6.67129,2.15033,-0.756662,14,32765
6.73529,2.14578,-0.763938,14,32765
6.77083,2.13202,-0.768062,14,32765
6.77786,2.10899,-0.769699,14,32765
6.7659,2.08015,-0.768104,14,32765
6.82977,2.07479,-0.775787,13,32765
6.85559,2.05748,-0.779509,14,32765
6.82414,2.02307,-0.777138,14,32765
6.8308,1.99992,-0.778486,14,32765
6.77048,1.95742,-0.772749,14,32765
6.65264,1.89912,-0.759816,15,32765
6.52496,1.83872,-0.745944,16,32765
6.47352,1.80062,-0.740862,16,32765
6.39303,1.75529,-0.732795,17,32765
6.36032,1.72327,-0.730493,17,32765
6.28909,1.68142,-0.722917,16,32765
6.24665,1.64713,-0.718574,16,32765
6.28087,1.63326,-0.723906,18,32765
6.22843,1.59701,-0.719094,16,32765
6.24333,1.57811,-0.721702,17,32765
6.18097,1.5404,-0.714736,19,32765
6.20524,1.52405,-0.719162,20,32765
6.15216,1.48925,-0.714153,19,32765
6.27289,1.49618,-0.729631,20,32765
6.55836,1.54065,-0.763312,19,32765
6.44732,1.49095,-0.751503,18,32765
6.38449,1.45267,-0.745753,19,32765
6.48622,1.45226,-0.758967,27,32765
6.36482,1.4021,-0.746146,21,32765
6.38883,1.38453,-0.749908,21,32765
6.36415,1.35663,-0.748059,19,32765
6.38799,1.33892,-0.752178,23,32765
6.3729,1.31308,-0.751318,14,32765
6.34786,1.28535,-0.750283,20,32765
6.36181,1.26572,-0.75246,17,32765
6.37564,1.24582,-0.755444,20,32765
6.40896,1.22938,-0.76073,26,32765
6.45201,1.2148,-0.766784,28,32765
6.48514,1.19816,-0.772622,31,32765
6.50857,1.17964,-0.776289,36,32765
6.50261,1.15578,-0.776348,30,32765
6.52594,1.13667,-0.780382,24,32765
6.58833,1.12436,-0.789057,21,32765
6.57235,1.09845,-0.788473,21,32765
6.5171,1.06617,-0.783049,19,32765
6.5598,1.05018,-0.788828,18,32765
6.60242,1.0336,-0.795365,20,32765
6.64498,1.01718,-0.801569,21,32765
6.66796,0.997042,-0.8052,18,32765
6.97572,1.01849,-0.843846,13,32765
2.27064,0.323569,-0.27498,13,32765
2.26183,0.314383,-0.274366,20,32765
2.33172,0.316094,-0.282987,20,32765
2.37208,0.31345,-0.288278,14,32765
0,0,-0,0,32765
7.31909,0.917068,-0.891527,11,32765
0,0,-0,0,32765
0,0,-0,0,32765
0,0,-0,0,32765
7.57704,0.844873,-0.925764,11,32765
7.59951,0.821533,-0.928734,11,32765
7.4836,0.783093,-0.915919,11,32765
7.56522,0.765506,-0.925786,11,32765
2.43032,0.237521,-0.297838,13,32765
2.37183,0.223577,-0.290549,12,32765
7.64157,0.694291,-0.936614,11,32765
2.4128,0.210945,-0.29577,12,32765
2.40359,0.201923,-0.294796,12,32765
7.80632,0.629276,-0.957807,11,32765
7.74897,0.59828,-0.951008,11,32765
7.9785,0.589021,-0.97988,11,32765
7.91113,0.557194,-0.971418,11,32765
8.0219,0.537778,-0.984811,11,32765
8.02368,0.510875,-0.984632,11,32765
8.0253,0.483816,-0.985108,11,32765
8.0268,0.457422,-0.98553,11,32765
8.06797,0.432786,-0.990071,11,32765
8.02965,0.403999,-0.985628,11,32765
8.1996,0.385086,-1.00558,11,32765
8.22065,0.358484,-1.0082,11,32765
8.2715,0.332872,-1.01344,11,32765
8.40151,0.309803,-1.02938,11,32765
8.29346,0.277918,-1.0153,11,32765
0,0,-0,0,32765
0,0,-0,0,32765
0,0,-0,0,32765
0,0,-0,0,32765
0,0,-0,0,32765
0,0,-0,0,32765
7.03771,0.0715389,-0.856534,11,32765
0,0,-0,0,32765
0,0,-0,0,32765
0,0,-0,0,32765
0,-0,-0,0,32765
0,-0,-0,0,32765
0,-0,-0,0,32765
0,-0,-0,0,32765
6.54835,2.21444,-0.810566,14,32765
6.64997,2.22403,-0.821676,15,32765
6.6384,2.19562,-0.820057,15,32765
6.64558,2.17363,-0.820465,14,32765
6.69048,2.16373,-0.825898,15,32765
6.69771,2.14094,-0.826737,15,32765
6.74268,2.13025,-0.832313,15,32765
6.7497,2.10725,-0.83395,15,32765
6.75676,2.08428,-0.834517,15,32765
6.83007,2.08181,-0.843939,15,32765
6.82737,2.05585,-0.844327,15,32765
6.64367,1.97615,-0.822722,16,32765
6.53586,1.91996,-0.809874,18,32765
6.48491,1.88112,-0.804592,19,32765
6.47198,1.85373,-0.803434,18,32765
6.4781,1.83162,-0.804842,19,32765
6.41716,1.79091,-0.798006,19,32765
6.40375,1.76412,-0.797433,19,32765
6.35195,1.72677,-0.792377,19,32765
6.33838,1.70028,-0.79124,19,32765
6.35365,1.68096,-0.793638,21,32765
6.33031,1.65163,-0.792079,20,32765
6.26839,1.61265,-0.785522,19,32765
6.24483,1.5838,-0.783411,20,32765
6.22111,1.55562,-0.780629,19,32765
6.26467,1.54383,-0.787686,19,32765
6.17315,1.49936,-0.77728,19,32765
6.14897,1.47157,-0.775626,23,32765
6.14418,1.44823,-0.775424,24,32765
6.31335,1.46491,-0.797821,23,32765
6.28922,1.43584,-0.796278,24,32765
6.22616,1.39876,-0.789528,23,32765
6.26948,1.38579,-0.796343,23,32765
6.36128,1.38325,-0.808906,23,32765
6.27842,1.34291,-0.799362,23,32765
6.37986,1.34178,-0.813554,25,32765
6.33565,1.30987,-0.808788,33,32765
6.40787,1.30194,-0.819905,35,32765
6.4024,1.27817,-0.819698,38,32765
6.42599,1.25998,-0.824041,41,32765
6.44958,1.24144,-0.828375,39,32765
6.43412,1.21562,-0.827295,38,32765
6.46721,1.19899,-0.83341,36,32765
6.46133,1.17515,-0.833488,34,32765
6.46513,1.15312,-0.83471,29,32765
6.47865,1.13237,-0.837662,25,32765
6.50184,1.11349,-0.841826,24,32765
6.60324,1.10749,-0.856258,26,32765
6.56766,1.07823,-0.852827,23,32765
6.58097,1.0573,-0.855173,25,32765
6.63336,1.04213,-0.86337,24,32765
6.63668,1.01954,-0.864848,24,32765
6.63021,0.994949,-0.86483,23,32765
6.69226,0.980615,-0.874318,15,32765
2.25799,0.322929,-0.295289,24,32765
2.28848,0.319242,-0.299725,17,32765
2.26003,0.307494,-0.29613,12,32765
2.27082,0.30117,-0.297912,12,32765
0,0,-0,0,32765
0,0,-0,0,32765
7.41142,0.906317,-0.974873,11,32765
7.4143,0.880929,-0.976209,11,32765
7.45654,0.860209,-0.982343,11,32765
7.38046,0.82608,-0.972893,11,32765
7.4817,0.811893,-0.986437,11,32765
7.46451,0.784108,-0.985495,12,32765
7.54604,0.766534,-0.996112,12,32765
2.24972,0.220733,-0.297365,12,32765
2.20112,0.208306,-0.290822,13,32765
7.61244,0.69441,-1.00629,12,32765
2.43947,0.214139,-0.322506,13,32765
0,0,-0,0,32765
7.74736,0.627106,-1.02506,12,32765
7.82845,0.606949,-1.03601,12,32765
7.85999,0.582738,-1.04086,12,32765
7.83225,0.554018,-1.03699,12,32765
8.01213,0.539478,-1.06057,11,32765
8.05349,0.515061,-1.06564,11,32765
7.96606,0.482429,-1.05433,12,32765
8.09622,0.463521,-1.07178,12,32765
7.96908,0.429514,-1.05443,12,32765
8.11892,0.410483,-1.07451,11,32765
8.10054,0.382343,-1.07116,11,32765
8.14138,0.356866,-1.07659,11,32765
8.23179,0.333053,-1.08754,11,32765
8.27248,0.306752,-1.09291,11,32765
0,0,-0,0,32765
0,0,-0,0,32765
0,0,-0,0,32765
0,0,-0,0,32765
0,0,-0,0,32765
0,0,-0,0,32765
6.9893,0.0950477,-0.918261,11,32765
0,0,-0,0,32765
0,0,-0,0,32765
0,0,-0,0,32765
0,0,-0,0,32765
0,-0,-0,0,32765
0,-0,-0,0,32765
0,-0,-0,0,32765
0,-0,-0,0,32765
6.63754,2.23828,-0.797316,14,32765
6.65351,2.21976,-0.804439,13,32765
6.68841,2.20746,-0.812621,13,32765
6.69504,2.18519,-0.818246,13,32765
6.68267,2.15702,-0.821034,13,32765
6.70814,2.14084,-0.828148,13,32765
6.7146,2.11871,-0.832609,13,32765
6.7874,2.11716,-0.84523,13,32765
6.75588,2.08285,-0.845102,13,32765
6.7623,2.06048,-0.848624,13,32765
6.78775,2.0433,-0.85498,14,32765
6.72751,2.00048,-0.850624,14,32765
6.5815,1.93254,-0.83499,16,32765
6.5019,1.88484,-0.827727,16,32765
6.50788,1.86269,-0.830801,16,32765
6.47547,1.82963,-0.830126,16,32765
6.46214,1.80228,-0.83074,17,32765
6.39118,1.75944,-0.824348,17,32765
6.39677,1.73786,-0.826809,17,32765
6.37337,1.70879,-0.826255,16,32765
6.34044,1.67696,-0.82385,17,32765
6.30719,1.64571,-0.822141,17,32765
6.24503,1.60755,-0.8157,17,32765
6.23091,1.58157,-0.815369,16,32765
6.27429,1.57029,-0.823307,17,32765
6.2408,1.53896,-0.821247,17,32765
6.26502,1.52207,-0.826334,16,32765
6.26034,1.4982,-0.826816,20,32765
6.14932,1.44936,-0.813748,22,32765
6.22151,1.44417,-0.825116,22,32765
6.11984,1.39847,-0.812881,19,32765
6.21132,1.39715,-0.826956,20,32765
6.19648,1.37171,-0.82589,21,32765
6.33655,1.37985,-0.845999,21,32765
6.33125,1.35606,-0.846881,20,32765
6.34539,1.33585,-0.850384,27,32765
6.39832,1.32391,-0.858425,33,32765
6.38312,1.29793,-0.857919,31,32765
6.40678,1.27977,-0.862224,34,32765
6.43041,1.2616,-0.866191,34,32765
6.40526,1.23394,-0.863975,33,32765
6.3994,1.21028,-0.864727,28,32765
6.43255,1.194,-0.86986,26,32765
6.43642,1.17195,-0.871202,24,32765
6.46947,1.15496,-0.876882,25,32765
6.50253,1.13775,-0.88218,23,32765
6.51598,1.11698,-0.884991,19,32765
6.48045,1.08839,-0.880916,20,32765
6.53293,1.07427,-0.888354,20,32765
6.59514,1.06129,-0.897404,22,32765
6.55954,1.03183,-0.893147,23,32765
6.64131,1.02088,-0.905113,21,32765
6.55646,0.984698,-0.894049,18,32765
2.24536,0.329447,-0.306462,20,32765
2.30528,0.330258,-0.314841,22,32765
0,0,-0,0,32765
0,0,-0,0,32765
0,0,-0,0,32765
0,0,-0,0,32765
0,0,-0,0,32765
7.36673,0.900581,-1.01009,11,32765
7.409,0.880205,-1.01626,11,32765
0,0,-0,13,32765
0,0,-0,12,32765
0,0,-0,12,32765
0,0,-0,12,32765
7.57006,0.768143,-1.04235,11,32765
7.68104,0.752978,-1.05773,11,32765
7.68331,0.72677,-1.05955,11,32765
7.68556,0.700904,-1.06064,11,32765
7.68763,0.674849,-1.06259,11,32765
7.72911,0.652115,-1.06983,11,32765
7.74111,0.626965,-1.07136,11,32765
7.83188,0.607525,-1.0851,11,32765
7.79417,0.578047,-1.08114,11,32765
7.94418,0.562059,-1.1026,11,32765
7.87663,0.530383,-1.09467,11,32765
7.94744,0.508401,-1.10512,11,32765
7.91919,0.479999,-1.10278,11,32765
7.9008,0.452452,-1.10124,11,32765
8.0108,0.43187,-1.11829,11,32765
8.10096,0.409217,-1.13273,11,32765
8.14171,0.383772,-1.13938,11,32765
8.14271,0.356148,-1.14117,11,32765
8.3118,0.335493,-1.16679,11,32765
8.20372,0.303492,-1.15364,11,32765
8.35282,0.280839,-1.17694,11,32765
0,0,-0,0,32765
0,0,-0,0,32765
0,0,-0,0,32765
0,0,-0,0,32765
0,0,-0,0,32765
6.93944,0.0936518,-0.987678,11,32765
6.99874,0.071127,-0.998736,11,32765
0,0,-0,0,32765
0,0,-0,0,32765
0,0,-0,0,32765
0,-0,-0,0,32765
0,-0,-0,0,32765
0,-0,-0,0,32765
0,-0,-0,0,32765
6.36462,2.15355,-0.828696,15,32765
6.54027,2.18941,-0.856628,15,32765
6.63154,2.19614,-0.872452,15,32765
6.65696,2.18018,-0.880531,14,32765
6.66345,2.15816,-0.88562,15,32765
6.70777,2.14803,-0.895437,15,32765
6.69532,2.11986,-0.89737,15,32765
6.70174,2.0976,-0.901722,15,32765
6.72705,2.08106,-0.908851,15,32765
6.75241,2.06453,-0.914935,15,32765
6.75884,2.04158,-0.918898,15,32765
6.8032,2.02994,-0.92814,15,32765
6.77162,1.9952,-0.926682,15,32765
6.64473,1.93287,-0.91216,16,32765
6.53651,1.87733,-0.899572,18,32765
6.48511,1.83868,-0.895915,18,32765
6.47182,1.81121,-0.896354,19,32765
6.44876,1.78143,-0.895865,18,32765
6.43528,1.75437,-0.895692,19,32765
6.42153,1.72767,-0.896219,18,32765
6.41744,1.70321,-0.897486,19,32765
6.40348,1.67664,-0.89814,19,32765
6.31274,1.63062,-0.887043,18,32765
6.23149,1.58723,-0.877096,18,32765
6.29405,1.58073,-0.888124,19,32765
6.19331,1.53259,-0.876183,19,32765
6.2656,1.52753,-0.888265,19,32765
6.23205,1.49665,-0.884558,21,32765
6.23686,1.47515,-0.886814,26,32765
6.21256,1.44716,-0.88513,25,32765
6.2269,1.42794,-0.888401,24,32765
6.25071,1.41097,-0.893694,26,32765
6.23594,1.38532,-0.892457,23,32765
6.25008,1.36583,-0.89586,25,32765
6.28347,1.3506,-0.902185,26,32765
6.27819,1.3264,-0.902983,24,32765
6.34072,1.31666,-0.912875,26,32765
6.31582,1.28882,-0.910768,25,32765
6.32971,1.26889,-0.913846,29,32765
6.3727,1.25476,-0.920795,29,32765
6.40589,1.23849,-0.926726,30,32765
6.3806,1.21107,-0.92457,28,32765
6.41371,1.1948,-0.929984,29,32765
6.39811,1.1692,-0.9285,28,32765
6.44084,1.15403,-0.93587,28,32765
6.50311,1.14199,-0.9457,27,32765
6.48729,1.11613,-0.944348,24,32765
6.43229,1.08427,-0.937056,24,32765
6.55305,1.08155,-0.95492,23,32765
6.58589,1.06372,-0.960263,23,32765
6.56991,1.03729,-0.958487,25,32765
2.20089,0.339571,-0.321355,20,32765
2.23137,0.336375,-0.325965,25,32765
2.26181,0.333106,-0.330685,19,32765
2.31186,0.332449,-0.338195,12,32765
0,0,-0,0,32765
0,0,-0,0,32765
7.2591,0.966677,-1.06347,11,32765
7.30142,0.946586,-1.07087,11,32765
7.30448,0.92165,-1.07178,11,32765
7.26814,0.891988,-1.06699,11,32765
7.33981,0.875402,-1.07786,11,32765
0,0,-0,13,32765
0,0,-0,13,32765
0,0,-0,13,32765
0,0,-0,13,32765
7.58917,0.773222,-1.11837,12,32765
7.5917,0.747282,-1.11881,11,32765
7.59395,0.721303,-1.12062,12,32765
7.63559,0.699272,-1.12751,11,32765
7.68691,0.677654,-1.13674,12,32765
7.63962,0.647338,-1.13122,12,32765
7.69103,0.625623,-1.13868,12,32765
7.6436,0.59554,-1.13279,11,32765
7.84266,0.584253,-1.16355,11,32765
7.79513,0.554029,-1.15713,11,32765
7.84608,0.530779,-1.16612,12,32765
7.94641,0.51074,-1.18162,12,32765
7.77997,0.473839,-1.15843,11,32765
8.03808,0.462589,-1.19789,12,32765
7.9998,0.433464,-1.19389,11,32765
8.07995,0.410285,-1.20769,11,32765
8.10088,0.383901,-1.21176,11,32765
8.15127,0.358509,-1.22094,11,32765
8.10273,0.328949,-1.21554,11,32765
8.25171,0.307116,-1.23992,11,32765
0,0,-0,0,32765
0,0,-0,0,32765
0,0,-0,0,32765
0,0,-0,0,32765
0,0,-0,0,32765
0,0,-0,0,32765
6.90014,0.094198,-1.04859,11,32765
0,0,-0,0,32765
0,0,-0,0,32765
0,0,-0,0,32765
0,0,-0,0,32765
0,-0,-0,0,32765
0,-0,-0,0,32765
0,-0,-0,0,32765
0,-0,-0,0,32765
6.36184,2.1584,-0.914711,13,32765
6.38721,2.14368,-0.920958,13,32765
6.44092,2.13848,-0.929523,13,32765
6.62644,2.17571,-0.958194,13,32765
6.68051,2.16879,-0.967051,13,32765
6.66857,2.14016,-0.96683,13,32765
6.67538,2.11762,-0.969463,13,32765
6.72943,2.10999,-0.978299,13,32765
6.7551,2.09333,-0.982962,13,32765
6.7618,2.07075,-0.984725,13,32765
6.78751,2.0535,-0.989183,13,32765
6.77527,2.02456,-0.988189,13,32765
6.81986,2.01258,-0.995709,13,32765
6.76945,1.97261,-0.988792,14,32765
6.57593,1.89228,-0.961553,16,32765
6.52501,1.85355,-0.954493,16,32765
6.51191,1.82596,-0.953851,16,32765
6.48925,1.79591,-0.950983,16,32765
6.45685,1.76343,-0.947104,16,32765
6.40518,1.72612,-0.94032,16,32765
6.39169,1.69885,-0.939492,17,32765
6.38763,1.67444,-0.939829,17,32765
6.3357,1.63747,-0.932543,16,32765
6.3411,1.61577,-0.933727,17,32765
6.28871,1.57981,-0.926709,16,32765
6.29384,1.5584,-0.928169,16,32765
6.24113,1.52302,-0.921308,18,32765
6.18834,1.48795,-0.913976,20,32765
6.18354,1.46445,-0.914152,22,32765
6.17869,1.4407,-0.914471,20,32765
6.1835,1.41886,-0.916089,21,32765
6.2462,1.40989,-0.926323,20,32765
6.25095,1.38787,-0.927553,20,32765
6.30382,1.37667,-0.936468,20,32765
6.18254,1.328,-0.919075,19,32765
6.26427,1.32313,-0.932291,21,32765
6.35574,1.31968,-0.946899,20,32765
6.31145,1.28802,-0.941649,21,32765
6.32538,1.26817,-0.944324,22,32765
6.39739,1.25974,-0.956341,22,32765
6.38206,1.2337,-0.95511,22,32765
6.38606,1.21141,-0.956907,23,32765
6.44834,1.20005,-0.96729,25,32765
6.42302,1.17227,-0.964695,28,32765
6.42674,1.15016,-0.966515,23,32765
6.47918,1.13646,-0.975312,22,32765
6.36577,1.09391,-0.959841,20,32765
6.56433,1.10499,-0.990677,20,32765
6.47994,1.06791,-0.979564,21,32765
6.54194,1.05536,-0.989582,21,32765
6.61367,1.04353,-1.00163,20,32765
2.19915,0.33918,-0.333477,19,32765
2.27845,0.343233,-0.346047,23,32765
2.36761,0.348166,-0.36003,17,32765
0,0,-0,11,32765
0,0,-0,0,32765
0,0,-0,0,32765
7.20381,0.958038,-1.09993,11,32765
7.30484,0.94614,-1.11655,11,32765
7.17049,0.904084,-1.09674,11,32765
7.34986,0.901403,-1.12565,11,32765
7.39203,0.881011,-1.13252,11,32765
7.24738,0.839011,-1.11173,11,32765
7.39735,0.830643,-1.13583,12,32765
7.48837,0.81509,-1.1508,11,32765
7.53022,0.793435,-1.15838,11,32765
7.43437,0.757491,-1.14451,11,32765
7.55479,0.743586,-1.16387,11,32765
0,0,-0,12,32765
7.53973,0.690692,-1.16231,11,32765
7.70922,0.679712,-1.18943,11,32765
7.71112,0.653422,-1.19187,11,32765
7.71325,0.627346,-1.19212,11,32765
7.72508,0.602006,-1.19427,11,32765
7.63835,0.56919,-1.1807,11,32765
7.71897,0.549017,-1.19372,11,32765
7.87841,0.533356,-1.21915,11,32765
7.86026,0.505465,-1.21724,11,32765
7.95075,0.484263,-1.23071,11,32765
7.99179,0.459605,-1.23693,11,32765
8.12145,0.43987,-1.25757,11,32765
7.95505,0.403832,-1.23193,11,32765
8.16365,0.387021,-1.26411,11,32765
8.08594,0.356299,-1.2517,11,32765
8.20558,0.334094,-1.26999,11,32765
8.25612,0.308566,-1.27708,11,32765
0,0,-0,0,32765
0,0,-0,0,32765
0,0,-0,0,32765
0,0,-0,0,32765
0,0,-0,0,32765
0,0,-0,0,32765
6.78914,0.0938474,-1.04673,11,32765
0,0,-0,0,32765
0,0,-0,0,32765
0,0,-0,0,32765
0,0,-0,0,32765
0,-0,-0,0,32765
0,-0,-0,0,32765
0,-0,-0,0,32765
0,-0,-0,0,32765
6.34173,2.15926,-0.976189,14,32765
6.32955,2.13192,-0.97683,14,32765
6.33621,2.11123,-0.978602,14,32765
6.39919,2.1086,-0.990097,14,32765
6.55644,2.13612,-1.01538,15,32765
6.61975,2.13209,-1.02662,15,32765
6.63596,2.11265,-1.0307,15,32765
6.66161,2.0962,-1.0356,15,32765
6.6872,2.07971,-1.04044,15,32765
6.69386,2.05729,-1.04219,15,32765
6.73843,2.04595,-1.04977,14,32765
6.74515,2.02278,-1.05154,15,32765
6.78967,2.01085,-1.05943,15,32765
6.79631,1.98754,-1.06085,15,32765
6.76468,1.95357,-1.05691,15,32765
6.67603,1.90325,-1.04339,16,32765
6.56792,1.84829,-1.02773,18,32765
6.49775,1.80473,-1.01714,18,32765
6.52266,1.78781,-1.02186,18,32765
6.45208,1.74502,-1.01155,19,32765
6.44823,1.72005,-1.01206,18,32765
6.4347,1.69286,-1.01082,19,32765
6.41164,1.66308,-1.00751,19,32765
6.32135,1.61655,-0.993656,19,32765
6.33616,1.59748,-0.996636,19,32765
6.28378,1.56154,-0.989053,19,32765
6.24077,1.52845,-0.98315,19,32765
6.25536,1.50952,-0.985867,25,32765
6.25064,1.48572,-0.985973,21,32765
6.23625,1.45942,-0.984704,22,32765
6.15445,1.41734,-0.972643,21,32765
6.2556,1.41717,-0.989532,24,32765
6.19285,1.38,-0.980083,25,32765
6.23597,1.36684,-0.987923,25,32765
6.24044,1.34535,-0.989219,25,32765
6.27376,1.33001,-0.995531,23,32765
6.24904,1.30231,-0.992546,25,32765
6.24348,1.27885,-0.992961,24,32765
6.31548,1.27088,-1.00497,23,32765
6.28077,1.24137,-1.00065,23,32765
6.3042,1.22319,-1.0054,24,32765
6.35669,1.21034,-1.01492,27,32765
6.38975,1.1936,-1.02121,23,32765
6.39359,1.17128,-1.02299,24,32765
6.49453,1.16667,-1.04038,20,32765
6.43993,1.13385,-1.0325,24,32765
6.43375,1.10978,-1.0331,22,32765
6.46651,1.09267,-1.03921,23,32765
6.49913,1.07517,-1.04605,23,32765
2.23252,0.361536,-0.359538,16,32765
2.21415,0.350702,-0.356972,25,32765
2.20551,0.341478,-0.355988,21,32765
2.20659,0.333699,-0.356681,14,32765
0,0,-0,0,32765
0,0,-0,39,32765
7.06914,0.993568,-1.14588,11,32765
7.23846,0.991749,-1.17521,11,32765
7.24165,0.966917,-1.17628,11,32765
7.18591,0.934477,-1.16838,11,32765
7.24761,0.917504,-1.17912,11,32765
7.28958,0.89765,-1.18738,11,32765
7.19445,0.860978,-1.17227,11,32765
7.14801,0.830925,-1.16603,11,32765
7.42524,0.837246,-1.21232,11,32765
7.30027,0.797952,-1.19287,11,32765
7.39108,0.782073,-1.20881,11,32765
7.26589,0.74349,-1.18917,11,32765
7.26821,0.718469,-1.19032,12,32765
0,0,-0,11,32765
7.312,0.672785,-1.19819,11,32765
7.23541,0.640785,-1.18655,12,32765
7.31584,0.622732,-1.20177,11,32765
7.36705,0.601936,-1.21009,11,32765
7.40831,0.580006,-1.21715,12,32765
7.41022,0.554798,-1.21729,11,32765
7.28396,0.520565,-1.19706,11,32765
7.41353,0.504341,-1.21907,11,32765
7.41502,0.479214,-1.22014,11,32765
7.41664,0.454035,-1.21989,11,32765
7.41813,0.42884,-1.22,11,32765
7.62632,0.415264,-1.25477,11,32765
7.58821,0.387331,-1.24861,11,32765
7.55003,0.359965,-1.2422,11,32765
7.7681,0.344307,-1.27771,11,32765
7.55231,0.309376,-1.24199,11,32765
7.59283,0.285589,-1.24796,11,32765
7.68253,0.262825,-1.26244,11,32765
7.59462,0.234038,-1.24776,11,32765
7.59533,0.208631,-1.248,11,32765
0,0,-0,0,32765
0,0,-0,0,32765
6.78836,0.117693,-1.11299,11,32765
0,0,-0,0,32765
0,0,-0,0,32765
0,0,-0,0,32765
0,0,-0,0,32765
0,0,-0,0,32765
0,-0,-0,0,32765
0,-0,-0,0,32765
0,-0,-0,0,32765
0,-0,-0,0,32765
5.37153,3.9627,1.18831,37,32765
5.36881,3.93377,1.18277,40,32765
5.41378,3.93969,1.18737,35,32765
5.45142,3.93889,1.18996,39,32765
5.36905,3.85202,1.1659,37,32765
5.43861,3.87416,1.17509,38,32765
5.42781,3.83911,1.16732,40,32765
5.47341,3.84371,1.1712,39,32765
5.4789,3.81972,1.16613,38,32765
5.46774,3.78486,1.1581,39,32765
5.52934,3.80072,1.16491,36,32765
5.52586,3.77189,1.15838,39,32765
5.55479,3.76513,1.15937,39,32765
5.55956,3.74146,1.15442,38,32765
5.64608,3.7727,1.16644,43,32765
5.59324,3.71062,1.15024,39,32765
5.59775,3.6869,1.1454,38,32765
5.39572,3.52869,1.09825,34,32765
5.28367,3.43047,1.07088,34,32765
5.29525,3.41336,1.06837,32,32765
5.28213,3.37995,1.06047,35,32765
5.31858,3.37853,1.06316,37,32765
5.305,3.34546,1.05567,35,32765
5.30799,3.32303,1.05128,37,32765
5.41978,3.36838,1.06813,36,32765
5.34728,3.29882,1.04943,36,32765
5.48475,3.35844,1.07179,36,32765
5.39496,3.27899,1.05007,41,32765
5.60078,3.3782,1.08441,37,32765
5.84072,3.49675,1.12637,45,32765
5.85272,3.47761,1.12335,44,32765
5.59259,3.29802,1.06883,36,32765
5.48443,3.21014,1.04388,40,32765
5.54644,3.222,1.05151,37,32765
5.52309,3.18427,1.04281,39,32765
5.51673,3.1565,1.0372,37,32765
5.70782,3.24067,1.06835,37,32765
5.92511,3.33819,1.10528,40,32765
6.00547,3.35727,1.11532,45,32765
5.99084,3.32333,1.10857,39,32765
6.00221,3.30374,1.10563,40,32765
6.00488,3.27903,1.10194,41,32765
6.05951,3.28239,1.10843,40,32765
6.05355,3.25271,1.10276,43,32765
6.08193,3.24219,1.104,44,32765
6.11006,3.23181,1.1057,43,32765
6.12082,3.21212,1.1036,41,32765
6.11402,3.18322,1.09832,44,32765
6.11614,3.15837,1.09475,39,32765
6.14446,3.14705,1.09628,42,32765
6.17314,3.13522,1.09672,41,32765
6.18412,3.1143,1.09447,39,32765
6.17709,3.08469,1.0901,43,32765
6.22318,3.08133,1.09467,39,32765
6.20705,3.04775,1.08802,37,32765
6.27072,3.05326,1.09509,41,32765
6.20101,2.99388,1.07936,29,32765
6.2289,2.98205,1.0809,13,32765
6.2302,2.95721,1.07702,12,32765
6.14184,2.89049,1.05819,11,32765
6.089,2.84096,1.04545,12,32765
6.04487,2.79586,1.03454,12,32765
6.14418,2.81718,1.04791,12,32765
6.11784,2.78042,1.03988,12,32765
6.37061,2.86978,1.07918,21,32765
6.43458,2.8729,1.08606,37,32765
6.48064,2.86741,1.09005,40,32765
6.46314,2.83422,1.08376,42,32765
6.49114,2.8206,1.08392,38,32765
6.5098,2.80287,1.08413,39,32765
6.50123,2.77356,1.07884,39,32765
6.52889,2.75975,1.07996,38,32765
6.54749,2.74202,1.07894,39,32765
6.56615,2.72409,1.07753,38,32765
6.58446,2.70623,1.07757,37,32765
6.57545,2.67718,1.07172,29,32765
6.59358,2.65947,1.07143,19,32765
6.52904,2.60879,1.05733,13,32765
6.62077,2.62018,1.06774,12,32765
6.58354,2.58076,1.05789,12,32765
6.6753,2.59138,1.069,12,32765
6.62873,2.54815,1.05793,12,32765
6.57266,2.50217,1.04472,12,32765
6.54419,2.4667,1.03626,12,32765
6.74706,2.51821,1.06502,12,32765
6.73704,2.48944,1.05948,12,32765
6.72704,2.46058,1.05362,12,32765
6.73519,2.43892,1.05189,12,32765
6.74362,2.4169,1.04872,12,32765
6.77026,2.40221,1.04909,12,32765
6.81576,2.39358,1.05173,12,32765
6.82387,2.37181,1.04848,12,32765
6.85055,2.35652,1.04841,12,32765
6.82111,2.32166,1.03961,12,32765
6.82874,2.30027,1.03706,12,32765
6.85534,2.28474,1.03645,12,32765
6.88169,2.26956,1.03627,12,32765
6.9833,2.27922,1.04647,12,32765
6.99097,2.25743,1.04246,12,32765
6.90414,2.20569,1.02481,12,32765
6.96828,2.20226,1.02834,13,32765
5.40194,3.98966,1.13037,43,32765
5.40724,3.9664,1.12666,42,32765
5.39655,3.93158,1.11929,42,32765
5.45018,3.9424,1.12491,44,32765
5.47183,3.93015,1.12334,46,32765
5.47747,3.90618,1.1187,44,32765
5.4909,3.88802,1.1161,44,32765
5.52863,3.88676,1.11794,46,32765
5.50997,3.8456,1.10805,44,32765
5.55563,3.84991,1.11163,46,32765
5.56059,3.82637,1.1065,45,32765
5.57346,3.80851,1.10337,48,32765
5.5862,3.79051,1.10093,45,32765
5.6074,3.77772,1.09927,46,32765
5.57105,3.72656,1.08642,45,32765
5.62486,3.73559,1.09174,45,32765
5.67064,3.73889,1.09494,48,32765
5.6585,3.70447,1.08664,46,32765
5.61312,3.64822,1.07322,44,32765
5.35991,3.45868,1.02002,41,32765
5.30534,3.39835,1.00449,39,32765
5.36688,3.41276,1.0116,42,32765
5.36172,3.38474,1.00593,41,32765
5.38156,3.37257,1.00473,40,32765
5.35104,3.32909,0.993931,41,32765
5.37916,3.32189,0.994844,41,32765
5.48317,3.3609,1.00959,42,32765
5.41858,3.29668,0.993629,42,32765
5.5401,3.34498,1.01038,42,32765
5.48358,3.28623,0.995983,44,32765
5.71565,3.39957,1.03305,42,32765
5.8719,3.46618,1.0566,49,32765
5.88352,3.44714,1.05423,46,32765
5.63882,3.27889,1.00626,44,32765
5.58137,3.22102,0.991805,44,32765
5.51506,3.15862,0.975736,43,32765
5.61184,3.18927,0.988285,42,32765
5.63118,3.17565,0.98825,43,32765
5.8491,3.27298,1.0218,44,32765
5.99836,3.33068,1.04395,47,32765
6.03573,3.32533,1.0455,48,32765
6.03846,3.30047,1.0419,50,32765
6.05845,3.28488,1.04193,48,32765
6.06988,3.26451,1.03943,48,32765
6.11577,3.26324,1.04345,48,32765
6.12652,3.24348,1.04198,48,32765
6.13731,3.2237,1.03987,49,32765
6.13052,3.1947,1.03478,49,32765
6.17659,3.19245,1.03867,49,32765
6.18745,3.17189,1.03705,48,32765
6.20742,3.15541,1.03582,50,32765
6.20079,3.12544,1.03062,47,32765
6.23803,3.11783,1.03376,48,32765
6.24882,3.09669,1.03209,49,32765
6.26821,3.08043,1.03155,46,32765
6.28759,3.06408,1.03075,48,32765
6.29799,3.04327,1.02894,48,32765
6.29037,3.014,1.02446,44,32765
6.3007,2.99316,1.0221,33,32765
6.275,2.95559,1.0144,15,32765
6.24023,2.9139,1.00516,13,32765
6.19627,2.86821,0.99477,13,32765
6.08907,2.79416,0.974066,13,32765
6.09863,2.7739,0.972168,13,32765
6.14417,2.76997,0.975986,13,32765
6.29823,2.81422,0.996691,17,32765
6.44367,2.85327,1.01604,39,32765
6.50767,2.85594,1.02287,50,32765
6.50852,2.83031,1.01856,44,32765
6.49086,2.79683,1.013,37,32765
6.48223,2.76752,1.00789,30,32765
6.49165,2.74605,1.00601,23,32765
6.51934,2.73224,1.00632,16,32765
6.47396,2.6878,0.99499,14,32765
6.51963,2.68151,0.999161,13,32765
6.55634,2.6713,1.00052,13,32765
6.53773,2.63881,0.994559,13,32765
6.57416,2.62865,0.996557,13,32765
6.60159,2.6144,0.996375,13,32765
6.59194,2.58582,0.991155,13,32765
6.65611,2.58568,0.997277,13,32765
6.73886,2.59222,1.00609,14,32765
6.7106,2.55638,0.99761,13,32765
6.71934,2.53438,0.994959,13,32765
6.74635,2.51958,0.995681,13,32765
6.73631,2.49077,0.990332,13,32765
6.74487,2.46867,0.987385,13,32765
6.75304,2.44691,0.985647,13,32765
6.78013,2.43149,0.985174,13,32765
6.80683,2.41666,0.985342,14,32765
6.79632,2.3882,0.979508,13,32765
6.82311,2.37297,0.978958,14,32765
6.84043,2.35443,0.977356,14,32765
6.88596,2.34511,0.979611,14,32765
6.87487,2.31715,0.974371,13,32765
6.88273,2.29517,0.970903,14,32765
6.89028,2.27367,0.967876,14,32765
6.91661,2.25871,0.966599,14,32765
6.92418,2.2371,0.962632,13,32765
6.93157,2.21566,0.959013,13,32765
6.97688,2.20617,0.959369,13,32765
5.36502,3.95664,1.06021,39,32765
5.36981,3.93349,1.05848,41,32765
5.42257,3.94516,1.06563,39,32765
5.4037,3.9043,1.05782,39,32765
5.40061,3.87491,1.05425,40,32765
5.47801,3.90283,1.06553,39,32765
5.41829,3.83367,1.05051,38,32765
5.49545,3.86163,1.06199,37,32765
5.49992,3.83848,1.0588,36,32765
5.53703,3.83749,1.06177,41,32765
5.53354,3.80826,1.05695,41,32765
5.50548,3.76217,1.04799,39,32765
5.50177,3.73305,1.04295,36,32765
5.58815,3.76451,1.05518,41,32765
5.60092,3.74598,1.05343,41,32765
5.6054,3.72204,1.04979,42,32765
5.60115,3.6931,1.04507,39,32765
5.63834,3.691,1.04789,40,32765
5.56778,3.6188,1.0308,39,32765
5.27289,3.40212,0.971984,37,32765
5.30944,3.40066,0.974531,35,32765
5.28736,3.36223,0.966891,35,32765
5.34885,3.37659,0.973859,35,32765
5.29317,3.3172,0.959643,38,32765
5.43866,3.38334,0.982017,34,32765
5.30725,3.27692,0.95447,37,32765
5.45323,3.34195,0.977037,35,32765
5.41399,3.29306,0.965726,39,32765
5.52671,3.33671,0.981208,35,32765
5.38535,3.22709,0.952053,36,32765
5.72746,3.40671,1.009,38,32765
5.82408,3.43816,1.02213,41,32765
5.79331,3.39377,1.01192,40,32765
5.49705,3.19561,0.95678,38,32765
5.60239,3.23157,0.970442,37,32765
5.50172,3.14939,0.948926,39,32765
5.57232,3.16591,0.95744,34,32765
5.51406,3.10881,0.943607,36,32765
5.89577,3.29842,1.00456,42,32765
5.98517,3.32171,1.01509,44,32765
5.98794,3.29681,1.0118,38,32765
5.99911,3.27717,1.00944,42,32765
6.02779,3.26656,1.01009,45,32765
6.03889,3.24686,1.00728,45,32765
6.07627,3.24067,1.00924,43,32765
6.09618,3.22508,1.00813,42,32765
6.08081,3.19138,1.00119,44,32765
6.10915,3.18056,1.00199,44,32765
6.10218,3.15175,0.996718,44,32765
6.19234,3.1722,1.00646,46,32765
6.18547,3.1427,1.00177,45,32765
6.21398,3.1308,1.00274,42,32765
6.18943,3.09207,0.995099,45,32765
6.18241,3.06253,0.989768,45,32765
6.2376,3.06342,0.994092,44,32765
6.25699,3.04697,0.99347,46,32765
6.22277,3.00494,0.983798,43,32765
6.24163,2.98899,0.98391,39,32765
6.22487,2.95596,0.97717,27,32765
0,0,0,0,32765
6.17295,2.88156,0.962139,12,32765
6.07483,2.81137,0.94351,12,32765
6.08449,2.79133,0.940802,12,32765
6.09391,2.77127,0.939115,12,32765
6.18463,2.78775,0.949336,12,32765
6.23927,2.78754,0.954511,14,32765
6.42971,2.84725,0.980816,31,32765
6.46657,2.83788,0.983254,33,32765
6.43977,2.80092,0.975838,23,32765
6.4313,2.77159,0.97035,16,32765
6.42233,2.74258,0.966699,12,32765
6.41334,2.71387,0.961702,12,32765
6.45891,2.70805,0.966362,12,32765
6.4038,2.66062,0.955181,12,32765
6.51369,2.68099,0.967611,12,32765
6.52245,2.65994,0.9667,12,32765
6.49441,2.62402,0.96026,12,32765
6.53993,2.61755,0.964279,13,32765
6.58546,2.61091,0.968193,12,32765
6.6218,2.6003,0.970924,12,32765
6.63043,2.57859,0.969893,12,32765
6.63888,2.55712,0.968935,12,32765
6.58264,2.51062,0.957987,12,32765
6.71133,2.53487,0.974731,12,32765
6.68261,2.49892,0.968564,13,32765
6.64432,2.46015,0.960797,12,32765
6.69882,2.45585,0.966739,12,32765
6.78149,2.46101,0.976306,12,32765
6.78964,2.43898,0.975017,12,32765
6.76031,2.40343,0.969162,12,32765
6.87094,2.41768,0.983593,12,32765
6.81299,2.37331,0.974111,12,32765
6.83923,2.35824,0.976537,12,32765
6.82784,2.33033,0.973901,12,32765
6.83539,2.30834,0.973358,12,32765
6.86164,2.29234,0.976216,12,32765
6.90675,2.28262,0.980821,12,32765
6.93277,2.26661,0.984267,12,32765
6.88319,2.2265,0.976936,12,32765
6.96556,2.2289,0.988637,12,32765
6.89674,2.18317,0.979164,12,32765
5.3543,3.95416,0.994475,41,32765
5.37506,3.94269,0.995786,41,32765
5.39592,3.93108,0.996559,42,32765
5.48115,3.96559,1.00829,45,32765
5.42204,3.89548,0.994584,44,32765
5.49154,3.91766,1.00365,45,32765
5.50444,3.89976,1.00268,45,32765
5.48482,3.85922,0.995781,45,32765
5.52172,3.85871,0.998544,43,32765
5.56705,3.8633,1.00269,46,32765
5.53104,3.81146,0.992198,48,32765
5.53562,3.78762,0.989543,45,32765
5.56472,3.78058,0.990503,47,32765
5.60213,3.77872,0.993147,46,32765
5.58206,3.73809,0.98558,45,32765
5.64418,3.75251,0.992178,46,32765
5.65654,3.73428,0.99053,46,32765
5.64424,3.69946,0.984386,45,32765
5.63168,3.66486,0.978305,46,32765
5.68575,3.67301,0.983287,48,32765
5.5483,3.55801,0.955272,43,32765
5.32634,3.39115,0.913567,42,32765
5.38799,3.40542,0.919958,41,32765
5.3491,3.35629,0.90932,41,32765
5.41924,3.37531,0.917381,41,32765
5.34659,3.30515,0.901359,40,32765
5.41687,3.32362,0.909668,42,32765
5.45361,3.32108,0.91165,41,32765
5.4479,3.29301,0.906261,40,32765
5.44207,3.26491,0.90131,41,32765
5.52946,3.29278,0.912493,41,32765
5.5235,3.26451,0.907934,43,32765
5.85935,3.43642,0.958407,45,32765
5.87101,3.41693,0.956813,45,32765
5.76282,3.32791,0.934502,43,32765
5.56784,3.19087,0.898871,42,32765
5.59559,3.18273,0.899787,41,32765
5.57181,3.14491,0.892214,43,32765
5.5911,3.13148,0.891275,45,32765
5.6973,3.16548,0.903846,45,32765
5.94242,3.27539,0.939122,44,32765
6.04912,3.30814,0.951821,49,32765
6.0605,3.2879,0.949541,50,32765
6.07167,3.26806,0.946707,47,32765
6.10041,3.25708,0.947024,53,32765
6.12913,3.24603,0.947156,51,32765
6.12256,3.21676,0.941834,50,32765
6.151,3.20578,0.942424,50,32765
6.14409,3.17679,0.937324,50,32765
6.1815,3.17002,0.938175,49,32765
6.2011,3.15397,0.937676,50,32765
6.22082,3.13754,0.937122,49,32765
6.21398,3.10757,0.932511,52,32765
6.26914,3.10872,0.936641,50,32765
6.24447,3.06997,0.928553,51,32765
6.2728,3.05781,0.929154,50,32765
6.30104,3.04585,0.929153,51,32765
6.30217,3.02104,0.926526,49,32765
6.28548,2.98775,0.920039,48,32765
6.31346,2.97552,0.920921,44,32765
6.31452,2.95059,0.917461,20,32765
6.2525,2.89646,0.905116,14,32765
6.25343,2.87166,0.90103,12,32765
6.1097,2.78117,0.877265,13,32765
6.08304,2.74462,0.869836,13,32765
6.09231,2.72451,0.868122,13,32765
6.13769,2.72054,0.87198,13,32765
6.21955,2.73206,0.880641,13,32765
6.35603,2.7671,0.896763,13,32765
6.44758,2.78121,0.905565,13,32765
6.45686,2.75988,0.904654,13,32765
6.5027,2.75423,0.907476,13,32765
6.47529,2.71739,0.901563,13,32765
6.48425,2.69649,0.899929,14,32765
6.53015,2.69019,0.902425,13,32765
6.5665,2.68029,0.905309,13,32765
6.51091,2.633,0.895441,13,32765
6.58413,2.63754,0.902869,13,32765
6.56521,2.60514,0.897573,14,32765
6.60156,2.59457,0.900027,14,32765
6.66565,2.59449,0.906542,13,32765
6.61862,2.55145,0.898042,13,32765
6.70132,2.558,0.90656,13,32765
6.74678,2.55035,0.910798,14,32765
6.66233,2.49336,0.897489,13,32765
6.76352,2.5063,0.908946,14,32765
6.77166,2.48451,0.908159,13,32765
6.7426,2.44881,0.901993,14,32765
6.78805,2.44029,0.905694,13,32765
6.79609,2.41799,0.905193,13,32765
6.80395,2.3959,0.904901,13,32765
6.83019,2.38106,0.907274,14,32765
6.84711,2.36267,0.908267,14,32765
6.84511,2.3379,0.907062,13,32765
6.85269,2.31581,0.906517,14,32765
6.94488,2.32175,0.917894,14,32765
6.91477,2.28682,0.912173,14,32765
6.96913,2.28001,0.919163,14,32765
6.94787,2.24888,0.91613,14,32765
6.97372,2.23293,0.919615,14,32765
6.98052,2.21106,0.920874,14,32765
5.35795,3.94238,1.02124,40,32765
5.38757,3.93677,1.01902,40,32765
5.37727,3.90178,1.0097,38,32765
5.39104,3.88391,1.00517,37,32765
5.46085,3.90654,1.01104,39,32765
5.4262,3.85418,0.997272,40,32765
5.43926,3.83659,0.993911,40,32765
5.42805,3.80199,0.985474,40,32765
5.44898,3.79022,0.983326,40,32765
5.49452,3.79482,0.985949,42,32765
5.48332,3.75983,0.977396,40,32765
5.51277,3.75271,0.976789,37,32765
5.58299,3.77358,0.983071,40,32765
5.55505,3.72749,0.972014,40,32765
5.54299,3.69302,0.964214,39,32765
5.60516,3.70762,0.969454,39,32765
5.60126,3.67851,0.963007,42,32765
5.60545,3.65483,0.958491,41,32765
5.59295,3.62043,0.950932,40,32765
5.61356,3.60752,0.94939,41,32765
5.28368,3.37085,0.888286,37,32765
5.31202,3.36402,0.887865,36,32765
5.3402,3.35709,0.888301,40,32765
5.40208,3.37096,0.893862,36,32765
5.35445,3.31683,0.882108,38,32765
5.43319,3.3409,0.890162,36,32765
5.35163,3.26636,0.871704,37,32765
5.50656,3.33625,0.892904,33,32765
5.38192,3.23669,0.86856,42,32765
5.54588,3.31069,0.89047,37,32765
5.38673,3.19137,0.860623,38,32765
5.67961,3.33903,0.903007,38,32765
5.88809,3.43475,0.931261,40,32765
5.86577,3.39496,0.923376,41,32765
5.51629,3.16858,0.864349,37,32765
5.55263,3.16557,0.866022,39,32765
5.45099,3.0842,0.846656,39,32765
5.60811,3.14909,0.867393,39,32765
5.58416,3.11138,0.859663,43,32765
5.84616,3.23209,0.896444,40,32765
5.97895,3.27936,0.912332,45,32765
6.00748,3.26917,0.912569,44,32765
6.02722,3.25413,0.911772,41,32765
6.05588,3.2433,0.912261,45,32765
6.04059,3.20956,0.905537,41,32765
6.04268,3.18495,0.902292,42,32765
6.12374,3.20186,0.910418,46,32765
6.09925,3.16355,0.903315,41,32765
6.10111,3.13902,0.89967,44,32765
6.19116,3.15943,0.909753,42,32765
6.15775,3.1164,0.900989,43,32765
6.16855,3.09567,0.898542,40,32765
6.18814,3.07939,0.897348,43,32765
6.24321,3.08046,0.901948,43,32765
6.2092,3.03782,0.89354,46,32765
6.20171,3.00855,0.888803,39,32765
6.26572,3.01361,0.893883,42,32765
6.27587,2.9927,0.892901,41,32765
6.28607,2.97194,0.890521,38,32765
6.23329,2.92183,0.879002,23,32765
6.24307,2.90142,0.877207,13,32765
6.24388,2.87664,0.873928,12,32765
6.05508,2.76535,0.844329,12,32765
6.06452,2.74525,0.842181,12,32765
6.16441,2.76571,0.852646,12,32765
6.11042,2.71709,0.841293,12,32765
6.1198,2.69652,0.839303,12,32765
6.21985,2.71595,0.850112,12,32765
6.37491,2.7582,0.867663,12,32765
6.41176,2.74862,0.869127,12,32765
6.41201,2.72362,0.865162,12,32765
6.44854,2.71413,0.86734,12,32765
6.51266,2.716,0.872225,12,32765
6.52184,2.69469,0.869724,12,32765
6.47575,2.65093,0.860089,12,32765
6.50326,2.63676,0.86021,12,32765
6.54918,2.62994,0.862397,12,32765
6.5213,2.59359,0.854854,12,32765
6.56705,2.58667,0.857394,13,32765
6.57568,2.56546,0.854964,12,32765
6.62123,2.55851,0.857804,12,32765
6.67622,2.55498,0.860337,12,32765
6.63825,2.51593,0.852174,12,32765
6.64667,2.49448,0.849585,12,32765
6.70156,2.49039,0.852696,13,32765
6.77516,2.49261,0.858462,13,32765
6.75569,2.46009,0.852169,12,32765
6.70792,2.41796,0.842428,12,32765
6.82836,2.4363,0.853221,12,32765
6.83655,2.41424,0.850297,12,32765
6.78841,2.37252,0.840413,13,32765
6.79643,2.35039,0.837697,12,32765
6.80427,2.32864,0.834806,12,32765
6.81206,2.307,0.831339,13,32765
