x, y, z, intensity, ring
3.16585,1.98402,0.573964,25,32765
3.14737,1.95795,0.568297,26,32765
3.14566,1.94226,0.565724,27,32765
3.16911,1.94215,0.567799,28,32765
3.17576,1.93165,0.566479,28,32765
3.19923,1.93151,0.567989,29,32765
3.20577,1.92101,0.566734,30,32765
3.21214,1.91059,0.56588,29,32765
3.2356,1.91009,0.56785,28,32765
3.20808,1.87932,0.560357,28,32765
3.21445,1.86866,0.559485,28,32765
3.24665,1.87273,0.562382,29,32765
3.25297,1.86212,0.561065,29,32765
3.25912,1.85167,0.559984,29,32765
3.26536,1.841,0.558792,29,32765
3.29749,1.8448,0.561848,32,32765
3.28665,1.82406,0.557418,42,32765
3.25827,1.79392,0.550558,40,32765
3.28171,1.79272,0.552195,41,32765
3.28788,1.78176,0.550959,40,32765
3.31137,1.78038,0.55233,40,32765
3.3437,1.7833,0.555374,35,32765
3.29736,1.74441,0.545286,29,32765
3.30327,1.73365,0.543876,31,32765
3.33545,1.73651,0.547061,31,32765
3.34125,1.72574,0.545754,31,32765
3.3384,1.71019,0.542602,31,32765
3.34421,1.69912,0.541612,32,32765
3.37658,1.70123,0.544875,34,32765
3.35593,1.67653,0.539546,34,32765
3.36174,1.66528,0.538195,34,32765
3.37648,1.65826,0.538112,33,32765
3.36435,1.63834,0.534184,32,32765
3.39667,1.64023,0.537001,33,32765
3.39316,1.62491,0.534887,33,32765
3.38075,1.60539,0.530704,30,32765
3.38615,1.59429,0.529773,30,32765
3.38256,1.579,0.527219,31,32765
3.39687,1.57204,0.527584,30,32765
3.41127,1.56496,0.527462,30,32765
3.41656,1.55372,0.526516,30,32765
3.41283,1.53835,0.523867,30,32765
3.43612,1.53517,0.525673,31,32765
3.44125,1.52388,0.524944,32,32765
3.45549,1.51645,0.525414,31,32765
3.44242,1.49725,0.52164,30,32765
3.46581,1.4936,0.522918,31,32765
3.45257,1.47438,0.519687,29,32765
3.48492,1.47468,0.522575,31,32765
3.48069,1.45936,0.520769,31,32765
3.4672,1.44054,0.517163,31,32765
3.47213,1.42911,0.515787,29,32765
3.5135,1.43285,0.52074,30,32765
3.48144,1.40665,0.514765,29,32765
3.49532,1.39897,0.515367,29,32765
3.49996,1.38762,0.514564,30,32765
3.51379,1.37982,0.515212,30,32765
3.50914,1.36471,0.513314,31,32765
3.54135,1.36403,0.516855,30,32765
3.50889,1.33829,0.510657,28,32765
3.54106,1.33746,0.514292,30,32765
3.51765,1.31541,0.509841,29,32765
3.55913,1.31782,0.514665,30,32765
3.57271,1.30979,0.515594,30,32765
3.56774,1.29474,0.513633,29,32765
3.55337,1.27644,0.510277,29,32765
3.58558,1.27475,0.514031,29,32765
3.58972,1.26312,0.513877,30,32765
3.58431,1.2486,0.512479,31,32765
3.59762,1.2405,0.513685,30,32765
3.59212,1.22599,0.512368,29,32765
3.60548,1.21759,0.51342,29,32765
3.63761,1.21526,0.517528,31,32765
3.61334,1.19418,0.513127,30,32765
3.59826,1.17642,0.510856,29,32765
3.61132,1.16815,0.512557,29,32765
3.64323,1.16579,0.517092,28,32765
3.66566,1.16037,0.520432,29,32765
3.0471,2.25028,0.565949,29,32765
3.03842,2.22873,0.5629,27,32765
3.02172,2.20141,0.558073,28,32765
3.04508,2.20311,0.560163,27,32765
3.04438,2.18724,0.558441,27,32765
3.0598,2.18286,0.559216,28,32765
3.04278,2.15573,0.55427,28,32765
3.066,2.15729,0.556639,27,32765
3.08113,2.15317,0.55719,28,32765
3.08829,2.14314,0.556239,27,32765
3.10357,2.13868,0.556742,30,32765
3.10256,2.12285,0.554611,30,32765
3.10151,2.10712,0.55206,30,32765
3.10865,2.09683,0.551102,30,32765
3.12398,2.09201,0.551577,30,32765
3.13108,2.08168,0.550405,30,32765
3.13794,2.07157,0.549491,32,32765
3.16143,2.07213,0.551371,32,32765
3.16005,2.05642,0.548946,32,32765
3.15875,2.04056,0.546271,32,32765
3.17403,2.03544,0.546484,32,32765
3.16408,2.01449,0.542699,31,32765
3.17925,2.00941,0.542832,33,32765
3.19437,2.00431,0.543027,31,32765
3.18433,1.98332,0.53905,31,32765
3.19111,1.97268,0.537976,32,32765
3.20625,1.96725,0.538433,32,32765
3.22143,1.96175,0.53851,33,32765
3.2196,1.9461,0.535582,33,32765
3.23468,1.94061,0.535724,33,32765
3.2241,1.91994,0.532053,33,32765
3.24761,1.91941,0.533832,34,32765
3.24571,1.90356,0.530896,34,32765
3.25216,1.89276,0.530013,34,32765
3.25874,1.88186,0.528438,34,32765
3.27368,1.87611,0.528503,34,32765
3.26266,1.85578,0.524645,33,32765
3.25166,1.83534,0.520689,32,32765
3.29244,1.84404,0.524847,33,32765
3.29889,1.8329,0.523352,30,32765
3.2705,1.80266,0.51686,38,32765
3.2853,1.79666,0.516937,39,32765
3.28277,1.78094,0.514335,39,32765
3.28882,1.7702,0.5128,39,32765
3.32114,1.7732,0.515572,38,32765
3.336,1.76677,0.515523,35,32765
3.35074,1.76046,0.515445,34,32765
3.3479,1.74486,0.512948,34,32765
3.34492,1.72948,0.510291,35,32765
3.34207,1.71389,0.50723,34,32765
3.35672,1.70728,0.507574,35,32765
3.35375,1.6915,0.505219,36,32765
3.37735,1.689,0.506828,37,32765
3.38321,1.67765,0.505468,37,32765
3.3802,1.66181,0.502636,36,32765
3.38589,1.65052,0.501532,36,32765
3.40042,1.64372,0.501427,36,32765
3.39691,1.62836,0.499404,35,32765
3.4024,1.6173,0.498027,34,32765
3.40783,1.60611,0.497088,34,32765
3.42224,1.59911,0.49723,36,32765
3.41864,1.58367,0.494884,35,32765
3.42407,1.57238,0.493359,34,32765
3.44742,1.56929,0.495,35,32765
3.4347,1.54971,0.491141,35,32765
3.44899,1.54241,0.491463,34,32765
3.45415,1.53106,0.49073,34,32765
3.45026,1.5156,0.488531,34,32765
3.46444,1.50825,0.488794,34,32765
3.46967,1.49667,0.487317,35,32765
3.50203,1.49689,0.49066,35,32765
3.47968,1.47382,0.485602,35,32765
3.50287,1.47,0.48771,34,32765
3.51688,1.4625,0.488097,34,32765
3.52188,1.45089,0.486701,36,32765
3.51744,1.43574,0.484942,35,32765
3.52214,1.42435,0.484398,35,32765
3.52688,1.41284,0.483634,33,32765
3.52235,1.3977,0.481563,33,32765
3.54546,1.39345,0.483371,35,32765
3.54084,1.37821,0.481561,34,32765
3.55461,1.37029,0.482305,34,32765
3.59628,1.37276,0.486508,34,32765
3.55436,1.34358,0.479829,35,32765
3.54952,1.3284,0.47816,33,32765
3.58178,1.32727,0.481354,33,32765
3.57678,1.31232,0.479688,34,32765
3.58113,1.30061,0.479067,34,32765
3.60411,1.29567,0.480878,35,32765
3.58968,1.27718,0.478121,33,32765
3.60319,1.26881,0.479212,34,32765
3.56969,1.24442,0.474172,33,32765
3.6299,1.25254,0.481506,33,32765
3.61505,1.23469,0.479038,33,32765
3.62845,1.2262,0.479994,34,32765
3.64183,1.2175,0.481334,34,32765
3.6929,1.2213,0.487155,34,32765
3.6496,1.194,0.481348,35,32765
3.64385,1.17944,0.480471,33,32765
3.6664,1.17395,0.483483,34,32765
3.67943,1.16545,0.485393,35,32765
3.01733,2.22015,0.575109,24,32765
3.04897,2.22792,0.576687,25,32765
3.01671,2.18895,0.566456,26,32765
3.02444,2.17892,0.563912,25,32765
3.00789,2.15176,0.556889,25,32765
3.05576,2.17048,0.561614,25,32765
3.08737,2.17768,0.564151,23,32765
3.05429,2.13933,0.554513,23,32765
3.0615,2.12953,0.55248,23,32765
3.07693,2.1251,0.552131,25,32765
3.09253,2.1205,0.551239,24,32765
3.11627,2.12134,0.552161,26,32765
3.06613,2.07242,0.539895,27,32765
3.12266,2.09533,0.546399,28,32765
3.12154,2.07973,0.542997,29,32765
3.13691,2.07496,0.542552,29,32765
3.15226,2.07018,0.541958,29,32765
3.18416,2.07612,0.544468,28,32765
3.18291,2.06036,0.541169,28,32765
3.15659,2.02856,0.533855,29,32765
3.18022,2.0289,0.534656,29,32765
3.17048,2.00782,0.529922,28,32765
3.14376,1.97631,0.52294,27,32765
3.19252,1.99217,0.528255,28,32765
3.18236,1.97132,0.524272,29,32765
3.19749,1.96615,0.523869,28,32765
3.19576,1.95053,0.520544,28,32765
3.21075,1.94529,0.520632,29,32765
3.20878,1.92976,0.517848,29,32765
3.22376,1.92447,0.51762,28,32765
3.24738,1.92391,0.518825,29,32765
3.24549,1.90802,0.516004,31,32765
3.26926,1.90708,0.517066,30,32765
3.22446,1.86624,0.507587,29,32765
3.28228,1.88535,0.514301,30,32765
3.24549,1.85026,0.506186,28,32765
3.24299,1.8349,0.503707,29,32765
3.275,1.83899,0.506536,31,32765
3.28989,1.83306,0.506468,28,32765
3.27003,1.80786,0.501423,27,32765
3.28495,1.80174,0.501252,33,32765
3.31717,1.80515,0.503897,34,32765
3.30582,1.78482,0.500089,37,32765
3.30321,1.76907,0.497597,37,32765
3.31795,1.76293,0.497389,30,32765
3.33268,1.75658,0.497636,31,32765
3.32105,1.73645,0.493742,31,32765
3.33567,1.73014,0.494021,30,32765
3.37677,1.73735,0.497939,33,32765
3.31196,1.69014,0.486672,31,32765
3.36199,1.70148,0.491919,34,32765
3.3413,1.67682,0.48671,33,32765
3.38261,1.68328,0.490516,34,32765
3.35283,1.65432,0.48438,32,32765
3.37631,1.65184,0.48587,32,32765
3.37301,1.63631,0.483406,31,32765
3.37866,1.62503,0.482008,31,32765
3.40204,1.62229,0.484026,31,32765
3.3986,1.6068,0.481466,32,32765
3.39508,1.59143,0.478765,31,32765
3.41839,1.58867,0.480315,32,32765
3.42377,1.57738,0.47921,31,32765
3.45618,1.57843,0.481934,31,32765
3.44349,1.55878,0.478198,32,32765
3.43976,1.54328,0.475779,31,32765
3.46318,1.53996,0.476816,32,32765
3.43217,1.51229,0.470707,30,32765
3.45547,1.50886,0.472284,32,32765
3.47888,1.50519,0.473496,31,32765
3.44757,1.47792,0.467326,31,32765
3.52569,1.4976,0.475716,33,32765
3.5124,1.47833,0.472423,32,32765
3.46242,1.44395,0.463715,31,32765
3.49482,1.44399,0.466055,31,32765
3.52722,1.44391,0.468474,29,32765
3.49539,1.41721,0.462348,31,32765
3.50948,1.40929,0.462129,30,32765
3.49586,1.39034,0.45826,29,32765
3.50058,1.37883,0.457036,29,32765
3.53293,1.37835,0.459348,29,32765
3.5375,1.36692,0.458295,30,32765
3.51429,1.34491,0.452872,29,32765
3.54659,1.34417,0.455288,29,32765
3.56039,1.3362,0.455092,29,32765
3.54624,1.31783,0.451218,30,32765
3.54135,1.30288,0.448715,29,32765
3.58313,1.3048,0.451979,31,32765
3.57818,1.2898,0.449373,30,32765
3.57319,1.27489,0.44648,31,32765
3.57748,1.26334,0.44495,31,32765
3.56298,1.24525,0.441101,30,32765
3.60474,1.24662,0.444303,31,32765
3.5807,1.22543,0.439311,29,32765
3.62244,1.22679,0.442079,31,32765
3.60764,1.20916,0.437916,29,32765
3.64928,1.21048,0.440926,29,32765
3.61555,1.18655,0.434474,28,32765
3.61002,1.1721,0.431647,29,32765
3.63288,1.16679,0.431697,29,32765
3.65564,1.1616,0.431995,28,32765
3.70687,1.16547,0.434652,30,32765
3.02003,2.22533,0.539836,28,32765
3.05169,2.23311,0.541131,28,32765
3.05944,2.22314,0.538408,29,32765
3.05122,2.20136,0.533021,29,32765
3.05081,2.18559,0.529044,29,32765
3.08268,2.19273,0.530486,30,32765
3.07393,2.17129,0.525807,29,32765
3.04889,2.13858,0.51802,29,32765
3.0886,2.15143,0.521478,30,32765
3.07966,2.12999,0.516916,28,32765
3.12794,2.14781,0.521372,30,32765
3.11904,2.12621,0.516659,30,32765
3.11809,2.1105,0.513144,31,32765
3.13366,2.10566,0.512327,30,32765
3.13255,2.08998,0.50901,31,32765
3.14796,2.08517,0.508463,30,32765
3.15506,2.0749,0.506438,31,32765
3.1455,2.05375,0.502042,32,32765
3.16079,2.04887,0.501497,32,32765
3.17607,2.0439,0.501143,33,32765
3.1747,2.02816,0.497813,33,32765
3.19005,2.02298,0.497183,32,32765
3.18852,2.00719,0.494467,32,32765
3.19538,1.99667,0.492806,33,32765
3.20207,1.98622,0.491594,31,32765
3.20036,1.97058,0.488507,33,32765
3.20709,1.96008,0.486556,33,32765
3.20516,1.94451,0.483984,32,32765
3.22017,1.9392,0.483848,32,32765
3.23518,1.93386,0.483519,32,32765
3.21619,1.90797,0.478189,33,32765
3.23988,1.90724,0.479267,34,32765
3.26366,1.90633,0.480145,34,32765
3.2703,1.89526,0.478766,34,32765
3.25946,1.8747,0.474875,34,32765
3.28291,1.87404,0.475981,34,32765
3.28049,1.85853,0.47358,32,32765
3.278,1.84306,0.471141,34,32765
3.31024,1.84677,0.473457,33,32765
3.30776,1.83107,0.471157,28,32765
3.27927,1.80093,0.464711,33,32765
3.3028,1.79961,0.465847,35,32765
3.30014,1.78402,0.463456,36,32765
3.31501,1.77763,0.463504,36,32765
3.31225,1.76212,0.460758,35,32765
3.34456,1.76504,0.463344,36,32765
3.33293,1.74483,0.459631,35,32765
3.34758,1.73847,0.459812,36,32765
3.37109,1.73656,0.460937,37,32765
3.3681,1.72089,0.458849,37,32765
3.37399,1.70964,0.457601,37,32765
3.37105,1.6938,0.455061,37,32765
3.38578,1.6869,0.454898,37,32765
3.4094,1.68426,0.456282,38,32765
3.41515,1.67285,0.455189,37,32765
3.39406,1.64848,0.450433,36,32765
3.40869,1.64142,0.450207,35,32765
3.40526,1.62574,0.448491,35,32765
3.4108,1.61445,0.447199,35,32765
3.41628,1.60324,0.445758,35,32765
3.43064,1.59622,0.445943,35,32765
3.44507,1.58902,0.446001,36,32765
3.45044,1.57762,0.444943,36,32765
3.45582,1.56615,0.443718,35,32765
3.4521,1.55057,0.441387,34,32765
3.44833,1.53509,0.438767,34,32765
3.46272,1.52747,0.438794,34,32765
3.45878,1.512,0.436728,34,32765
3.47309,1.50436,0.436604,35,32765
3.49652,1.50056,0.437666,35,32765
3.50164,1.48902,0.436174,35,32765
3.50661,1.47751,0.435347,34,32765
3.52076,1.46987,0.435134,35,32765
3.49818,1.44694,0.430392,34,32765
3.5306,1.44686,0.432528,34,32765
3.53557,1.43504,0.431266,35,32765
3.52206,1.41585,0.427578,33,32765
3.55461,1.4152,0.429468,34,32765
3.55016,1.39983,0.427111,35,32765
3.54557,1.38473,0.424687,35,32765
3.55016,1.37325,0.42363,34,32765
3.56406,1.36537,0.422885,33,32765
3.57787,1.35743,0.422806,33,32765
3.59171,1.34934,0.422505,35,32765
3.56826,1.32737,0.417713,34,32765
3.58205,1.31919,0.417469,34,32765
3.60523,1.31417,0.418174,35,32765
3.619,1.30582,0.417812,34,32765
3.61405,1.29075,0.414992,34,32765
3.63713,1.28568,0.415586,34,32765
3.61329,1.26407,0.410831,34,32765
3.62695,1.25553,0.410448,33,32765
3.64054,1.24712,0.409963,34,32765
3.65412,1.23872,0.409163,34,32765
3.65818,1.22729,0.407269,34,32765
3.66215,1.21591,0.405699,33,32765
3.63785,1.19501,0.400655,33,32765
3.6607,1.18969,0.401019,34,32765
3.66469,1.17811,0.39879,34,32765
3.678,1.1698,0.397857,34,32765
3.67234,1.1557,0.39392,33,32765
3.04245,2.23833,0.499472,25,32765
2.986,2.18126,0.488704,25,32765
3.07347,2.22962,0.501466,25,32765
3.09673,2.23143,0.503508,26,32765
3.07964,2.2044,0.498841,25,32765
3.04655,2.16564,0.49136,25,32765
3.05376,2.1556,0.490717,25,32765
3.08536,2.16259,0.493756,25,32765
3.10886,2.16379,0.495373,26,32765
3.09153,2.13679,0.490613,25,32765
3.06592,2.10424,0.484565,24,32765
3.11384,2.12224,0.489959,27,32765
3.12918,2.11758,0.49007,27,32765
3.09518,2.07956,0.48259,26,32765
3.14344,2.09683,0.488026,28,32765
3.14239,2.08081,0.485404,28,32765
3.14939,2.07044,0.484401,27,32765
3.16454,2.06564,0.484671,28,32765
3.17972,2.06073,0.484957,29,32765
3.17815,2.04513,0.482626,29,32765
3.15157,2.01335,0.476383,27,32765
3.19184,2.02429,0.480154,28,32765
3.18183,2.00327,0.476414,29,32765
3.18855,1.99287,0.475102,27,32765
3.17831,1.97201,0.471577,27,32765
3.18505,1.96143,0.470277,28,32765
3.20872,1.96114,0.471332,28,32765
3.20698,1.9452,0.468942,28,32765
3.2306,1.94484,0.469899,28,32765
3.20303,1.9139,0.463924,28,32765
3.23498,1.91867,0.466584,28,32765
3.22429,1.89813,0.462573,29,32765
3.28212,1.91752,0.46872,31,32765
3.24579,1.88166,0.4611,30,32765
3.27808,1.88556,0.463582,31,32765
3.25868,1.85985,0.458655,30,32765
3.27364,1.85404,0.458216,29,32765
3.31446,1.86275,0.461946,31,32765
3.29469,1.83745,0.456958,30,32765
3.25752,1.80259,0.449144,26,32765
3.23749,1.77745,0.444667,26,32765
3.28718,1.79039,0.449311,29,32765
3.30201,1.78421,0.44912,32,32765
3.29933,1.76853,0.446805,31,32765
3.31409,1.76232,0.446538,33,32765
3.33767,1.76063,0.447344,31,32765
3.3436,1.74968,0.446003,31,32765
3.34075,1.73399,0.443615,32,32765
3.33786,1.71826,0.441231,32,32765
3.35262,1.71159,0.441067,33,32765
3.37626,1.70931,0.441886,34,32765
3.33775,1.67577,0.434551,32,32765
3.37012,1.67804,0.436512,33,32765
3.39357,1.67573,0.437843,32,32765
3.37252,1.65134,0.433078,32,32765
3.39607,1.64876,0.433895,32,32765
3.39279,1.63304,0.431593,31,32765
3.3894,1.61749,0.429032,31,32765
3.40384,1.61065,0.428737,31,32765
3.40919,1.59956,0.427675,30,32765
3.44158,1.60099,0.42984,31,32765
3.44698,1.58965,0.428639,31,32765
3.44336,1.5741,0.426134,30,32765
3.4215,1.55042,0.42179,30,32765
3.47218,1.55925,0.426155,30,32765
3.43214,1.52737,0.419521,29,32765
3.44639,1.51998,0.41971,30,32765
3.44239,1.50478,0.417149,30,32765
3.51122,1.52125,0.423871,31,32765
3.48894,1.49789,0.419548,31,32765
3.51233,1.494,0.420817,33,32765
3.49912,1.47454,0.417497,30,32765
3.54081,1.47815,0.42113,32,32765
3.48143,1.44001,0.412493,31,32765
3.5046,1.43623,0.413639,30,32765
3.51851,1.42863,0.414097,30,32765
3.54172,1.42457,0.415252,31,32765
3.50948,1.39837,0.410002,30,32765
3.55105,1.4016,0.413719,31,32765
3.53718,1.38278,0.410665,30,32765
3.56028,1.37842,0.412303,30,32765
3.55551,1.36339,0.410416,31,32765
3.56003,1.35175,0.409681,29,32765
3.56444,1.34023,0.409216,31,32765
3.59683,1.33901,0.41169,30,32765
3.61059,1.33061,0.41231,32,32765
3.61496,1.31891,0.411627,31,32765
3.57254,1.29026,0.405653,31,32765
3.64224,1.30217,0.412961,32,32765
3.55273,1.25713,0.402243,28,32765
3.58503,1.25544,0.404801,30,32765
3.63607,1.26014,0.409853,32,32765
3.60249,1.23558,0.405352,29,32765
3.6535,1.24013,0.410412,31,32765
3.63856,1.22212,0.408485,30,32765
3.62361,1.20422,0.40605,30,32765
3.62745,1.1927,0.405772,29,32765
3.65,1.18756,0.40839,30,32765
3.66311,1.1793,0.409577,30,32765
3.63835,1.15861,0.406987,28,32765
3.65156,1.1497,0.408393,29,32765
3.06026,2.25525,0.466384,28,32765
3.03588,2.22144,0.461226,29,32765
3.04325,2.21141,0.460887,29,32765
3.06647,2.21331,0.462746,29,32765
3.10578,2.22681,0.466852,30,32765
3.08892,2.19939,0.462248,30,32765
3.08815,2.18346,0.460385,31,32765
3.1036,2.17894,0.46072,29,32765
3.10274,2.16306,0.458532,29,32765
3.11805,2.15862,0.458857,29,32765
3.11704,2.14279,0.456769,30,32765
3.12412,2.13268,0.455696,30,32765
3.15594,2.13911,0.458094,30,32765
3.13846,2.112,0.45345,30,32765
3.14558,2.10159,0.452466,30,32765
3.15281,2.09102,0.451118,31,32765
3.15156,2.07513,0.448928,31,32765
3.16674,2.07031,0.449103,31,32765
3.18193,2.06539,0.449292,33,32765
3.20542,2.06588,0.450573,32,32765
3.20398,2.05001,0.448201,32,32765
3.18571,2.02352,0.443408,31,32765
3.18409,2.00778,0.441018,32,32765
3.21608,2.01316,0.443185,32,32765
3.2059,1.99217,0.439836,33,32765
3.22961,1.9919,0.44083,33,32765
3.23645,1.98109,0.439377,33,32765
3.21779,1.95471,0.434774,33,32765
3.23295,1.94919,0.434394,32,32765
3.23947,1.93857,0.433351,33,32765
3.2459,1.92801,0.432305,34,32765
3.26089,1.92254,0.431875,33,32765
3.28454,1.92178,0.432924,32,32765
3.2396,1.88085,0.424642,31,32765
3.2633,1.87982,0.425721,33,32765
3.27836,1.87383,0.425558,32,32765
3.29337,1.86794,0.425014,33,32765
3.29097,1.85224,0.422799,33,32765
3.28849,1.83665,0.420318,33,32765
3.31213,1.83546,0.420702,33,32765
3.31832,1.82445,0.419795,25,32765
3.29839,1.79907,0.41515,30,32765
3.33074,1.80231,0.417049,32,32765
3.30184,1.7724,0.411541,31,32765
3.3254,1.77084,0.412265,33,32765
3.30506,1.74589,0.407459,34,32765
3.34616,1.75349,0.410451,36,32765
3.36095,1.74693,0.410308,37,32765
3.3581,1.7311,0.408008,37,32765
3.3729,1.72434,0.407741,36,32765
3.38773,1.7175,0.407296,36,32765
3.37586,1.69725,0.403608,36,32765
3.39053,1.69053,0.403155,36,32765
3.40512,1.68374,0.403235,36,32765
3.393,1.66364,0.399797,35,32765
3.40766,1.65664,0.399369,35,32765
3.40439,1.64085,0.397155,35,32765
3.43692,1.64238,0.398847,35,32765
3.42447,1.62259,0.395323,35,32765
3.43887,1.61565,0.395289,34,32765
3.44428,1.60438,0.394066,35,32765
3.46775,1.60136,0.39492,35,32765
3.45511,1.58157,0.391475,34,32765
3.45138,1.56602,0.389451,34,32765
3.47492,1.56253,0.390279,35,32765
3.4712,1.54677,0.388175,35,32765
3.48553,1.53924,0.388259,35,32765
3.49069,1.52787,0.386784,34,32765
3.49575,1.5165,0.385785,36,32765
3.49172,1.50101,0.383755,33,32765
3.53345,1.5049,0.386839,36,32765
3.49275,1.47373,0.380701,34,32765
3.51611,1.46969,0.381965,34,32765
3.53019,1.46202,0.381947,34,32765
3.53504,1.45052,0.380906,34,32765
3.54901,1.44281,0.381264,35,32765
3.57227,1.43864,0.382221,35,32765
3.55854,1.41967,0.379307,35,32765
3.57244,1.41176,0.379689,35,32765
3.54933,1.38922,0.375835,34,32765
3.57246,1.38481,0.377283,36,32765
3.58628,1.37685,0.377442,34,32765
3.59086,1.36508,0.3767,34,32765
3.59531,1.35344,0.37623,34,32765
3.60911,1.34517,0.376469,35,32765
3.60424,1.32982,0.375049,35,32765
3.6086,1.31812,0.374367,34,32765
3.63166,1.31313,0.37564,35,32765
3.6359,1.30139,0.375514,34,32765
3.63076,1.2862,0.37444,35,32765
3.63499,1.27437,0.373804,34,32765
3.63912,1.2626,0.373557,34,32765
3.62435,1.24445,0.371359,34,32765
3.65658,1.24254,0.37402,34,32765
3.66052,1.23083,0.374209,33,32765
3.66448,1.21911,0.373886,34,32765
3.65891,1.20433,0.372642,33,32765
3.69099,1.20216,0.376039,36,32765
3.71364,1.19681,0.378098,34,32765
3.67943,1.1729,0.374831,33,32765
3.67372,1.15785,0.374212,34,32765
3.04643,2.23728,0.479509,24,32765
3.07849,2.24455,0.480094,25,32765
3.07846,2.22832,0.475989,26,32765
3.07,2.20667,0.470963,25,32765
3.08551,2.20257,0.469803,26,32765
3.08492,2.18691,0.465633,26,32765
3.09241,2.1768,0.463333,26,32765
3.0266,2.11551,0.450215,25,32765
3.10715,2.15663,0.459031,25,32765
3.09818,2.13522,0.454095,27,32765
3.09721,2.11947,0.45119,27,32765
3.13731,2.13166,0.453525,26,32765
3.14463,2.12132,0.45133,26,32765
3.12719,2.09434,0.445589,27,32765
3.15095,2.09492,0.446032,26,32765
3.11672,2.05709,0.438253,27,32765
3.17359,2.07941,0.443635,29,32765
3.15565,2.05285,0.437957,27,32765
3.15417,2.03723,0.435054,27,32765
3.16099,2.02712,0.432817,27,32765
3.19285,2.03293,0.434727,27,32765
3.17449,2.00663,0.429491,27,32765
3.16443,1.98573,0.425287,26,32765
3.2217,2.00696,0.430272,30,32765
3.22006,1.99114,0.427371,30,32765
3.18446,1.95446,0.420587,28,32765
3.21659,1.95941,0.42231,29,32765
3.24028,1.95909,0.422696,28,32765
3.21277,1.928,0.41689,29,32765
3.21933,1.91737,0.415335,28,32765
3.22588,1.90677,0.413309,29,32765
3.23237,1.89611,0.411663,29,32765
3.23025,1.88039,0.408925,30,32765
3.25372,1.87982,0.409852,28,32765
3.28597,1.88393,0.411513,31,32765
3.30094,1.87807,0.411125,29,32765
3.29865,1.86232,0.408344,31,32765
3.28766,1.84167,0.404562,30,32765
3.31119,1.84051,0.405759,31,32765
3.29133,1.81523,0.400653,28,32765
3.21886,1.76147,0.390215,23,32765
3.25969,1.76994,0.393205,26,32765
3.29194,1.77332,0.395058,26,32765
3.28041,1.75307,0.391507,27,32765
3.29516,1.74676,0.391518,29,32765
3.32752,1.74971,0.393134,31,32765
3.32463,1.734,0.39109,32,32765
3.33062,1.72284,0.389501,32,32765
3.35421,1.7207,0.390587,33,32765
3.3601,1.70947,0.38929,33,32765
3.38372,1.70719,0.389946,31,32765
3.38961,1.69576,0.388649,32,32765
3.39531,1.68455,0.387611,32,32765
3.38314,1.66451,0.384523,29,32765
3.38878,1.6533,0.38327,31,32765
3.37645,1.63349,0.379711,30,32765
3.40899,1.63505,0.381307,31,32765
3.41448,1.62379,0.380278,32,32765
3.402,1.60393,0.377125,31,32765
3.43449,1.60527,0.378804,30,32765
3.41281,1.58134,0.374799,29,32765
3.43627,1.57841,0.375119,29,32765
3.43252,1.5629,0.373113,31,32765
3.44687,1.55568,0.372787,31,32765
3.45221,1.54418,0.371153,31,32765
3.47561,1.54081,0.372059,29,32765
3.47179,1.52514,0.369774,30,32765
3.47696,1.51358,0.3687,31,32765
3.49125,1.506,0.368181,31,32765
3.46891,1.48261,0.364173,29,32765
3.51066,1.48657,0.366459,30,32765
3.51573,1.47482,0.365281,30,32765
3.51162,1.45926,0.362622,29,32765
3.51649,1.44773,0.361639,31,32765
3.53056,1.44001,0.361135,32,32765
3.53539,1.4285,0.35959,32,32765
3.52162,1.40961,0.356811,31,32765
3.50783,1.39075,0.353622,30,32765
3.54956,1.39384,0.355998,30,32765
3.53568,1.37508,0.352459,30,32765
3.55888,1.37068,0.35291,31,32765
3.54484,1.352,0.349781,32,32765
3.54934,1.34051,0.348294,30,32765
3.56313,1.33247,0.347839,30,32765
3.58633,1.32765,0.348113,30,32765
3.58151,1.31235,0.345565,29,32765
3.61405,1.31074,0.346646,31,32765
3.54341,1.2722,0.337892,30,32765
3.60398,1.28067,0.341842,30,32765
3.59884,1.26583,0.339067,29,32765
3.64064,1.26736,0.341268,31,32765
3.63542,1.25244,0.33872,31,32765
3.63952,1.24096,0.336883,28,32765
3.65293,1.2329,0.336053,30,32765
3.63805,1.21508,0.332662,32,32765
3.71776,1.2284,0.337945,30,32765
3.63671,1.18844,0.327978,28,32765
3.65011,1.17998,0.32684,30,32765
3.6823,1.1781,0.327286,29,32765
3.66703,1.16095,0.323529,30,32765
3.70886,1.16151,0.32447,30,32765
3.05604,2.2483,0.445138,29,32765
3.05606,2.23211,0.440802,28,32765
3.07204,2.22759,0.439108,29,32765
3.07162,2.21171,0.435414,29,32765
3.07906,2.20181,0.43302,29,32765
3.09464,2.19765,0.431204,30,32765
3.0778,2.1703,0.425527,29,32765
3.10961,2.17732,0.42666,30,32765
3.10063,2.15585,0.422352,29,32765
3.11618,2.15136,0.420919,31,32765
3.13985,2.15237,0.421396,31,32765
3.1472,2.14208,0.418947,32,32765
3.12983,2.11499,0.413479,30,32765
3.15362,2.11568,0.413437,32,32765
3.14436,2.09414,0.409366,31,32765
3.15157,2.08366,0.407416,31,32765
3.15868,2.07318,0.405811,31,32765
3.15736,2.05747,0.402545,32,32765
3.18928,2.06342,0.403962,32,32765
3.1878,2.0478,0.400647,31,32765
3.21137,2.04818,0.401214,31,32765
3.20984,2.0324,0.398331,33,32765
3.21669,2.02193,0.396365,32,32765
3.24879,2.02725,0.397659,35,32765
3.23875,2.00607,0.393806,33,32765
3.25402,2.0005,0.393631,32,32765
3.22688,1.96896,0.387891,33,32765
3.2506,1.9686,0.388082,32,32765
3.24868,1.95279,0.385681,32,32765
3.23823,1.93183,0.38209,32,32765
3.26195,1.93127,0.382056,34,32765
3.26851,1.92048,0.380389,32,32765
3.25787,1.89959,0.37673,32,32765
3.29003,1.90391,0.378448,33,32765
3.31374,1.90296,0.378822,34,32765
3.32013,1.89207,0.377344,35,32765
3.30922,1.87132,0.373666,35,32765
3.29824,1.85059,0.370065,34,32765
3.33051,1.85424,0.37204,34,32765
3.32809,1.83846,0.369135,34,32765
3.34294,1.83231,0.369167,27,32765
3.32282,1.80711,0.365009,28,32765
3.32017,1.79138,0.362726,30,32765
3.32623,1.78039,0.361254,30,32765
3.34987,1.77858,0.362106,33,32765
3.3295,1.75352,0.357735,33,32765
3.34428,1.74699,0.35767,35,32765
3.35914,1.74032,0.357009,34,32765
3.36509,1.72899,0.356024,34,32765
3.39762,1.73125,0.357521,35,32765
3.39466,1.71538,0.355184,34,32765
3.37388,1.6905,0.351102,34,32765
3.3974,1.68818,0.351914,36,32765
3.41202,1.6813,0.351774,35,32765
3.41771,1.66997,0.350509,35,32765
3.42335,1.6587,0.348949,35,32765
3.42906,1.64718,0.347514,34,32765
3.44358,1.64011,0.347384,35,32765
3.43114,1.62011,0.344407,35,32765
3.47272,1.62558,0.346692,35,32765
3.46013,1.60567,0.343853,35,32765
3.44747,1.58592,0.340389,33,32765
3.47094,1.58275,0.341143,35,32765
3.48535,1.57538,0.340707,34,32765
3.49985,1.56781,0.339936,35,32765
3.48692,1.54811,0.337118,35,32765
3.474,1.52835,0.334044,34,32765
3.48831,1.52075,0.333843,34,32765
3.51177,1.51707,0.334094,35,32765
3.50777,1.5014,0.332093,34,32765
3.52208,1.49356,0.331396,36,32765
3.52717,1.48176,0.330212,34,32765
3.54147,1.47379,0.329352,34,32765
3.53717,1.45834,0.327506,34,32765
3.53283,1.443,0.325201,33,32765
3.56538,1.44267,0.326189,34,32765
3.57013,1.43106,0.325273,35,32765
3.54714,1.40833,0.321414,34,32765
3.56113,1.40036,0.320891,34,32765
3.58439,1.39599,0.320857,35,32765
3.59837,1.38783,0.320273,35,32765
3.60299,1.3761,0.318964,34,32765
3.62621,1.37145,0.319093,35,32765
3.62144,1.35616,0.316879,34,32765
3.59799,1.33382,0.312876,35,32765
3.6119,1.32531,0.312033,34,32765
3.62576,1.3168,0.311208,34,32765
3.63011,1.30512,0.309599,34,32765
3.61569,1.28659,0.30658,34,32765
3.64816,1.28493,0.307057,34,32765
3.65239,1.27318,0.305712,34,32765
3.66602,1.26469,0.304819,35,32765
3.66072,1.24988,0.302186,35,32765
3.65527,1.23535,0.299702,34,32765
3.67819,1.23014,0.299578,35,32765
3.66333,1.21204,0.296431,34,32765
3.65797,1.19699,0.293423,34,32765
3.72831,1.20687,0.296709,34,32765
3.70362,1.1865,0.29233,34,32765
3.70735,1.17528,0.290237,35,32765
3.69214,1.15781,0.286347,34,32765
3.04503,2.23766,0.400818,24,32765
3.07666,2.24506,0.403477,25,32765
3.08412,2.23495,0.402673,26,32765
3.05931,2.20149,0.397709,25,32765
3.07468,2.19721,0.398237,25,32765
3.07397,2.18122,0.396288,25,32765
3.10561,2.18837,0.39825,26,32765
3.08011,2.15564,0.393074,25,32765
3.10359,2.15693,0.394176,27,32765
3.07803,2.12415,0.388989,25,32765
3.13442,2.14761,0.394426,28,32765
3.11704,2.12042,0.389806,26,32765
3.11585,2.10463,0.387874,27,32765
3.13944,2.10544,0.388673,26,32765
3.12154,2.07877,0.384187,26,32765
3.13671,2.07403,0.384519,27,32765
3.15198,2.0692,0.384084,26,32765
3.19237,2.08041,0.386699,27,32765
3.17442,2.05348,0.382446,28,32765
3.18143,2.04287,0.381033,27,32765
3.15471,2.01099,0.375941,28,32765
3.20347,2.02727,0.37949,29,32765
3.19331,2.00636,0.37604,28,32765
3.22525,2.01184,0.37772,28,32765
3.20651,1.98574,0.373189,29,32765
3.19629,1.96458,0.370236,27,32765
3.27092,1.99536,0.377006,27,32765
3.21807,1.94846,0.368727,28,32765
3.20763,1.92746,0.365515,28,32765
3.23122,1.92708,0.366043,27,32765
3.24626,1.92154,0.365471,28,32765
3.25282,1.91073,0.363837,28,32765
3.27636,1.9101,0.364828,31,32765
3.30868,1.91423,0.366012,29,32765
3.28916,1.88849,0.36208,30,32765
3.27831,1.86765,0.358715,28,32765
3.25873,1.84197,0.354202,29,32765
3.30851,1.85534,0.357179,30,32765
3.28875,1.82974,0.352987,29,32765
3.32107,1.83327,0.354558,29,32765
3.28358,1.79843,0.348416,27,32765
3.26341,1.77336,0.34385,23,32765
3.29563,1.77688,0.345117,25,32765
3.32798,1.78008,0.346391,24,32765
3.32519,1.76439,0.34414,25,32765
3.3488,1.76259,0.344667,27,32765
3.37244,1.76068,0.345,31,32765
3.36959,1.74483,0.342812,30,32765
3.39332,1.74261,0.342885,32,32765
3.3992,1.73133,0.341846,30,32765
3.3696,1.70189,0.336889,29,32765
3.3754,1.69059,0.335699,30,32765
3.40793,1.69264,0.336686,30,32765
3.36008,1.65489,0.329877,29,32765
3.38348,1.6527,0.330234,31,32765
3.42505,1.65862,0.33233,30,32765
3.38587,1.62547,0.326609,30,32765
3.44534,1.63989,0.330569,32,32765
3.42385,1.6157,0.326699,30,32765
3.43819,1.60888,0.326329,31,32765
3.47976,1.6143,0.328312,31,32765
3.46708,1.59446,0.325435,32,32765
3.43616,1.56654,0.320683,29,32765
3.45058,1.55914,0.32028,30,32765
3.47397,1.55595,0.320794,32,32765
3.48836,1.54837,0.320581,32,32765
3.45719,1.52063,0.315699,30,32765
3.52624,1.53705,0.320527,31,32765
3.49479,1.5096,0.316091,31,32765
3.48147,1.49035,0.313356,30,32765
3.52321,1.49436,0.315358,30,32765
3.51906,1.47882,0.313371,31,32765
3.47791,1.44822,0.308572,30,32765
3.50118,1.44437,0.309043,30,32765
3.51515,1.43677,0.30907,30,32765
3.51075,1.4214,0.30703,29,32765
3.57101,1.43208,0.310894,30,32765
3.53869,1.4057,0.306668,30,32765
3.58047,1.40868,0.308941,31,32765
3.57579,1.39342,0.307559,29,32765
3.56181,1.37448,0.305273,30,32765
3.57572,1.36629,0.305027,31,32765
3.60819,1.36515,0.306935,33,32765
3.59402,1.34639,0.304516,29,32765
3.57969,1.32795,0.302093,31,32765
3.54659,1.30255,0.298638,29,32765
3.56024,1.29445,0.298453,29,32765
3.63008,1.30656,0.303815,30,32765
3.60626,1.28452,0.300874,30,32765
3.62919,1.27957,0.302135,30,32765
3.6522,1.27435,0.303122,31,32765
3.6564,1.26236,0.302628,32,32765
3.64161,1.24415,0.30063,29,32765
3.62668,1.22611,0.29905,29,32765
3.65889,1.22418,0.301372,33,32765
3.6439,1.20617,0.299364,30,32765
3.65723,1.19757,0.300192,30,32765
3.66101,1.18596,0.300248,30,32765
3.68368,1.18054,0.302009,28,32765
3.68729,1.16912,0.302421,32,32765
3.7099,1.16351,0.304797,30,32765
3.06982,2.26043,0.368221,30,32765
3.07743,2.25013,0.367714,28,32765
3.10103,2.25169,0.368823,30,32765
3.0682,2.21228,0.363269,29,32765
3.116,2.23114,0.367517,30,32765
3.11541,2.21498,0.365646,27,32765
3.12277,2.20479,0.364462,29,32765
3.11362,2.18336,0.361544,28,32765
3.1372,2.18454,0.362447,30,32765
3.11991,2.15724,0.35856,29,32765
3.1354,2.15244,0.358728,30,32765
3.13448,2.1364,0.356255,30,32765
3.17457,2.14841,0.359072,30,32765
3.17352,2.13237,0.356871,30,32765
3.18055,2.12211,0.355424,29,32765
3.17097,2.10068,0.352875,31,32765
3.18634,2.09571,0.352329,32,32765
3.16846,2.06873,0.348138,31,32765
3.19225,2.0689,0.348737,31,32765
3.17418,2.04204,0.344586,32,32765
3.18941,2.03692,0.344399,31,32765
3.21305,2.03713,0.344755,31,32765
3.21976,2.02674,0.343282,33,32765
3.23488,2.0216,0.342878,32,32765
3.24155,2.01115,0.341295,31,32765
3.24838,2.00028,0.340292,33,32765
3.24667,1.98421,0.338323,32,32765
3.24486,1.96827,0.335999,32,32765
3.26008,1.96256,0.335597,33,32765
3.25814,1.94668,0.333287,32,32765
3.25611,1.93087,0.330865,32,32765
3.27987,1.93011,0.330956,32,32765
3.28628,1.91934,0.330023,32,32765
3.28415,1.90347,0.32748,33,32765
3.28187,1.88769,0.325549,32,32765
3.28831,1.8767,0.324077,32,32765
3.31209,1.87548,0.32408,34,32765
3.29251,1.84966,0.319808,33,32765
3.33364,1.85801,0.321783,34,32765
3.33119,1.84211,0.319706,34,32765
3.35486,1.84071,0.319856,33,32765
3.34357,1.82012,0.316359,24,32765
3.3058,1.7855,0.310712,29,32765
3.32062,1.77926,0.310059,29,32765
3.32662,1.76824,0.308718,29,32765
3.33262,1.75713,0.307429,29,32765
3.35625,1.75528,0.307579,31,32765
3.37992,1.75321,0.307908,34,32765
3.39481,1.74639,0.306984,34,32765
3.39182,1.73055,0.305144,34,32765
3.41557,1.72807,0.305334,34,32765
3.38582,1.69871,0.300958,34,32765
3.44517,1.71406,0.304019,34,32765
3.4063,1.68051,0.298538,34,32765
3.42979,1.67816,0.298686,34,32765
3.43557,1.66654,0.297282,34,32765
3.42335,1.64624,0.29434,35,32765
3.42892,1.63483,0.293107,34,32765
3.46149,1.63621,0.294119,34,32765
3.45784,1.62078,0.292114,34,32765
3.45425,1.60515,0.289917,35,32765
3.48682,1.60621,0.291014,35,32765
3.47405,1.58645,0.288132,35,32765
3.47946,1.5748,0.286871,34,32765
3.49381,1.56743,0.28644,35,32765
3.49913,1.55571,0.285382,34,32765
3.48621,1.53591,0.282347,33,32765
3.5005,1.52833,0.282089,34,32765
3.52393,1.52467,0.282437,35,32765
3.52898,1.51315,0.281341,35,32765
3.5341,1.50141,0.280038,35,32765
3.53915,1.48967,0.278864,34,32765
3.54404,1.47814,0.278141,35,32765
3.54899,1.46644,0.276962,34,32765
3.5538,1.45489,0.276166,35,32765
3.56794,1.44686,0.275633,34,32765
3.58203,1.43879,0.275358,34,32765
3.5868,1.42707,0.274339,34,32765
3.57298,1.40795,0.271984,35,32765
3.59617,1.40357,0.27281,34,32765
3.59153,1.38812,0.271409,35,32765
3.60549,1.37982,0.271059,35,32765
3.61004,1.36797,0.270583,35,32765
3.62388,1.35968,0.270441,35,32765
3.60959,1.3411,0.268198,34,32765
3.64205,1.33966,0.269973,34,32765
3.63708,1.32441,0.268284,34,32765
3.6226,1.30585,0.266764,34,32765
3.64574,1.30054,0.267553,34,32765
3.64052,1.28549,0.266554,34,32765
3.66355,1.28023,0.267351,34,32765
3.65835,1.26492,0.266167,35,32765
3.653,1.2499,0.265041,35,32765
3.67589,1.24458,0.266387,34,32765
3.68926,1.23615,0.267056,36,32765
3.67431,1.218,0.265231,35,32765
3.70664,1.21551,0.267332,36,32765
3.71048,1.20371,0.267388,33,32765
3.73324,1.19813,0.268962,35,32765
3.70838,1.17747,0.267322,35,32765
3.70249,1.16282,0.267451,34,32765
3.06465,2.24808,0.38265,26,32765
3.07254,2.23782,0.379534,26,32765
3.0803,2.22765,0.376466,26,32765
3.0959,2.22345,0.374971,27,32765
3.08732,2.20176,0.369908,26,32765
3.08676,2.18575,0.366594,26,32765
3.09426,2.17558,0.363912,26,32765
3.10167,2.16538,0.361584,26,32765
3.1253,2.16672,0.36092,26,32765
3.09985,2.13387,0.354852,26,32765
3.13178,2.14052,0.35528,26,32765
3.13084,2.12455,0.352311,26,32765
3.14633,2.11979,0.350967,29,32765
3.12862,2.09295,0.345964,26,32765
3.14395,2.08827,0.34465,26,32765
3.12598,2.06164,0.339833,26,32765
3.14963,2.06225,0.339613,27,32765
3.1483,2.04642,0.336527,27,32765
3.19705,2.06306,0.339167,26,32765
3.20414,2.05238,0.33706,28,32765
3.21101,2.04193,0.33516,30,32765
3.20943,2.0261,0.332534,26,32765
3.19938,2.00501,0.328644,27,32765
3.23138,2.01047,0.329507,28,32765
3.23814,1.99989,0.327558,29,32765
3.21084,1.96852,0.322174,29,32765
3.25152,1.97863,0.324163,27,32765
3.2241,1.94723,0.319126,27,32765
3.21355,1.92643,0.315559,28,32765
3.23721,1.92597,0.315475,29,32765
3.25227,1.92039,0.314528,28,32765
3.26738,1.91464,0.313629,29,32765
3.27391,1.9037,0.312104,28,32765
3.27169,1.88793,0.309604,29,32765
3.27813,1.87701,0.30794,29,32765
3.29312,1.87109,0.307193,29,32765
3.29943,1.86018,0.305718,29,32765
3.31445,1.85402,0.305155,31,32765
3.31194,1.83829,0.302875,30,32765
3.30943,1.8225,0.300452,30,32765
3.32432,1.8163,0.299903,28,32765
3.32163,1.80062,0.297726,19,32765
3.27511,1.76114,0.29144,23,32765
3.29859,1.75978,0.29154,24,32765
3.32218,1.75811,0.291675,23,32765
3.33691,1.75179,0.290968,27,32765
3.33396,1.73621,0.288445,28,32765
3.37528,1.74338,0.29013,30,32765
3.37221,1.72772,0.288436,29,32765
3.35141,1.70287,0.284986,29,32765
3.38396,1.70507,0.285512,28,32765
3.38092,1.6891,0.283611,30,32765
3.40468,1.68633,0.283871,30,32765
3.38353,1.66176,0.280542,28,32765
3.4161,1.66351,0.281298,30,32765
3.42171,1.65217,0.279841,29,32765
3.41823,1.63661,0.277916,29,32765
3.44178,1.63373,0.278375,29,32765
3.44724,1.62245,0.276792,29,32765
3.42564,1.59826,0.273251,30,32765
3.45815,1.59946,0.274455,31,32765
3.45448,1.58383,0.272249,29,32765
3.46897,1.57635,0.271551,33,32765
3.47423,1.56495,0.270332,32,32765
3.48869,1.55734,0.26953,30,32765
3.47571,1.53766,0.266743,30,32765
3.48095,1.52597,0.265473,29,32765
3.46792,1.5062,0.262622,30,32765
3.50967,1.51043,0.264092,31,32765
3.51483,1.49862,0.262686,31,32765
3.5198,1.48716,0.261223,32,32765
3.54313,1.48335,0.261496,32,32765
3.53892,1.46784,0.259021,30,32765
3.51608,1.44491,0.255997,30,32765
3.53019,1.43705,0.255027,31,32765
3.51646,1.41805,0.252219,30,32765
3.56756,1.4249,0.254275,31,32765
3.55384,1.40567,0.251378,29,32765
3.54926,1.3903,0.249427,30,32765
3.57254,1.38586,0.248925,31,32765
3.58649,1.3777,0.248027,32,32765
3.60035,1.36966,0.24727,31,32765
3.59559,1.35434,0.245009,31,32765
3.57193,1.33237,0.241899,29,32765
3.62319,1.33797,0.243326,30,32765
3.60889,1.3193,0.24057,31,32765
3.63206,1.31431,0.240119,29,32765
3.63649,1.30235,0.238116,31,32765
3.62192,1.28398,0.235704,31,32765
3.65444,1.28214,0.235754,29,32765
3.62086,1.25746,0.231842,31,32765
3.6344,1.24918,0.230605,29,32765
3.69522,1.25679,0.232271,30,32765
3.6993,1.24505,0.230457,31,32765
3.656,1.21744,0.225984,30,32765
3.64101,1.19961,0.22264,30,32765
3.7208,1.21295,0.22543,30,32765
3.68673,1.18895,0.220892,31,32765
3.68102,1.17447,0.218194,30,32765
3.6468,1.15069,0.213715,30,32765
3.71716,1.16031,0.215321,31,32765
3.0732,2.25905,0.347884,28,32765
3.05698,2.23111,0.342056,28,32765
3.08889,2.23851,0.341676,30,32765
3.08835,2.22262,0.338306,30,32765
3.10406,2.21829,0.336066,29,32765
3.11168,2.20794,0.333701,30,32765
3.11109,2.19193,0.330131,31,32765
3.13487,2.19308,0.329503,29,32765
3.12585,2.17157,0.325216,30,32765
3.13322,2.16127,0.322899,31,32765
3.16523,2.16782,0.323019,30,32765
3.16438,2.1517,0.320118,31,32765
3.16343,2.13567,0.316998,31,32765
3.17887,2.13092,0.315548,32,32765
3.16943,2.10949,0.311654,32,32765
3.1931,2.11019,0.311148,32,32765
3.16691,2.07777,0.305866,31,32765
3.19068,2.07817,0.305256,31,32765
3.17257,2.0514,0.301047,32,32765
3.19639,2.05155,0.30053,31,32765
3.21166,2.04646,0.299416,31,32765
3.22694,2.04125,0.298439,32,32765
3.20004,2.00945,0.293174,30,32765
3.24898,2.02547,0.295291,33,32765
3.23882,2.00432,0.291802,31,32765
3.2625,2.00419,0.291341,33,32765
3.26925,1.99338,0.28991,32,32765
3.26747,1.97734,0.287488,32,32765
3.24845,1.95122,0.283335,33,32765
3.28077,1.95574,0.283782,33,32765
3.26159,1.9297,0.27977,33,32765
3.31113,1.94411,0.281697,34,32765
3.30914,1.92797,0.279421,34,32765
3.307,1.91205,0.276994,32,32765
3.29621,1.89105,0.273872,33,32765
3.31992,1.89,0.273734,33,32765
3.34366,1.88879,0.273667,33,32765
3.32397,1.86296,0.27016,33,32765
3.32149,1.84716,0.267968,33,32765
3.3452,1.84576,0.267728,33,32765
3.32517,1.82027,0.264286,33,32765
3.34003,1.81407,0.263584,27,32765
3.29353,1.77445,0.257849,25,32765
3.30826,1.76832,0.257067,28,32765
3.34951,1.77596,0.258368,28,32765
3.37313,1.77418,0.25823,27,32765
3.37024,1.75845,0.255778,29,32765
3.40279,1.76093,0.256404,34,32765
3.39977,1.74514,0.254794,35,32765
3.42349,1.74277,0.254923,34,32765
3.39383,1.71326,0.250526,33,32765
3.44435,1.72402,0.25264,34,32765
3.43248,1.70328,0.250082,34,32765
3.42033,1.68297,0.247672,34,32765
3.42607,1.67147,0.246195,33,32765
3.44968,1.66877,0.246013,35,32765
3.45524,1.6574,0.244807,35,32765
3.46986,1.6501,0.24443,35,32765
3.45731,1.63019,0.241572,34,32765
3.48094,1.62705,0.241441,35,32765
3.47733,1.61129,0.239848,34,32765
3.4737,1.59556,0.237726,34,32765
3.5064,1.59627,0.238158,34,32765
3.49352,1.57651,0.235696,34,32765
3.49891,1.56474,0.23418,34,32765
3.52244,1.56117,0.234,35,32765
3.52777,1.54929,0.232711,35,32765
3.51481,1.52932,0.230026,34,32765
3.5383,1.5255,0.22991,35,32765
3.53434,1.50964,0.227898,35,32765
3.52095,1.49032,0.22525,35,32765
3.57192,1.49808,0.227088,35,32765
3.56774,1.48244,0.224691,34,32765
3.54494,1.45937,0.221938,33,32765
3.5591,1.4514,0.22086,36,32765
3.58243,1.44722,0.220505,35,32765
3.55949,1.42419,0.217534,34,32765
3.58288,1.41966,0.217076,34,32765
3.60622,1.41511,0.216884,36,32765
3.59235,1.396,0.213946,35,32765
3.59702,1.38418,0.212394,35,32765
3.60156,1.37253,0.210991,35,32765
3.60614,1.3607,0.209363,35,32765
3.61056,1.34913,0.208148,34,32765
3.65252,1.35115,0.20855,35,32765
3.63824,1.33235,0.205969,34,32765
3.64268,1.32045,0.204262,36,32765
3.66592,1.31518,0.203293,36,32765
3.67021,1.30336,0.202095,36,32765
3.6651,1.28811,0.199783,35,32765
3.65982,1.27319,0.197771,35,32765
3.66396,1.26152,0.195913,36,32765
3.68701,1.25617,0.194999,37,32765
3.70055,1.24762,0.193682,37,32765
3.69513,1.23259,0.191643,36,32765
3.69914,1.22086,0.189435,36,32765
3.68405,1.20304,0.186632,36,32765
3.69746,1.19446,0.184867,36,32765
3.72029,1.18904,0.183665,37,32765
3.72418,1.17714,0.181393,37,32765
3.71837,1.16269,0.178627,37,32765
3.06935,2.25369,0.303925,25,32765
3.0767,2.24372,0.303349,25,32765
3.0922,2.23947,0.303314,24,32765
3.09964,2.22929,0.302337,25,32765
3.06656,2.18997,0.297788,24,32765
3.08203,2.18556,0.297527,26,32765
3.14637,2.21559,0.301904,26,32765
3.1046,2.17114,0.296005,26,32765
3.07903,2.1382,0.292,26,32765
3.11065,2.14524,0.293141,26,32765
3.10967,2.12921,0.291271,27,32765
3.13333,2.13007,0.291634,27,32765
3.157,2.13089,0.291665,28,32765
3.1972,2.14275,0.293482,27,32765
3.15454,2.0991,0.287553,27,32765
3.16989,2.09416,0.287079,26,32765
3.17696,2.0836,0.285637,25,32765
3.1923,2.07853,0.285138,28,32765
3.19088,2.06257,0.28312,27,32765
3.19773,2.05213,0.281724,27,32765
3.19612,2.03636,0.27941,29,32765
3.18598,2.01527,0.276871,27,32765
3.21798,2.0208,0.27767,27,32765
3.19932,1.99444,0.273776,27,32765
3.23993,2.00483,0.275486,28,32765
3.22968,1.98367,0.272426,29,32765
3.23646,1.97284,0.270653,28,32765
3.3114,2.00336,0.274997,28,32765
3.27553,1.96647,0.269777,28,32765
3.26502,1.94533,0.267286,29,32765
3.30598,1.95475,0.268247,29,32765
3.25235,1.90842,0.261809,29,32765
3.29331,1.91761,0.263217,28,32765
3.29117,1.90158,0.261326,30,32765
3.31484,1.90062,0.261446,32,32765
3.30395,1.87969,0.258375,30,32765
3.29296,1.85886,0.25525,28,32765
3.30795,1.85278,0.25431,28,32765
3.33166,1.85143,0.254267,27,32765
3.34651,1.8454,0.25354,29,32765
3.34397,1.82949,0.251419,29,32765
3.32386,1.80409,0.247622,28,32765
3.33007,1.79288,0.245646,19,32765
3.30093,1.76291,0.241868,21,32765
3.30685,1.75194,0.240711,22,32765
3.34811,1.75945,0.242028,22,32765
3.38064,1.7621,0.242221,23,32765
3.38661,1.75085,0.240444,30,32765
3.39266,1.73929,0.239012,29,32765
3.38065,1.71908,0.236545,29,32765
3.40423,1.7169,0.236285,31,32765
3.38327,1.69217,0.232665,29,32765
3.40684,1.68986,0.232104,30,32765
3.44846,1.69598,0.232958,32,32765
3.42728,1.67131,0.229949,31,32765
3.41507,1.651,0.226971,32,32765
3.43865,1.64821,0.226943,30,32765
3.44415,1.6369,0.225455,30,32765
3.45868,1.62976,0.2243,31,32765
3.43695,1.60571,0.221445,29,32765
3.42427,1.5858,0.219012,29,32765
3.5114,1.61165,0.222581,30,32765
3.48043,1.58354,0.218933,30,32765
3.44938,1.55549,0.215277,30,32765
3.491,1.56047,0.216159,31,32765
3.51445,1.55707,0.216019,31,32765
3.48312,1.5293,0.212658,30,32765
3.47904,1.51385,0.210998,31,32765
3.51165,1.51412,0.211339,30,32765
3.53501,1.51048,0.211231,32,32765
3.53087,1.49488,0.209482,31,32765
3.53587,1.48315,0.208525,31,32765
3.54085,1.47137,0.207455,30,32765
3.51807,1.44827,0.204489,30,32765
3.51364,1.43287,0.203092,30,32765
3.56465,1.44009,0.204768,30,32765
3.57872,1.43199,0.204351,32,32765
3.55559,1.40926,0.201697,30,32765
3.56027,1.39756,0.200537,31,32765
3.61134,1.40411,0.202716,31,32765
3.616,1.39216,0.202017,31,32765
3.59259,1.3697,0.199216,31,32765
3.62507,1.36866,0.200142,32,32765
3.61087,1.34984,0.197885,31,32765
3.6527,1.35203,0.199478,33,32765
3.63844,1.33306,0.197818,31,32765
3.60534,1.30735,0.194884,31,32765
3.68477,1.32263,0.198734,32,32765
3.63266,1.2905,0.194948,30,32765
3.67447,1.29216,0.196488,33,32765
3.67862,1.2804,0.195854,33,32765
3.68281,1.26831,0.195758,32,32765
3.668,1.24999,0.194242,31,32765
3.64362,1.22862,0.192375,32,32765
3.65697,1.22028,0.192617,32,32765
3.70823,1.22439,0.19486,33,32765
3.67415,1.20009,0.193058,31,32765
3.69698,1.19452,0.193823,31,32765
3.71028,1.18573,0.194648,33,32765
3.72353,1.17701,0.19516,34,32765
3.72715,1.16534,0.196067,32,32765
3.10113,2.28235,0.271049,29,32765
3.10859,2.27225,0.270463,31,32765
3.14033,2.2796,0.27172,30,32765
3.13173,2.25757,0.269331,30,32765
3.10687,2.22386,0.265935,31,32765
3.1306,2.22508,0.266255,31,32765
3.12986,2.209,0.264447,30,32765
3.11258,2.18168,0.261168,29,32765
3.13619,2.18283,0.26163,30,32765
3.15154,2.17835,0.261105,29,32765
3.15891,2.16779,0.259988,30,32765
3.16621,2.15726,0.258794,31,32765
3.16517,2.1412,0.256609,32,32765
3.19713,2.14749,0.257379,31,32765
3.17109,2.11481,0.253334,30,32765
3.17817,2.10429,0.252096,31,32765
3.2103,2.11013,0.252615,31,32765
3.20902,2.09403,0.250701,31,32765
3.20765,2.07798,0.248767,31,32765
3.20616,2.06205,0.246715,30,32765
3.23822,2.0677,0.247054,32,32765
3.23661,2.05177,0.245323,31,32765
3.2434,2.0412,0.243911,32,32765
3.2502,2.03056,0.242173,32,32765
3.24004,2.00924,0.239721,32,32765
3.2638,2.00896,0.239338,33,32765
3.27066,1.99799,0.237544,33,32765
3.26887,1.98189,0.235585,33,32765
3.2757,1.97079,0.233907,33,32765
3.28234,1.95984,0.232815,33,32765
3.29758,1.95395,0.23158,34,32765
3.27837,1.92778,0.228194,33,32765
3.31077,1.93188,0.228618,33,32765
3.32596,1.92575,0.227997,35,32765
3.30644,1.89981,0.224968,33,32765
3.31288,1.88875,0.223255,33,32765
3.33667,1.8875,0.222629,34,32765
3.34305,1.87638,0.220996,34,32765
3.3494,1.86519,0.219604,33,32765
3.34681,1.84943,0.217636,33,32765
3.37055,1.84788,0.2173,34,32765
3.36804,1.83187,0.214886,34,32765
3.36554,1.81575,0.212326,27,32765
3.29246,1.76204,0.206152,23,32765
3.33366,1.7698,0.207188,25,32765
3.36615,1.77259,0.207573,26,32765
3.32791,1.73819,0.203149,27,32765
3.37813,1.75006,0.204076,29,32765
3.4197,1.75675,0.204772,34,32765
3.43445,1.75001,0.204067,35,32765
3.4403,1.73864,0.202544,34,32765
3.42833,1.71821,0.199703,33,32765
3.4341,1.70686,0.197898,34,32765
3.43099,1.69083,0.195806,34,32765
3.44568,1.68369,0.195114,34,32765
3.45148,1.67199,0.193319,34,32765
3.46613,1.66474,0.192587,34,32765
3.47168,1.65331,0.191085,35,32765
3.47723,1.64181,0.189328,34,32765
3.50077,1.63882,0.189191,36,32765
3.50632,1.62706,0.18789,34,32765
3.4847,1.6026,0.184798,34,32765
3.49913,1.59523,0.183923,33,32765
3.52272,1.59174,0.183477,34,32765
3.50978,1.57199,0.18113,33,32765
3.515,1.56041,0.179858,35,32765
3.50197,1.54063,0.177799,35,32765
3.54371,1.54504,0.178532,35,32765
3.54891,1.53321,0.177191,35,32765
3.55398,1.52158,0.175971,36,32765
3.56826,1.51368,0.17521,35,32765
3.5549,1.49406,0.173343,36,32765
3.55992,1.48219,0.172265,36,32765
3.56487,1.4704,0.1709,36,32765
3.60675,1.47371,0.171786,38,32765
3.59308,1.4544,0.169898,37,32765
3.59793,1.44248,0.168943,36,32765
3.58411,1.42332,0.166996,37,32765
3.59814,1.41515,0.166254,38,32765
3.63997,1.41796,0.167528,38,32765
3.6074,1.39152,0.165114,36,32765
3.62131,1.3833,0.16429,36,32765
3.6258,1.37155,0.163662,37,32765
3.63032,1.35971,0.162429,36,32765
3.64409,1.35141,0.162389,37,32765
3.63921,1.33587,0.161332,37,32765
3.65306,1.32716,0.16084,36,32765
3.63857,1.3085,0.159804,36,32765
3.65229,1.29992,0.159467,35,32765
3.66587,1.29155,0.159397,33,32765
3.68889,1.28638,0.159579,37,32765
3.67421,1.26771,0.158666,34,32765
3.64995,1.24614,0.156931,35,32765
3.68235,1.24397,0.15778,36,32765
3.69576,1.2355,0.157924,35,32765
3.69017,1.22066,0.157266,35,32765
3.71306,1.21502,0.158266,36,32765
3.72643,1.20623,0.158436,35,32765
3.73978,1.19733,0.159167,37,32765
3.7245,1.17945,0.158368,34,32765
3.73769,1.17073,0.159681,34,32765
3.05586,2.24102,0.282003,25,32765
3.06345,2.23104,0.278895,26,32765
3.13588,2.26744,0.28166,26,32765
3.07082,2.20454,0.272313,26,32765
3.12695,2.22927,0.273914,27,32765
3.10993,2.20191,0.268954,25,32765
3.10098,2.18029,0.265013,25,32765
3.1165,2.17584,0.263117,26,32765
3.1321,2.17119,0.261357,26,32765
3.14768,2.1665,0.259356,26,32765
3.17144,2.16744,0.258264,27,32765
3.15398,2.14011,0.25438,26,32765
3.17782,2.14079,0.253159,27,32765
3.15189,2.10805,0.248381,26,32765
3.1923,2.11967,0.248664,27,32765
3.18277,2.09819,0.244933,28,32765
3.1981,2.09327,0.243492,29,32765
3.19678,2.07726,0.24083,27,32765
3.15337,2.03437,0.234894,27,32765
3.19389,2.04541,0.2353,28,32765
3.18387,2.02426,0.231903,27,32765
3.20751,2.02447,0.231094,27,32765
3.22268,2.01927,0.230107,29,32765
3.26323,2.02998,0.23028,29,32765
3.26157,2.01392,0.227762,30,32765
3.21729,1.97182,0.222224,27,32765
3.28368,1.99741,0.224374,28,32765
3.30751,1.99683,0.223495,26,32765
3.23712,1.93973,0.216542,29,32765
3.27793,1.94947,0.21707,30,32765
3.25863,1.92349,0.21362,28,32765
3.32539,1.94801,0.215966,29,32765
3.29748,1.91681,0.211762,29,32765
3.3299,1.92077,0.211945,30,32765
3.30173,1.88982,0.208023,29,32765
