x, y, z, intensity, ring
5.66122,1.67665,-0.883354,21,32765
5.60981,1.64055,-0.875645,21,32765
5.59606,1.61609,-0.874326,21,32765
5.56336,1.58604,-0.869494,21,32765
5.52086,1.55363,-0.863887,21,32765
5.46878,1.51893,-0.856069,21,32765
5.5023,1.50814,-0.862011,22,32765
5.50717,1.48946,-0.863411,22,32765
5.44517,1.45249,-0.854628,23,32765
5.40209,1.4212,-0.848612,23,32765
5.43554,1.40989,-0.854125,24,32765
5.38272,1.37652,-0.846113,22,32765
5.38717,1.35822,-0.847367,22,32765
5.33402,1.32552,-0.839562,22,32765
5.33826,1.30742,-0.840971,22,32765
5.35213,1.29155,-0.843515,23,32765
5.31785,1.26401,-0.838835,22,32765
5.31236,1.24321,-0.838822,23,32765
5.33578,1.2288,-0.843262,23,32765
5.22425,1.18352,-0.826389,23,32765
5.18965,1.15645,-0.821316,24,32765
5.20308,1.14045,-0.824289,22,32765
5.12952,1.10586,-0.81312,21,32765
5.14274,1.09024,-0.816059,22,32765
5.16561,1.07652,-0.820464,24,32765
5.1787,1.06075,-0.823619,25,32765
5.10469,1.02723,-0.812299,23,32765
5.09828,1.00765,-0.812258,25,32765
5.05306,0.980433,-0.805865,24,32765
5.09506,0.970118,-0.813489,26,32765
5.05936,0.945084,-0.808585,26,32765
4.99439,0.914954,-0.799111,25,32765
4.9584,0.890724,-0.794299,26,32765
4.98073,0.876934,-0.798552,25,32765
4.98348,0.85962,-0.800222,25,32765
4.82066,0.814563,-0.774711,21,32765
4.86217,0.804359,-0.782577,22,32765
4.83549,0.783064,-0.778737,22,32765
4.80871,0.761657,-0.775273,22,32765
4.84041,0.749438,-0.781284,22,32765
4.81348,0.727937,-0.778069,22,32765
4.7279,0.697975,-0.765099,21,32765
4.76925,0.687227,-0.772237,21,32765
0,0,-0,16,32765
3.85399,0.528039,-0.625721,14,32765
3.37617,0.450792,-0.5484,17,32765
3.29925,0.429044,-0.536435,18,32765
3.19287,0.404198,-0.51945,17,32765
3.1647,0.389706,-0.515488,18,32765
3.09734,0.370666,-0.504681,15,32765
3.04943,0.354483,-0.497442,13,32765
2.92301,0.32959,-0.477242,14,32765
2.8161,0.307812,-0.460151,13,32765
2.7876,0.294965,-0.455912,14,32765
2.66089,0.272278,-0.435494,14,32765
2.63227,0.260202,-0.43109,15,32765
2.54465,0.242823,-0.416988,15,32765
2.46682,0.226974,-0.404229,14,32765
2.47734,0.219399,-0.406266,15,32765
2.34028,0.199207,-0.384437,15,32765
2.31142,0.188858,-0.379667,16,32765
2.27267,0.17793,-0.37339,15,32765
2.19453,0.164303,-0.3605,15,32765
2.14581,0.153356,-0.352647,14,32765
2.07736,0.141323,-0.341598,15,32765
2.05809,0.133009,-0.338659,15,32765
2.02899,0.124211,-0.333729,16,32765
2.03925,0.117888,-0.335379,16,32765
2.0396,0.111059,-0.335577,16,32765
1.99067,0.101612,-0.327557,16,32765
1.95157,0.0930458,-0.321091,16,32765
1.92231,0.085203,-0.316184,16,32765
1.85357,0.0759304,-0.304823,17,32765
1.85383,0.0697283,-0.304698,17,32765
1.82448,0.0624167,-0.29981,17,32765
1.79509,0.0553181,-0.294925,17,32765
1.76567,0.0485,-0.29012,16,32765
1.75599,0.0423235,-0.288282,16,32765
1.72656,0.0357748,-0.283216,16,32765
1.73656,0.0301074,-0.284719,16,32765
1.70707,0.0238823,-0.279702,16,32765
1.66771,0.0178756,-0.272993,16,32765
1.63821,0.0121479,-0.267797,17,32765
1.61855,0.00671626,-0.264263,16,32765
1.61861,0.00126308,-0.263979,16,32765
1.6088,-0.00409322,-0.261997,16,32765
1.5891,-0.00937132,-0.258394,15,32765
1.56942,-0.0144764,-0.254601,17,32765
0,-0,-0,0,32765
7.55025,5.56999,1.67029,31,32765
7.59258,5.56314,1.67268,33,32765
7.59521,5.52716,1.66581,33,32765
7.6304,5.51329,1.6656,34,32765
7.62549,5.47091,1.65589,31,32765
7.60442,5.41697,1.64305,16,32765
7.63914,5.40319,1.64289,14,32765
7.6257,5.35515,1.63175,14,32765
7.70116,5.36901,1.63912,15,32765
7.71963,5.34366,1.63506,30,32765
7.73783,5.31878,1.63019,37,32765
7.76387,5.29954,1.62753,39,32765
7.76529,5.26344,1.62074,38,32765
7.77521,5.23255,1.61449,37,32765
7.80126,5.21279,1.61169,38,32765
7.81083,5.18179,1.60628,38,32765
7.82038,5.15082,1.6002,40,32765
7.80482,5.10419,1.58861,40,32765
7.79734,5.0625,1.58035,37,32765
7.81442,5.03725,1.57664,37,32765
7.84015,5.01678,1.57403,40,32765
7.84886,4.98584,1.56895,40,32765
7.84907,4.94981,1.56192,39,32765
7.84914,4.9139,1.55457,40,32765
7.8658,4.88858,1.55019,40,32765
7.90759,4.87832,1.5519,41,32765
7.89906,4.83678,1.54357,40,32765
7.91542,4.81089,1.54065,40,32765
7.91543,4.77432,1.53256,40,32765
7.9146,4.73835,1.52632,39,32765
7.93934,4.71746,1.52385,41,32765
7.95542,4.6914,1.5204,41,32765
7.97115,4.66566,1.5172,41,32765
7.96981,4.62976,1.51094,42,32765
7.9854,4.60389,1.50771,41,32765
7.9924,4.57301,1.50265,41,32765
7.99094,4.53694,1.49569,34,32765
7.56763,4.26358,1.41168,12,32765
7.37545,4.12313,1.36975,12,32765
7.38927,4.0991,1.36735,13,32765
7.45519,4.10349,1.37327,23,32765
7.46061,4.07395,1.36908,30,32765
7.54401,4.08653,1.37998,17,32765
7.50605,4.03317,1.36735,13,32765
7.5022,3.99932,1.36181,12,32765
7.57648,4.00744,1.37106,13,32765
7.53735,3.95549,1.359,14,32765
7.71697,4.01779,1.38628,13,32765
8.04662,4.15528,1.44029,14,32765
8.10471,4.15104,1.44602,13,32765
8.05767,4.09233,1.43153,13,32765
8.10729,4.0828,1.43484,13,32765
8.0859,4.0379,1.42695,13,32765
8.06447,3.99301,1.41856,13,32765
8.09576,3.97514,1.41909,14,32765
8.17148,3.97876,1.42703,14,32765
8.10491,3.91309,1.41075,14,32765
8.13588,3.895,1.41182,14,32765
8.16709,3.87657,1.41185,14,32765
8.1623,3.84137,1.4063,14,32765
8.15747,3.80606,1.4006,14,32765
8.25116,3.81631,1.41214,14,32765
8.21919,3.7686,1.40182,14,32765
8.24109,3.74539,1.40078,15,32765
8.31693,3.74655,1.40888,17,32765
8.31171,3.71099,1.4029,17,32765
8.34258,3.69124,1.40323,17,32765
8.37312,3.67179,1.40404,17,32765
8.4131,3.65575,1.40486,17,32765
8.41643,3.6238,1.40166,17,32765
8.41977,3.59205,1.39721,17,32765
8.45022,3.5719,1.39777,18,32765
8.46249,3.54401,1.39451,18,32765
8.47481,3.51594,1.39075,18,32765
8.46835,3.48051,1.38587,19,32765
8.49863,3.4602,1.38517,19,32765
8.47353,3.41774,1.37692,19,32765
8.50336,3.39766,1.37706,19,32765
8.47826,3.35529,1.3673,21,32765
8.48955,3.32792,1.36416,27,32765
8.5193,3.30723,1.36431,27,32765
8.52134,3.27569,1.35999,25,32765
8.51395,3.24121,1.35328,20,32765
8.5343,3.21683,1.35139,14,32765
18.9993,7.09111,2.99902,23,32765
19.0233,7.02942,2.99165,34,32765
19.0011,6.95012,2.97605,41,32765
19.0613,6.90241,2.97697,67,32765
19.0945,6.84342,2.96944,20,32765
8.62602,3.06066,1.33665,22,32765
8.62707,3.02969,1.33123,24,32765
8.63733,3.00213,1.32712,24,32765
8.63806,2.97141,1.32197,24,32765
8.65756,2.94673,1.3195,25,32765
8.61096,2.90062,1.30772,26,32765
8.63022,2.87627,1.30479,24,32765
8.4987,2.80285,1.27976,19,32765
8.50796,2.77684,1.27494,19,32765
8.49846,2.74421,1.26725,19,32765
8.51699,2.72095,1.26421,18,32765
8.53568,2.69761,1.25965,18,32765
7.58334,5.60076,1.58683,45,32765
7.59399,5.57047,1.5823,44,32765
7.61257,5.54602,1.57892,44,32765
7.62386,5.51473,1.57356,45,32765
7.64294,5.48955,1.56906,45,32765
7.654,5.45834,1.56323,37,32765
7.62446,5.39877,1.54977,22,32765
7.61902,5.35636,1.54064,17,32765
7.66217,5.34769,1.54085,17,32765
7.65622,5.30556,1.53194,16,32765
7.73117,5.31999,1.53843,37,32765
7.7735,5.31188,1.5389,50,32765
7.78311,5.28122,1.5339,50,32765
7.79306,5.25021,1.52774,49,32765
7.79454,5.21389,1.52003,48,32765
7.82053,5.19378,1.51791,50,32765
7.83835,5.16815,1.51349,51,32765
7.83929,5.13218,1.50544,51,32765
7.84015,5.09567,1.49903,51,32765
7.85734,5.07023,1.49529,50,32765
7.8499,5.02829,1.48626,48,32765
7.89197,5.01845,1.48756,50,32765
7.89225,4.98221,1.48069,51,32765
7.90913,4.95658,1.47662,52,32765
7.9343,4.93624,1.47376,52,32765
7.91745,4.88941,1.46429,53,32765
7.93418,4.86323,1.46088,52,32765
7.94219,4.83205,1.45639,54,32765
7.95914,4.80553,1.45156,50,32765
7.94144,4.75919,1.44241,46,32765
7.92378,4.71292,1.43215,34,32765
7.93132,4.68185,1.42717,35,32765
7.92996,4.64615,1.42092,27,32765
7.93707,4.61528,1.41639,21,32765
7.93548,4.57958,1.41013,16,32765
7.89949,4.52425,1.39759,14,32765
7.96658,4.52749,1.40297,15,32765
7.55991,4.26333,1.32673,18,32765
7.46234,4.1757,1.30362,37,32765
7.45906,4.14175,1.29817,40,32765
7.49053,4.12685,1.2975,37,32765
7.48734,4.09239,1.29189,41,32765
7.49266,4.06251,1.28858,38,32765
7.70709,4.14504,1.31979,22,32765
7.61635,4.06391,1.29948,16,32765
7.56856,4.00692,1.28724,15,32765
7.58189,3.98249,1.28464,18,32765
7.5864,3.95338,1.28052,17,32765
7.70536,3.98262,1.29576,16,32765
8.02696,4.11489,1.34537,16,32765
8.04143,4.0877,1.34186,16,32765
8.0734,4.06931,1.34186,16,32765
8.10501,4.05097,1.34315,16,32765
8.05699,3.99276,1.33073,15,32765
8.07055,3.96616,1.32815,16,32765
8.12852,3.96121,1.33254,16,32765
8.13305,3.92999,1.32875,17,32765
8.11949,3.89041,1.32235,17,32765
8.13282,3.86351,1.31931,17,32765
8.16376,3.84522,1.31974,17,32765
8.30237,3.87683,1.33733,21,32765
8.29762,3.84091,1.33213,21,32765
8.34661,3.8301,1.3352,22,32765
8.36872,3.80643,1.33404,22,32765
8.39072,3.78278,1.33284,22,32765
8.40366,3.75499,1.32988,22,32765
8.4528,3.74291,1.33284,23,32765
8.41102,3.69125,1.32204,22,32765
8.47832,3.68691,1.32683,23,32765
8.43629,3.63509,1.31661,23,32765
8.44876,3.60711,1.31366,24,32765
8.47927,3.58683,1.31403,24,32765
8.47332,3.55115,1.30794,23,32765
8.50393,3.53058,1.30698,22,32765
8.46087,3.47994,1.29666,20,32765
8.49115,3.45962,1.29578,18,32765
8.49354,3.42822,1.29209,16,32765
18.849,7.53668,2.85726,30,32765
18.8841,7.47858,2.85016,40,32765
18.9,7.4139,2.84177,39,32765
18.9528,7.36256,2.83968,40,32765
18.9686,7.29663,2.83196,36,32765
18.9748,7.22839,2.82083,33,32765
18.9902,7.16268,2.81196,25,32765
19.0141,7.10126,2.80626,23,32765
19.0382,7.03943,2.79888,23,32765
19.081,6.98378,2.79328,24,32765
19.0762,6.91211,2.78428,29,32765
19.0907,6.84629,2.77394,46,32765
8.61825,3.05978,1.24756,17,32765
8.65666,3.04192,1.24763,29,32765
8.66693,3.01422,1.2435,34,32765
8.69578,2.99303,1.24245,35,32765
8.66843,2.95215,1.23319,36,32765
8.68751,2.92809,1.23127,36,32765
8.64102,2.88151,1.21893,37,32765
8.65051,2.85452,1.21513,36,32765
8.58451,2.80339,1.19969,30,32765
8.53731,2.75827,1.1869,26,32765
8.54642,2.73185,1.18243,21,32765
8.57457,2.71137,1.17906,22,32765
7.6064,5.60964,1.50315,38,32765
7.6245,5.58508,1.50292,36,32765
7.63472,5.5546,1.50035,35,32765
7.65323,5.52965,1.49819,33,32765
7.65554,5.49281,1.49443,33,32765
7.65796,5.45594,1.48956,33,32765
7.67591,5.43103,1.48822,35,32765
7.67747,5.39493,1.48367,21,32765
7.66263,5.34786,1.47514,15,32765
7.6804,5.32297,1.47278,16,32765
7.62489,5.24756,1.45641,13,32765
7.7403,5.28933,1.4734,25,32765
7.7826,5.28063,1.47532,40,32765
7.80047,5.25486,1.47292,40,32765
7.81829,5.229,1.47047,39,32765
7.81957,5.19227,1.46446,39,32765
7.83667,5.16708,1.46218,39,32765
7.82092,5.11978,1.45353,39,32765
7.8214,5.08355,1.44802,40,32765
7.85536,5.06835,1.44803,39,32765
7.84765,5.02637,1.44041,39,32765
7.8393,4.98501,1.43356,38,32765
7.8812,4.97519,1.43492,40,32765
7.88951,4.9443,1.43035,41,32765
7.9062,4.91838,1.42756,42,32765
7.9062,4.88162,1.42187,42,32765
7.91434,4.85022,1.41799,41,32765
7.93094,4.82399,1.41469,38,32765
7.9219,4.78279,1.40645,32,32765
7.92961,4.7517,1.40184,23,32765
7.89438,4.6956,1.39075,14,32765
7.86761,4.64454,1.38077,13,32765
7.95194,4.65831,1.38897,13,32765
7.96773,4.6319,1.38681,12,32765
7.94957,4.58547,1.37702,13,32765
7.91355,4.53002,1.36491,13,32765
7.88552,4.48015,1.3549,12,32765
7.77138,4.38148,1.3299,13,32765
7.4582,4.17253,1.27078,28,32765
7.47281,4.14734,1.26739,32,32765
7.46109,4.1079,1.26072,31,32765
7.51842,4.10713,1.26508,30,32765
7.48037,4.05373,1.25351,33,32765
7.64229,4.10894,1.27472,21,32765
7.73503,4.12533,1.28476,18,32765
7.5918,4.01631,1.25546,13,32765
7.6054,3.99153,1.25221,14,32765
7.61888,3.96656,1.2496,15,32765
7.57936,3.91471,1.238,14,32765
8.0245,4.11078,1.30425,13,32765
8.03846,4.08416,1.30187,14,32765
8.10557,4.08385,1.30798,14,32765
8.10204,4.04756,1.3026,14,32765
8.02737,3.97646,1.28514,13,32765
8.05912,3.95801,1.28439,13,32765
8.16167,3.9745,1.29589,14,32765
8.1217,3.92192,1.28401,14,32765
8.13466,3.89552,1.28232,14,32765
8.19251,3.89031,1.28605,15,32765
8.19662,3.85919,1.28239,14,32765
8.25452,3.85325,1.28658,15,32765
8.30347,3.84276,1.28965,17,32765
8.33467,3.82363,1.28873,18,32765
8.41969,3.82895,1.29753,18,32765
8.41471,3.79297,1.29165,18,32765
8.44562,3.77328,1.29205,17,32765
8.44012,3.73752,1.28749,18,32765
8.4528,3.70954,1.28526,18,32765
8.44709,3.67399,1.28001,18,32765
8.42346,3.63012,1.27092,17,32765
8.472,3.61787,1.27522,18,32765
8.47509,3.58633,1.27087,17,32765
8.45048,3.54306,1.26434,15,32765
18.8455,7.82984,2.81096,15,32765
18.4051,7.57541,2.73408,13,32765
18.3931,7.50096,2.72607,16,32765
18.8035,7.5974,2.78027,36,32765
18.8287,7.53604,2.7762,39,32765
18.8998,7.49313,2.77865,36,32765
18.9062,7.42424,2.77214,23,32765
18.9309,7.36227,2.76919,17,32765
18.955,7.30096,2.76646,17,32765
18.9795,7.23877,2.76213,16,32765
19.0031,7.17746,2.75994,17,32765
18.999,7.10458,2.75368,19,32765
18.9851,7.0295,2.74533,18,32765
19.0637,6.98893,2.75118,20,32765
19.059,6.91653,2.74385,21,32765
19.0912,6.85794,2.74157,36,32765
8.6278,3.06737,1.23689,14,32765
8.63776,3.03937,1.23652,24,32765
8.6379,3.00902,1.23503,25,32765
8.64741,2.98172,1.23472,25,32765
8.66611,2.95773,1.23611,27,32765
8.67569,2.92982,1.23542,27,32765
8.62875,2.8827,1.22762,27,32765
8.62874,2.85172,1.22536,25,32765
8.52467,2.78706,1.21027,21,32765
8.53327,2.76025,1.21113,21,32765
8.5229,2.72723,1.20967,17,32765
8.53117,2.70055,1.21121,18,32765
7.62968,5.63453,1.41709,44,32765
7.63194,5.59815,1.4139,44,32765
7.63423,5.56175,1.40995,43,32765
7.65278,5.53676,1.40778,43,32765
7.64709,5.49407,1.40273,44,32765
7.66561,5.46865,1.40098,44,32765
7.68362,5.44366,1.39964,45,32765
7.69331,5.41315,1.39674,45,32765
7.69472,5.37727,1.39151,32,32765
7.68821,5.3353,1.38474,26,32765
7.69784,5.30461,1.38089,23,32765
7.67476,5.25127,1.37193,16,32765
7.74151,5.25945,1.37797,30,32765
7.81673,5.2725,1.38575,51,32765
7.83462,5.24653,1.3833,51,32765
7.83594,5.20968,1.37746,50,32765
7.8531,5.18439,1.37517,50,32765
7.87048,5.15863,1.37265,50,32765
7.87938,5.12756,1.36876,52,32765
7.88856,5.09604,1.36424,51,32765
7.89758,5.06455,1.35976,49,32765
7.85594,5.00167,1.34744,39,32765
7.83099,4.94949,1.33708,29,32765
7.86435,4.93449,1.3369,24,32765
7.8642,4.89813,1.33127,19,32765
7.84728,4.85103,1.32294,18,32765
7.87218,4.83011,1.32199,15,32765
7.8887,4.80398,1.31871,14,32765
7.82872,4.7321,1.30231,14,32765
7.93812,4.76239,1.3147,15,32765
7.91989,4.71627,1.30697,14,32765
7.90167,4.67006,1.29885,14,32765
7.89219,4.62865,1.29092,14,32765
7.9678,4.63726,1.29853,15,32765
7.9496,4.59074,1.28911,15,32765
7.94791,4.55487,1.28311,15,32765
7.93713,4.51458,1.27631,15,32765
7.95234,4.48855,1.27341,16,32765
7.55273,4.23016,1.20398,20,32765
7.47229,4.15168,1.18544,46,32765
7.49526,4.13129,1.18453,45,32765
7.53533,4.12092,1.18567,39,32765
7.53209,4.08625,1.1801,41,32765
7.51107,4.04281,1.17114,39,32765
7.76972,4.14834,1.20617,33,32765
7.78399,4.12245,1.20289,28,32765
7.58742,3.98639,1.16717,16,32765
7.60088,3.96143,1.16457,17,32765
7.61409,3.93685,1.16158,19,32765
7.61003,3.9026,1.15499,19,32765
7.90596,4.02109,1.19547,16,32765
8.09679,4.08371,1.21972,17,32765
8.09324,4.04738,1.21453,17,32765
8.09838,4.0158,1.20994,16,32765
8.11248,3.98834,1.20633,16,32765
8.10831,3.95257,1.20104,16,32765
8.15744,3.94321,1.2029,16,32765
8.14366,3.90378,1.19726,18,32765
8.1568,3.87726,1.19395,18,32765
8.16983,3.85043,1.1917,18,32765
8.19181,3.82779,1.19022,17,32765
8.2767,3.83416,1.19814,21,32765
8.3349,3.8275,1.20094,23,32765
8.37489,3.8123,1.20251,23,32765
8.40598,3.79272,1.202,24,32765
8.40069,3.75683,1.19705,23,32765
8.43139,3.73723,1.19785,23,32765
8.45314,3.71321,1.1969,25,32765
8.43833,3.67364,1.19055,23,32765
18.7235,8.0765,2.62972,41,32765
18.7231,8.00288,2.62324,42,32765
18.7592,7.94548,2.61792,34,32765
18.7857,7.88351,2.61555,30,32765
18.7842,7.81143,2.607,23,32765
18.5449,7.63984,2.56279,14,32765
18.3403,7.48608,2.52853,15,32765
18.466,7.46761,2.53961,17,32765
18.8315,7.54374,2.58233,21,32765
18.8934,7.49709,2.58304,26,32765
18.9276,7.43899,2.5805,28,32765
18.9708,7.38403,2.58006,30,32765
18.9302,7.29751,2.56852,26,32765
19.0102,7.25652,2.57172,24,32765
18.9968,7.18097,2.56452,25,32765
19.0578,7.13232,2.56729,21,32765
19.0997,7.07761,2.5668,18,32765
18.983,6.96484,2.54584,17,32765
19.0248,6.90951,2.54504,15,32765
19.1223,6.87443,2.55139,14,32765
19.1169,6.80164,2.54624,17,32765
8.6383,3.04184,1.14886,18,32765
8.66657,3.02124,1.15121,34,32765
8.68551,2.99703,1.15213,39,32765
8.6855,2.96647,1.15094,38,32765
8.70451,2.94162,1.15149,40,32765
8.69521,2.90691,1.14923,39,32765
8.66701,2.86631,1.14332,41,32765
8.63833,2.8261,1.13931,36,32765
8.57155,2.77443,1.13023,32,32765
8.57068,2.74426,1.1302,24,32765
8.58849,2.72038,1.133,23,32765
7.61099,5.60018,1.45067,33,32765
7.61444,5.56397,1.44021,34,32765
7.6338,5.53914,1.43342,33,32765
7.63731,5.5022,1.42399,34,32765
7.65644,5.47721,1.41753,34,32765
7.67569,5.45198,1.4107,34,32765
7.68609,5.4214,1.40447,35,32765
7.69649,5.39088,1.39731,34,32765
7.69841,5.35489,1.38926,20,32765
7.70861,5.32399,1.38325,25,32765
7.70275,5.28167,1.37301,16,32765
7.6639,5.21704,1.35794,14,32765
7.78831,5.26417,1.37139,27,32765
7.82309,5.24936,1.36887,40,32765
7.84914,5.2295,1.36537,41,32765
7.85878,5.19832,1.35923,39,32765
7.85997,5.16186,1.35134,39,32765
7.84432,5.1146,1.34132,38,32765
7.86172,5.08904,1.33667,39,32765
7.87064,5.05802,1.33112,35,32765
7.86291,5.01633,1.3219,26,32765
7.83,4.95862,1.30873,17,32765
7.74623,4.86963,1.28852,13,32765
7.83008,4.88606,1.29561,13,32765
7.81278,4.83965,1.2871,12,32765
7.86295,4.83497,1.28825,13,32765
7.87949,4.80923,1.28346,13,32765
7.89556,4.78366,1.28029,13,32765
7.91159,4.75803,1.27681,13,32765
7.89352,4.71215,1.26742,13,32765
7.90963,4.68606,1.2637,13,32765
7.95999,4.67966,1.26557,12,32765
7.94208,4.63292,1.25612,13,32765
7.95823,4.60603,1.25277,13,32765
7.9737,4.58012,1.2494,13,32765
7.9889,4.55449,1.246,13,32765
8.00399,4.5287,1.24319,13,32765
7.94123,4.45919,1.22825,13,32765
7.80916,4.3511,1.2022,14,32765
7.47684,4.13362,1.14649,33,32765
7.47369,4.0992,1.14041,33,32765
7.48758,4.07461,1.1374,33,32765
7.54493,4.07354,1.14136,29,32765
7.49775,4.01552,1.12947,33,32765
7.65141,4.06545,1.14701,24,32765
7.84935,4.1372,1.17206,30,32765
7.68762,4.01955,1.14292,15,32765
7.58666,3.93503,1.1236,14,32765
7.58231,3.90109,1.11809,15,32765
7.5866,3.87154,1.1148,15,32765
7.71488,3.90445,1.12883,14,32765
8.03862,4.03415,1.17094,14,32765
8.08808,4.02485,1.17286,14,32765
8.1553,4.02391,1.17819,14,32765
8.13342,3.97924,1.17045,14,32765
8.14699,3.95224,1.16759,14,32765
8.1785,3.9336,1.16677,13,32765
8.20966,3.91485,1.16803,14,32765
8.17817,3.86648,1.15857,15,32765
8.20926,3.84806,1.15765,15,32765
8.20414,3.81281,1.15276,15,32765
8.26211,3.80647,1.15641,14,32765
8.3201,3.79978,1.16017,18,32765
8.33307,3.77216,1.15721,18,32765
8.41836,3.77696,1.16441,19,32765
8.43129,3.74911,1.16083,19,32765
8.44423,3.72072,1.15809,19,32765
8.42044,3.67686,1.15088,18,32765
8.45131,3.65658,1.15027,18,32765
8.43652,3.6166,1.14359,15,32765
18.8067,7.9885,2.53756,21,32765
18.7236,7.8806,2.51836,16,32765
18.7502,7.81947,2.51117,18,32765
18.8225,7.77708,2.51009,18,32765
18.8486,7.71591,2.50341,20,32765
18.4612,7.48511,2.44193,14,32765
18.4409,7.40526,2.4283,15,32765
18.5308,7.36991,2.42914,16,32765
18.8699,7.43258,2.46365,18,32765
19.0149,7.41853,2.4723,19,32765
19.0395,7.35706,2.46664,14,32765
18.9809,7.26394,2.44598,13,32765
18.8099,7.12905,2.41469,12,32765
19.1127,7.17293,2.443,12,32765
19.0994,7.09762,2.43018,13,32765
19.1606,7.04926,2.42778,13,32765
19.1007,6.95554,2.40938,13,32765
8.70722,3.13863,1.09351,11,32765
18.8294,6.71819,2.35279,12,32765
8.86879,3.1319,1.10306,11,32765
19.1557,6.69483,2.3715,15,32765
8.65513,2.99318,1.06679,14,32765
8.66511,2.96547,1.06311,26,32765
8.70326,2.94748,1.06214,31,32765
8.70354,2.91715,1.05649,33,32765
8.71301,2.89013,1.05275,34,32765
8.7132,2.8595,1.04705,31,32765
8.69429,2.82287,1.03957,34,32765
8.71325,2.79846,1.0354,35,32765
8.58033,2.72644,1.01396,30,32765
8.57035,2.69459,1.00493,25,32765
7.6178,5.61324,1.3617,45,32765
7.63721,5.58862,1.35424,44,32765
7.6406,5.55202,1.34461,46,32765
7.66016,5.52656,1.33816,45,32765
7.67934,5.50145,1.33168,46,32765
7.67442,5.45886,1.32066,45,32765
7.701,5.43965,1.31729,46,32765
7.71142,5.40902,1.31021,45,32765
7.71336,5.3729,1.30232,45,32765
7.7073,5.33062,1.29366,31,32765
7.71775,5.29943,1.28642,22,32765
7.68708,5.24019,1.27334,19,32765
7.72137,5.22626,1.27071,17,32765
7.77246,5.2227,1.27073,30,32765
7.81489,5.21396,1.26985,36,32765
7.79966,5.16641,1.25981,26,32765
7.79242,5.12462,1.25081,20,32765
7.7932,5.08832,1.24385,15,32765
7.82712,5.07366,1.24187,14,32765
7.78596,5.0105,1.22852,14,32765
7.8365,5.00636,1.22881,14,32765
7.84536,4.97516,1.22273,15,32765
7.82028,4.9229,1.21274,17,32765
7.8455,4.90235,1.20997,15,32765
7.86193,4.8767,1.20699,14,32765
7.91223,4.87185,1.20773,15,32765
7.87811,4.81487,1.19521,15,32765
7.91114,4.79955,1.1946,15,32765
7.91023,4.76358,1.18856,15,32765
7.94322,4.74814,1.18717,16,32765
7.90825,4.69147,1.17581,15,32765
7.92446,4.66494,1.17225,15,32765
7.97498,4.65825,1.17327,16,32765
7.95688,4.6113,1.16487,15,32765
7.92935,4.56062,1.15524,15,32765
7.97033,4.54983,1.1556,15,32765
7.9854,4.52405,1.15279,16,32765
7.99174,4.49336,1.14864,16,32765
7.98963,4.45739,1.14274,16,32765
7.59657,4.2052,1.08205,21,32765
7.49796,4.11777,1.06255,44,32765
7.52062,4.0978,1.06075,47,32765
7.5519,4.08247,1.06055,39,32765
7.57466,4.06182,1.05909,41,32765
7.53582,4.00906,1.04829,39,32765
7.77763,4.10453,1.07749,25,32765
7.88823,4.12957,1.08783,36,32765
7.74348,4.02135,1.06362,20,32765
7.60703,3.91863,1.04012,17,32765
7.64673,3.90702,1.04174,18,32765
7.6424,3.87249,1.03651,19,32765
7.67356,3.85563,1.03586,18,32765
8.06012,4.0158,1.08292,16,32765
8.12736,4.01495,1.08769,18,32765
8.12325,3.97902,1.08271,18,32765
8.13681,3.95201,1.07985,17,32765
8.14149,3.92045,1.0753,17,32765
8.17263,3.90178,1.07638,17,32765
8.16797,3.86619,1.07092,18,32765
8.20805,3.85198,1.07099,19,32765
8.20293,3.81668,1.06628,19,32765
8.21585,3.78953,1.06363,19,32765
8.20157,3.74995,1.05761,18,32765
8.34101,3.78007,1.07096,26,32765
8.39014,3.76859,1.07277,24,32765
8.42119,3.74885,1.07151,26,32765
8.44321,3.72446,1.06992,25,32765
8.4467,3.69245,1.06653,24,32765
8.46852,3.6681,1.06458,25,32765
8.47199,3.63582,1.06045,25,32765
8.49353,3.61175,1.05798,20,32765
18.7782,7.91222,2.33132,26,32765
18.8324,7.86229,2.32751,22,32765
18.8314,7.78917,2.31689,19,32765
18.8758,7.7354,2.31245,16,32765
18.8564,7.65354,2.30009,14,32765
0,0,0,14,32765
18.4101,7.32966,2.22431,17,32765
18.5089,7.29808,2.22676,17,32765
18.8017,7.34304,2.25206,14,32765
18.8631,7.29649,2.25088,14,32765
18.9155,7.24644,2.24437,14,32765
18.958,7.19259,2.24032,14,32765
19.0379,7.1522,2.23949,15,32765
19.0804,7.09778,2.23362,14,32765
19.1043,7.03567,2.2265,14,32765
19.1283,6.9726,2.21871,14,32765
19.1891,6.9239,2.21537,14,32765
8.70742,3.10984,0.999851,13,32765
8.6335,3.05183,0.986481,12,32765
8.69066,3.04034,0.988128,12,32765
8.75731,3.03148,0.991029,13,32765
8.70155,2.98084,0.979887,19,32765
8.71149,2.95313,0.975452,38,32765
8.73061,2.92904,0.971988,48,32765
8.74009,2.90189,0.968241,50,32765
8.74973,2.87423,0.963653,50,32765
8.76866,2.84971,0.960582,52,32765
8.74032,2.80981,0.951119,50,32765
8.73051,2.77677,0.944398,50,32765
8.64471,2.72052,0.927291,52,32765
7.64207,5.62225,1.25458,37,32765
7.66113,5.59642,1.25386,36,32765
7.66361,5.55951,1.25039,35,32765
7.65736,5.51771,1.24504,35,32765
7.68297,5.49946,1.24449,35,32765
7.70123,5.47441,1.24209,36,32765
7.70326,5.43761,1.23786,36,32765
7.72151,5.41215,1.23569,37,32765
7.73145,5.38117,1.23195,35,32765
7.74105,5.35042,1.22848,37,32765
7.75064,5.31953,1.22498,27,32765
7.74364,5.27768,1.21845,18,32765
7.76136,5.25226,1.21553,24,32765
7.75441,5.20996,1.20904,14,32765
7.82148,5.21731,1.2143,14,32765
7.83117,5.1856,1.20968,13,32765
7.79888,5.12706,1.19953,12,32765
7.74109,5.05295,1.1856,12,32765
7.83276,5.07631,1.19462,13,32765
7.84944,5.05108,1.192,13,32765
7.81622,4.99332,1.18148,12,32765
7.83298,4.96774,1.17833,13,32765
7.86642,4.95268,1.17784,13,32765
7.84938,4.90594,1.16958,15,32765
7.82354,4.85419,1.16081,13,32765
7.87391,4.84895,1.16259,13,32765
7.85671,4.80194,1.15408,13,32765
7.90715,4.7961,1.15623,13,32765
7.92347,4.76998,1.15249,13,32765
7.93941,4.74402,1.14994,13,32765
7.92102,4.69795,1.14245,13,32765
7.9367,4.67233,1.13864,13,32765
7.9525,4.64611,1.1357,13,32765
8.00284,4.63944,1.13689,13,32765
7.93279,4.56297,1.12184,13,32765
7.94842,4.53646,1.11873,13,32765
7.93792,4.49567,1.11108,13,32765
7.99625,4.49394,1.11446,13,32765
7.99396,4.45822,1.10873,13,32765
7.93098,4.3887,1.09352,14,32765
7.51063,4.12349,1.03158,29,32765
7.51604,4.09367,1.02734,38,32765
7.51252,4.05931,1.02181,33,32765
7.61384,4.08122,1.03109,29,32765
7.52247,4.00019,1.01357,33,32765
7.6503,4.03555,1.02536,27,32765
7.85747,4.11176,1.04811,31,32765
7.85384,4.07647,1.04291,26,32765
7.66471,3.94563,1.0132,14,32765
7.6429,3.90188,1.00549,15,32765
7.65639,3.87622,1.00207,15,32765
7.68748,3.85961,1.00085,15,32765
7.98515,3.97594,1.03427,13,32765
8.15882,4.02879,1.05266,15,32765
8.17257,4.00167,1.04947,15,32765
8.16845,3.96571,1.04363,15,32765
8.10152,3.89946,1.03059,14,32765
8.20451,3.91535,1.03853,14,32765
8.19975,3.88,1.03281,14,32765
8.22165,3.85751,1.03138,15,32765
8.21655,3.82225,1.02621,15,32765
8.22944,3.79519,1.02335,15,32765
8.19718,3.74727,1.01445,15,32765
8.31842,3.7694,1.02546,18,32765
8.39488,3.76989,1.03034,19,32765
8.39874,3.73761,1.0266,20,32765
8.42047,3.71373,1.02546,19,32765
8.43294,3.68631,1.0219,19,32765
8.48164,3.6747,1.0239,19,32765
8.45749,3.631,1.01702,20,32765
8.46984,3.60271,1.01478,19,32765
8.44552,3.55896,1.00768,12,32765
18.7039,7.80815,2.22457,12,32765
8.47851,3.50694,1.00457,11,32765
18.912,7.75037,2.23213,12,32765
18.8544,7.65553,2.21899,12,32765
18.6032,7.48269,2.18115,13,32765
18.434,7.34514,2.15359,15,32765
18.5321,7.31457,2.15909,16,32765
18.8156,7.35555,2.18448,13,32765
19.0994,7.39464,2.21183,12,32765
18.9658,7.27262,2.18924,13,32765
18.9899,7.2105,2.18532,13,32765
19.0135,7.14904,2.18284,13,32765
18.9998,7.07315,2.1747,12,32765
19.1259,7.04843,2.18407,13,32765
19.0463,6.94901,2.16875,12,32765
19.0692,6.88703,2.16525,12,32765
8.65149,3.09306,0.980916,12,32765
8.61468,3.04829,0.97536,12,32765
8.74671,3.06301,0.987629,12,32765
0,0,0,14,32765
8.69112,2.98088,0.977924,14,32765
8.69118,2.95011,0.976316,29,32765
8.70993,2.9255,0.977824,34,32765
8.70989,2.89451,0.976001,37,32765
8.738,2.87305,0.977446,36,32765
8.73731,2.84275,0.977596,35,32765
8.69871,2.80045,0.972614,36,32765
8.66002,2.75774,0.968714,34,32765
8.57406,2.69956,0.958929,35,32765
7.65466,5.64108,1.16657,45,32765
7.65779,5.60342,1.16341,45,32765
7.67637,5.57811,1.16255,46,32765
7.69433,5.55361,1.16112,45,32765
7.69588,5.51786,1.15682,46,32765
7.69804,5.4812,1.15199,46,32765
7.72442,5.46152,1.15157,47,32765
7.73464,5.43024,1.14818,47,32765
7.7365,5.39346,1.14332,48,32765
7.75431,5.36829,1.14114,48,32765
7.77214,5.34291,1.13892,47,32765
7.7652,5.3009,1.13266,40,32765
7.74191,5.24751,1.12376,20,32765
7.75141,5.21626,1.11994,17,32765
7.74424,5.17399,1.11394,18,32765
7.80342,5.17541,1.11655,18,32765
7.82913,5.15506,1.11523,15,32765
7.81294,5.10786,1.10802,14,32765
7.82156,5.07697,1.10441,15,32765
7.79651,5.02483,1.09592,14,32765
7.83846,5.01529,1.09651,15,32765
7.87205,5.00023,1.09568,15,32765
7.87201,4.96383,1.09033,15,32765
7.8634,4.92224,1.0836,14,32765
7.87977,4.89654,1.08107,19,32765
7.90494,4.87547,1.079,16,32765
7.85391,4.80751,1.06624,15,32765
7.93836,4.8223,1.0726,15,32765
7.93775,4.78577,1.06655,15,32765
7.93669,4.7495,1.06171,15,32765
7.91829,4.70334,1.0546,15,32765
7.96822,4.69786,1.05532,16,32765
7.9841,4.67149,1.05236,16,32765
7.9658,4.62479,1.04415,16,32765
7.98174,4.59788,1.04128,15,32765
7.99748,4.57116,1.03814,16,32765
7.96978,4.52031,1.02851,16,32765
7.98493,4.49411,1.02584,16,32765
8.04335,4.49228,1.02806,16,32765
8.03257,4.45135,1.02029,16,32765
7.70791,4.23789,0.975114,19,32765
7.513,4.09789,0.945619,40,32765
7.5357,4.07766,0.943559,43,32765
7.54081,4.04783,0.939886,40,32765
7.58962,4.04163,0.940922,40,32765
7.56824,3.99791,0.933038,42,32765
7.79304,4.08379,0.955918,34,32765
7.91279,4.11284,0.966,42,32765
7.90921,4.07719,0.960966,36,32765
7.71076,3.942,0.932132,17,32765
7.68891,3.89809,0.924412,17,32765
7.68453,3.86348,0.91874,18,32765
7.72435,3.85139,0.918473,18,32765
7.91556,3.91404,0.937364,16,32765
8.13427,3.98837,0.958462,19,32765
8.16586,3.96986,0.957017,18,32765
8.16158,3.93371,0.952127,18,32765
8.19296,3.91513,0.950776,18,32765
8.18817,3.87975,0.945248,17,32765
8.21908,3.86149,0.944761,18,32765
8.21398,3.82616,0.939775,21,32765
8.22688,3.79906,0.936906,21,32765
8.23981,3.77175,0.933595,19,32765
8.25251,3.74447,0.931206,19,32765
8.31985,3.7411,0.934428,24,32765
8.3963,3.74141,0.938937,30,32765
8.43624,3.72553,0.939729,28,32765
8.47608,3.70998,0.939188,28,32765
8.47926,3.67841,0.935754,25,32765
8.4825,3.64642,0.932263,25,32765
8.50407,3.62189,0.931019,27,32765
8.50727,3.58955,0.927271,24,32765
8.57453,3.58406,0.931475,14,32765
18.8828,7.82027,2.04302,15,32765
18.9732,7.78521,2.04439,12,32765
18.8973,7.68249,2.03011,13,32765
18.9044,7.61325,2.02271,14,32765
18.6338,7.43389,1.98619,14,32765
0,0,0,14,32765
18.5529,7.26167,1.96455,17,32765
18.8459,7.30531,1.99029,15,32765
19.0092,7.29801,2.00064,14,32765
18.9311,7.19673,1.98597,14,32765
19.0384,7.16691,1.99226,15,32765
19.146,7.13598,1.99713,13,32765
19.0856,7.04183,1.98601,14,32765
19.1088,6.97991,1.9824,14,32765
8.62052,3.11699,0.89166,12,32765
8.67744,3.10588,0.8962,12,32765
8.66878,3.07092,0.894012,13,32765
8.68828,3.04597,0.89346,16,32765
8.68875,3.01458,0.891903,14,32765
8.69845,2.98669,0.891262,14,32765
8.67025,2.94624,0.886852,20,32765
8.71732,2.93116,0.891157,44,32765
8.76452,2.9158,0.894244,53,32765
8.77382,2.8879,0.89357,54,32765
8.76374,2.85435,0.892852,54,32765
8.77252,2.82715,0.893161,55,32765
8.74339,2.78715,0.890706,52,32765
8.70492,2.74354,0.8867,54,32765
7.62807,5.60202,1.20066,35,32765
7.64813,5.5763,1.19273,34,32765
7.65998,5.54462,1.18438,36,32765
7.67097,5.51378,1.17679,35,32765
7.68955,5.48912,1.17082,35,32765
7.71634,5.47014,1.16469,36,32765
7.71884,5.43342,1.15651,35,32765
7.73737,5.4082,1.15095,36,32765
7.73116,5.36609,1.14216,35,32765
7.75771,5.34651,1.13703,36,32765
7.74302,5.29866,1.12797,38,32765
7.73652,5.25661,1.11838,29,32765
7.70516,5.1978,1.10588,15,32765
7.73959,5.18334,1.1028,14,32765
7.73264,5.14107,1.09459,14,32765
7.84153,5.17554,1.10263,15,32765
7.78443,5.10054,1.08818,13,32765
7.835,5.09691,1.08738,13,32765
7.85205,5.07153,1.08303,13,32765
7.90247,5.06781,1.08204,13,32765
7.88576,5.02096,1.0737,13,32765
7.93623,5.01656,1.07373,13,32765
7.84375,4.92206,1.05417,13,32765
7.86028,4.89657,1.04977,12,32765
7.88535,4.87595,1.04655,15,32765
7.86799,4.82898,1.03916,14,32765
7.90993,4.81839,1.0385,13,32765
7.89233,4.77174,1.02956,13,32765
7.90836,4.74585,1.02619,13,32765
7.9245,4.71969,1.02236,13,32765
7.94063,4.69358,1.01738,13,32765
7.95659,4.66735,1.01332,13,32765
7.97253,4.64096,1.00926,13,32765
7.93632,4.58517,0.999693,13,32765
8.00361,4.58868,1.00232,13,32765
7.98448,4.54276,0.994449,13,32765
7.99988,4.5165,0.990314,14,32765
8.08469,4.52885,0.99486,14,32765
8.03029,4.4636,0.984045,14,32765
8.01063,4.41802,0.975134,14,32765
7.98173,4.36787,0.967608,14,32765
7.53312,4.09033,0.908693,27,32765
7.51193,4.04657,0.90149,33,32765
7.55195,4.03581,0.901303,34,32765
7.60083,4.02919,0.903102,28,32765
7.56173,3.97619,0.893392,34,32765
7.64578,3.98774,0.899403,28,32765
7.9069,4.09004,0.924677,26,32765
7.92089,4.0634,0.922362,36,32765
7.84615,3.99176,0.909027,19,32765
7.70883,3.88936,0.88838,14,32765
7.68668,3.84549,0.881346,14,32765
7.69961,3.82007,0.878992,15,32765
7.7482,3.81212,0.88065,15,32765
8.09194,3.94784,0.915197,14,32765
8.18588,3.96023,0.920572,16,32765
8.21746,3.94134,0.919152,15,32765
8.19476,3.89709,0.912667,15,32765
8.217,3.87403,0.910887,14,32765
8.21212,3.83833,0.905749,15,32765
8.23409,3.8153,0.904277,15,32765
8.21087,3.77156,0.896338,17,32765
8.29602,3.77735,0.901772,17,32765
8.27248,3.73362,0.894688,16,32765
8.2853,3.70603,0.890766,16,32765
8.37058,3.71085,0.896059,23,32765
8.40155,3.69075,0.894833,21,32765
8.44143,3.6747,0.895139,22,32765
8.47221,3.65462,0.893466,20,32765
8.4938,3.63024,0.891696,19,32765
8.48791,3.59415,0.886007,20,32765
8.491,3.5619,0.882205,20,32765
8.53084,3.54501,0.880924,18,32765
8.54267,3.517,0.878537,12,32765
18.9526,7.73017,1.93863,14,32765
18.9785,7.66837,1.93033,12,32765
18.7819,7.51794,1.90299,12,32765
18.9737,7.52252,1.91273,13,32765
18.6931,7.3404,1.8748,13,32765
0,0,0,14,32765
18.5842,7.15759,1.84287,14,32765
18.9523,7.22839,1.87009,14,32765
19.0696,7.20218,1.87128,13,32765
19.0562,7.1263,1.8603,13,32765
19.0804,7.06354,1.85207,13,32765
19.1419,7.01402,1.84693,13,32765
8.68871,3.15121,0.833387,12,32765
17.014,6.10856,1.62242,12,32765
8.70961,3.09494,0.826117,12,32765
8.68231,3.05385,0.81801,14,32765
8.73001,3.03904,0.818339,12,32765
8.74007,3.01104,0.814332,14,32765
8.72165,2.9738,0.807297,15,32765
8.76893,2.9596,0.8067,16,32765
8.74077,2.91934,0.799253,15,32765
8.74099,2.88814,0.794558,27,32765
8.77924,2.86898,0.791759,40,32765
8.76975,2.83502,0.785265,43,32765
8.78818,2.81165,0.781101,44,32765
8.77808,2.77906,0.774458,44,32765
8.77763,2.7489,0.767913,42,32765
7.66411,5.6384,1.11634,46,32765
7.66821,5.60078,1.10605,46,32765
7.69619,5.58063,1.10007,47,32765
7.69114,5.53799,1.09025,46,32765
7.69361,5.50164,1.08198,47,32765
7.7123,5.47685,1.07462,47,32765
7.73103,5.45152,1.06887,45,32765
7.74959,5.4262,1.0633,47,32765
7.7679,5.40098,1.0581,48,32765
7.77,5.36429,1.04954,47,32765
7.77993,5.33316,1.04414,50,32765
7.78994,5.30207,1.03698,49,32765
7.79163,5.26522,1.02934,38,32765
7.75197,5.20059,1.01628,21,32765
7.76161,5.16921,1.01049,19,32765
7.77939,5.14335,1.00568,18,32765
7.82188,5.13385,1.00492,19,32765
7.87256,5.13009,1.00371,17,32765
7.84797,5.07753,0.994043,15,32765
7.85656,5.04694,0.987421,14,32765
7.83976,5.00014,0.979465,14,32765
7.87335,4.98524,0.977058,15,32765
7.89015,4.95955,0.972236,15,32765
7.87304,4.91278,0.963677,15,32765
7.91507,4.90256,0.962409,14,32765
7.89778,4.85538,0.955375,17,32765
7.88038,4.80841,0.94727,19,32765
7.92227,4.79782,0.945822,15,32765
7.93839,4.77178,0.942438,16,32765
7.97169,4.75566,0.940607,16,32765
7.9708,4.7192,0.933579,16,32765
7.98684,4.69282,0.929506,16,32765
8.00285,4.66627,0.925424,16,32765
7.95808,4.60528,0.915409,16,32765
7.98231,4.58395,0.912528,16,32765
8.01501,4.56757,0.910932,16,32765
7.98717,4.51665,0.901885,16,32765
8.0286,4.50473,0.900815,16,32765
8.03496,4.47341,0.89756,17,32765
8.0153,4.42771,0.889016,17,32765
8.05623,4.41572,0.889663,17,32765
7.77365,4.22768,0.853928,18,32765
7.54264,4.06959,0.824029,41,32765
7.54765,4.03993,0.819732,45,32765
7.5526,4.00997,0.816401,46,32765
7.58387,3.99413,0.814842,35,32765
7.5886,3.96414,0.8116,44,32765
7.6995,3.989,0.818303,30,32765
7.94339,4.08132,0.840404,28,32765
7.95736,4.05465,0.837328,40,32765
7.88237,3.98309,0.824733,24,32765
7.70027,3.85826,0.801327,16,32765
7.70433,3.82831,0.798041,17,32765
7.72618,3.80712,0.796557,17,32765
7.75696,3.79021,0.795527,17,32765
8.10133,3.92531,0.825785,19,32765
8.18665,3.93254,0.829667,21,32765
8.19987,3.90543,0.827191,20,32765
8.21313,3.87806,0.824407,20,32765
8.19021,3.83384,0.817654,18,32765
8.22119,3.81504,0.816989,18,32765
8.23413,3.7879,0.813002,19,32765
8.27407,3.77297,0.813221,22,32765
8.26864,3.73743,0.808292,21,32765
8.26327,3.70165,0.802602,21,32765
8.29396,3.68231,0.801867,21,32765
8.37954,3.68649,0.805739,29,32765
8.45595,3.68642,0.809263,30,32765
8.48677,3.66624,0.807393,31,32765
8.50839,3.64177,0.805522,28,32765
8.53921,3.62112,0.803462,26,32765
8.53319,3.58477,0.798873,27,32765
8.52711,3.54857,0.79301,28,32765
8.54817,3.52432,0.791473,26,32765
8.58764,3.50765,0.790501,14,32765
8.53474,3.45343,0.780825,12,32765
18.9421,7.5928,1.7258,13,32765
18.9675,7.53068,1.71868,13,32765
18.8999,7.4321,1.70306,13,32765
18.5998,7.24394,1.66497,14,32765
18.5311,7.14716,1.64936,15,32765
18.6294,7.11517,1.64922,16,32765
19.0259,7.19573,1.67421,17,32765
19.0499,7.13382,1.66688,16,32765
19.1301,7.09175,1.66353,15,32765
8.70224,3.19309,0.751789,14,32765
8.66621,3.14738,0.743845,15,32765
8.71415,3.13295,0.743198,12,32765
17.3083,6.15891,1.4676,19,32765
17.3194,6.1001,1.45773,18,32765
8.66972,3.02216,0.725673,14,32765
8.70798,3.00406,0.724042,21,32765
8.72724,2.97974,0.720419,27,32765
8.73675,2.95272,0.716343,16,32765
8.7558,2.9283,0.713135,18,32765
8.73709,2.89073,0.706992,18,32765
8.73742,2.85914,0.700872,35,32765
8.78478,2.84368,0.699116,50,32765
8.79371,2.81717,0.694097,53,32765
8.80259,2.79054,0.689126,55,32765
8.81165,2.76324,0.683394,54,32765
7.67668,5.64127,1.01048,39,32765
7.68763,5.60971,1.00817,37,32765
7.70626,5.58445,1.00616,36,32765
7.70881,5.5473,1.00214,35,32765
7.72717,5.52193,1.00083,36,32765
7.72955,5.48471,0.99647,37,32765
7.74777,5.45948,0.993539,37,32765
7.74917,5.42333,0.988923,37,32765
7.76714,5.39801,0.986478,38,32765
7.78512,5.37253,0.983852,37,32765
7.78682,5.3353,0.97987,37,32765
7.81317,5.31505,0.977086,39,32765
7.78137,5.256,0.968658,38,32765
7.79903,5.23035,0.965547,33,32765
7.80799,5.19969,0.960978,19,32765
7.81687,5.16863,0.958246,16,32765
7.75937,5.09383,0.945516,15,32765
7.85174,5.11683,0.951099,15,32765
7.86088,5.08506,0.947057,13,32765
7.91172,5.08029,0.947569,13,32765
7.78609,4.96329,0.927854,13,32765
7.87836,4.98571,0.933286,13,32765
7.89481,4.96031,0.929681,13,32765
7.91114,4.93481,0.926502,13,32765
7.92743,4.90933,0.922635,13,32765
7.94409,4.88278,0.920189,13,32765
7.92667,4.83551,0.913627,15,32765
7.90044,4.78351,0.905235,14,32765
7.95082,4.77765,0.906011,13,32765
7.96691,4.75144,0.902518,13,32765
7.94863,4.70499,0.894874,14,32765
7.93035,4.65836,0.887032,14,32765
7.94581,4.63237,0.884781,14,32765
7.99597,4.62607,0.884528,13,32765
7.9596,4.57005,0.876216,13,32765
7.9925,4.55332,0.874544,13,32765
7.99081,4.51674,0.868548,13,32765
8.02378,4.49957,0.86623,13,32765
8.03916,4.4727,0.862857,14,32765
8.09783,4.47011,0.864526,15,32765
8.03428,4.4004,0.852507,14,32765
8.04917,4.37398,0.848103,15,32765
7.57294,4.08305,0.793034,24,32765
7.55161,4.03923,0.786007,37,32765
7.51247,3.98621,0.777501,38,32765
7.59649,3.9983,0.781849,27,32765
7.54827,3.9408,0.772185,34,32765
7.61475,3.94303,0.774701,31,32765
7.9207,4.06761,0.800363,26,32765
7.94329,4.0458,0.798831,36,32765
7.94834,4.01448,0.794667,28,32765
7.73046,3.87185,0.768831,14,32765
7.70799,3.82839,0.761509,14,32765
7.72103,3.80272,0.758015,14,32765
7.69787,3.7601,0.751326,14,32765
7.93499,3.84262,0.769927,15,32765
8.2087,3.94078,0.791831,17,32765
8.20405,3.90491,0.787152,17,32765
8.21725,3.87769,0.784078,16,32765
8.22999,3.85117,0.781134,16,32765
8.20681,3.80724,0.774305,15,32765
8.21961,3.78009,0.771529,15,32765
8.26855,3.76962,0.77167,17,32765
8.24507,3.72552,0.765301,17,32765
8.33026,3.73103,0.769233,16,32765
8.25185,3.66272,0.758345,16,32765
8.32826,3.66314,0.76051,20,32765
8.43191,3.67538,0.76644,24,32765
8.43508,3.64359,0.762922,23,32765
8.49296,3.63568,0.764424,23,32765
8.48691,3.5997,0.759651,21,32765
8.53579,3.58701,0.760108,21,32765
8.52915,3.55159,0.756736,21,32765
8.54105,3.5235,0.753902,22,32765
8.53415,3.48822,0.750368,15,32765
18.8195,7.61945,1.64584,13,32765
19.0207,7.62786,1.65595,12,32765
18.9904,7.5437,1.64573,12,32765
19.034,7.4886,1.64235,12,32765
18.817,7.33265,1.61848,12,32765
18.6367,7.19181,1.5973,14,32765
18.6236,7.1161,1.58868,14,32765
18.9454,7.1679,1.61161,14,32765
19.137,7.16909,1.62145,14,32765
19.1322,7.09741,1.61458,12,32765
8.68399,3.18936,0.731231,12,32765
0,0,0,12,32765
17.3062,6.22894,1.44842,13,32765
17.2988,6.16167,1.44326,16,32765
17.4126,6.13927,1.44962,15,32765
17.395,6.0696,1.44374,14,32765
8.7452,3.01926,0.723811,14,32765
8.70778,2.97501,0.718865,15,32765
8.70781,2.94395,0.718031,13,32765
8.73595,2.92285,0.719555,13,32765
8.75484,2.89793,0.719251,14,32765
8.76408,2.86982,0.719372,31,32765
8.77314,2.84199,0.719507,41,32765
8.78198,2.81443,0.719996,42,32765
8.79058,2.7872,0.720978,42,32765
8.7896,2.75663,0.722134,40,32765
7.7026,5.67172,0.923918,49,32765
7.70564,5.63414,0.920724,47,32765
7.71632,5.60291,0.917745,46,32765
7.72701,5.57146,0.914864,48,32765
7.72929,5.53439,0.911633,48,32765
7.75606,5.51438,0.910307,50,32765
7.74999,5.47178,0.904512,48,32765
7.76775,5.44697,0.901968,49,32765
7.77764,5.41584,0.898566,49,32765
7.79568,5.39027,0.89593,48,32765
7.79745,5.35293,0.892125,48,32765
7.79918,5.31577,0.88643,49,32765
7.81686,5.29012,0.884157,49,32765
7.8181,5.25318,0.879166,48,32765
7.85199,5.23897,0.877453,47,32765
7.81951,5.1802,0.870179,27,32765
7.84521,5.15994,0.867483,25,32765
7.82944,5.11194,0.860268,25,32765
7.8302,5.07475,0.855409,19,32765
7.88102,5.07008,0.855555,17,32765
7.88121,5.03333,0.851029,15,32765
7.90645,5.01282,0.84835,15,32765
7.88084,4.96074,0.840233,15,32765
7.89717,4.93524,0.837053,15,32765
7.94731,4.93074,0.836751,15,32765
7.92164,4.87796,0.829851,14,32765
7.92969,4.84624,0.826322,16,32765
7.93755,4.81478,0.821918,19,32765
7.90271,4.75741,0.813514,18,32765
7.96149,4.75684,0.814411,16,32765
7.97748,4.73063,0.81062,16,32765
7.9936,4.70402,0.806598,16,32765
8.00922,4.67776,0.804324,17,32765
7.99058,4.63127,0.796783,16,32765
8.00603,4.60496,0.794168,17,32765
8.00444,4.56828,0.788872,17,32765
8.02012,4.5414,0.784748,16,32765
8.04449,4.51921,0.781378,17,32765
8.04251,4.48251,0.776311,16,32765
8.04019,4.44615,0.771647,17,32765
8.06389,4.42442,0.768821,17,32765
8.06133,4.38831,0.76274,18,32765
7.94445,4.29089,0.746698,18,32765
7.55485,4.04804,0.705424,38,32765
7.55091,4.01362,0.700742,45,32765
7.57334,3.99306,0.698627,42,32765
7.61338,3.98171,0.697719,33,32765
7.59155,3.93783,0.691583,44,32765
7.72919,3.97613,0.69893,39,32765
7.96457,4.06363,0.716529,32,32765
7.97856,4.03667,0.713241,41,32765
7.99232,4.00986,0.710419,32,32765
7.82749,3.89438,0.690737,17,32765
7.7871,3.8418,0.682484,16,32765
7.74613,3.79011,0.674578,16,32765
7.75919,3.76386,0.671406,16,32765
7.90696,3.80235,0.679841,17,32765
8.20782,3.9133,0.701611,22,32765
8.22104,3.886,0.698532,22,32765
8.20672,3.84672,0.693294,22,32765
8.23775,3.82799,0.691399,21,32765
8.24157,3.79651,0.687852,19,32765
8.26335,3.77352,0.685348,19,32765
8.26712,3.74168,0.681599,22,32765
8.27961,3.71448,0.678802,22,32765
8.31044,3.69481,0.677781,23,32765
8.27746,3.64679,0.67039,22,32765
8.35368,3.64725,0.673183,26,32765
8.46659,3.66318,0.678583,37,32765
8.46956,3.63157,0.675218,31,32765
8.52773,3.62289,0.675728,32,32765
8.53993,3.59456,0.672895,26,32765
8.55173,3.56674,0.671152,26,32765
8.57289,3.54232,0.669025,28,32765
8.58451,3.51442,0.667103,29,32765
8.57785,3.47847,0.662663,19,32765
8.58022,3.4464,0.65958,15,32765
8.61943,3.4294,0.659264,14,32765
8.63084,3.40102,0.656999,13,32765
18.9937,7.41316,1.44089,13,32765
18.8136,7.27145,1.42174,14,32765
18.6889,7.15222,1.40503,16,32765
18.7311,7.09787,1.40395,14,32765
19.1001,7.16635,1.42539,15,32765
8.63121,3.20683,0.641313,12,32765
17.3208,6.37115,1.28393,22,32765
17.3136,6.30459,1.27711,15,32765
17.09,6.16048,1.25849,12,32765
8.73849,3.11728,0.641299,12,32765
8.7109,3.07588,0.637802,12,32765
8.75863,3.0607,0.639167,13,32765
8.76873,3.0319,0.637979,13,32765
8.72189,2.98425,0.632812,13,32765
8.78811,2.97548,0.636863,14,32765
8.76908,2.93823,0.634772,14,32765
8.75962,2.90374,0.632316,15,32765
8.74995,2.86934,0.631067,17,32765
8.76851,2.84458,0.631884,39,32765
8.78688,2.82002,0.633054,52,32765
8.80503,2.79573,0.634719,54,32765
8.83267,2.77403,0.638032,53,32765
7.67768,5.63198,0.958628,36,32765
7.69745,5.60626,0.950823,37,32765
7.70074,5.56913,0.941165,38,32765
7.71953,5.5441,0.934979,37,32765
7.72234,5.50729,0.925254,37,32765
7.74128,5.48162,0.919378,38,32765
7.76821,5.46185,0.913611,40,32765
7.76234,5.41916,0.904911,38,32765
7.78051,5.39411,0.898519,38,32765
7.79884,5.36853,0.892762,37,32765
7.7678,5.30916,0.881206,37,32765
7.81887,5.30578,0.87985,37,32765
7.80389,5.25775,0.870509,37,32765
7.82982,5.23792,0.865826,38,32765
7.82255,5.19589,0.857534,37,32765
7.81495,5.1541,0.849582,22,32765
7.87408,5.15563,0.849032,24,32765
7.79142,5.06449,0.832838,17,32765
7.83362,5.05503,0.831048,15,32765
7.93487,5.08259,0.834708,14,32765
7.90985,5.02998,0.825616,13,32765
7.893,4.98283,0.817806,13,32765
7.96047,4.98871,0.817707,13,32765
7.88389,4.90514,0.803928,14,32765
7.94276,4.90549,0.803461,13,32765
7.91668,4.85361,0.794356,13,32765
7.93302,4.82743,0.79089,14,32765
7.91526,4.7805,0.783464,13,32765
7.93985,4.75973,0.779666,17,32765
7.94744,4.7283,0.774499,14,32765
7.99767,4.72244,0.773456,14,32765
7.97929,4.67576,0.765915,14,32765
8.0297,4.66909,0.765476,14,32765
8.04543,4.64261,0.761348,14,32765
8.02666,4.59594,0.754006,14,32765
7.99016,4.53985,0.745346,14,32765
8.05756,4.54277,0.746596,14,32765
8.073,4.51582,0.743264,14,32765
8.08811,4.48929,0.739653,14,32765
8.05091,4.43363,0.730914,14,32765
8.0746,4.41171,0.728449,15,32765
8.06306,4.37089,0.722712,15,32765
8.10436,4.35801,0.721176,15,32765
7.61753,4.06392,0.673263,19,32765
7.56964,4.00587,0.664585,35,32765
7.54778,3.96237,0.658143,35,32765
7.56994,3.94216,0.65493,28,32765
7.61875,3.93519,0.654887,33,32765
7.58747,3.88738,0.648981,34,32765
7.9207,4.02455,0.673534,29,32765
7.95232,4.00692,0.670953,23,32765
8.00181,3.99768,0.671237,35,32765
7.98893,3.95689,0.666091,18,32765
7.76958,3.81589,0.644207,14,32765
7.72881,3.76363,0.636427,14,32765
7.74152,3.73797,0.633131,14,32765
7.77197,3.72114,0.631893,15,32765
8.06385,3.82771,0.652213,16,32765
8.19396,3.8565,0.657925,18,32765
8.24323,3.84594,0.657532,18,32765
8.21989,3.80187,0.65237,18,32765
8.28714,3.79953,0.653112,16,32765
8.28195,3.76344,0.64831,16,32765
8.25811,3.71984,0.642569,16,32765
8.30727,3.70833,0.641804,17,32765
8.28331,3.66456,0.635702,17,32765
8.33236,3.65271,0.635463,18,32765
8.30837,3.60853,0.629184,17,32765
8.42136,3.62425,0.633684,24,32765
8.47965,3.61546,0.633737,26,32765
8.48245,3.58393,0.629528,24,32765
8.49432,3.55619,0.626911,22,32765
8.51552,3.53199,0.623269,20,32765
8.55486,3.51557,0.622858,21,32765
8.5852,3.49481,0.620211,21,32765
8.55981,3.45184,0.613954,22,32765
8.57142,3.42346,0.610921,14,32765
19.0776,7.54582,1.34944,15,32765
19.0471,7.46104,1.33855,13,32765
19.1652,7.43455,1.33538,12,32765
19.1528,7.35728,1.32453,12,32765
18.8598,7.17475,1.29529,13,32765
18.641,7.02144,1.27023,13,32765
0,0,0,12,32765
17.5636,6.48585,1.17953,13,32765
17.3789,6.35319,1.15848,19,32765
17.4001,6.29646,1.15034,20,32765
8.75765,3.13642,0.573447,11,32765
8.73025,3.09489,0.568139,11,32765
8.67458,3.04344,0.559612,11,32765
8.69384,3.01921,0.556663,13,32765
8.76032,3.01102,0.555847,13,32765
17.3893,5.91432,1.09304,15,32765
17.4274,5.86543,1.08568,17,32765
17.5223,5.83489,1.08308,14,32765
8.71377,2.87095,0.532829,12,32765
8.77045,2.8591,0.531371,13,32765
8.71323,2.80997,0.522057,14,32765
8.77928,2.80113,0.520396,20,32765
8.7885,2.77308,0.515037,37,32765
8.79729,2.74607,0.509593,43,32765
7.69505,5.65646,0.871072,49,32765
7.71486,5.63062,0.86324,49,32765
7.73432,5.60503,0.855528,48,32765
7.73704,5.5682,0.847536,48,32765
7.74798,5.53703,0.83885,47,32765
7.75888,5.50545,0.832075,47,32765
7.76142,5.46835,0.823598,47,32765
7.78004,5.44272,0.81775,49,32765
7.79008,5.41186,0.810485,48,32765
7.80844,5.3862,0.804713,48,32765
7.81031,5.34918,0.797059,48,32765
7.81206,5.31202,0.790292,49,32765
7.83012,5.28621,0.784633,49,32765
7.85612,5.26625,0.77983,49,32765
7.84891,5.22403,0.771793,48,32765
7.86633,5.19855,0.766527,49,32765
7.86726,5.16163,0.759835,34,32765
7.81799,5.09207,0.747957,18,32765
7.83517,5.06626,0.743482,18,32765
7.84417,5.03464,0.737521,21,32765
7.90304,5.03578,0.736782,19,32765
7.87777,4.98322,0.728564,16,32765
7.91145,4.96795,0.724813,16,32765
7.92784,4.94237,0.720541,15,32765
7.91053,4.89536,0.712698,15,32765
7.92687,4.86956,0.707868,15,32765
7.91771,4.82771,0.702126,14,32765
7.9426,4.80654,0.698829,16,32765
7.98436,4.7959,0.696407,17,32765
7.99205,4.76425,0.691302,20,32765
7.96516,4.71253,0.683228,17,32765
8.00692,4.7012,0.681193,16,32765
7.98848,4.65425,0.67454,17,32765
8.03869,4.64782,0.673319,17,32765
8.02857,4.60603,0.667068,17,32765
8.01809,4.56461,0.661107,17,32765
8.03347,4.53801,0.657511,17,32765
8.06629,4.52084,0.655598,17,32765
8.09014,4.49912,0.652687,17,32765
8.07041,4.45296,0.645902,17,32765
8.06791,4.41656,0.641242,16,32765
8.09145,4.39472,0.638552,17,32765
8.07134,4.34859,0.631901,17,32765
8.05067,4.30323,0.625576,18,32765
7.57166,4.0146,0.584048,32,32765
7.5763,3.98493,0.580002,44,32765
7.58084,3.95535,0.575333,43,32765
