x, y, z, intensity, ring
4.52399,-2.85583,0.0175548,33,32765
4.52308,-2.87593,0.0200348,36,32765
4.52187,-2.89639,0.0219971,37,32765
4.47035,-2.88406,0.0245822,34,32765
4.49439,-2.9205,0.0273676,36,32765
4.4764,-2.92975,0.0299441,35,32765
4.39156,-2.89496,0.032077,35,32765
4.39023,-2.91505,0.03503,35,32765
4.34728,-2.90735,0.0370215,36,32765
4.33766,-2.92165,0.0397884,36,32765
4.34461,-2.94704,0.0427336,36,32765
4.29377,-2.93283,0.0452104,35,32765
4.23475,-2.91276,0.0475334,35,32765
4.23349,-2.93215,0.0503863,36,32765
4.21573,-2.94012,0.0534938,35,32765
4.18966,-2.94243,0.0565445,35,32765
4.14735,-2.93299,0.0589083,33,32765
4.13761,-2.94665,0.0622927,33,32765
4.16045,-2.9834,0.0662557,36,32765
4.11823,-2.97352,0.0691621,35,32765
4.10053,-2.98082,0.072773,35,32765
4.08281,-2.98804,0.0764767,35,32765
2.53225,-0.779408,-0.0521263,12,32765
0,-0,-0,0,32765
2.50803,-0.789867,-0.0528971,12,32765
2.48641,-0.791916,-0.0524489,12,32765
2.42669,-0.781684,-0.0515978,14,32765
2.47162,-0.805171,-0.0526787,15,32765
2.37399,-0.782032,-0.050978,16,32765
2.39982,-0.799441,-0.0517337,17,32765
2.47299,-0.832828,-0.053039,19,32765
2.48916,-0.84741,-0.0535848,20,32765
2.46751,-0.848947,-0.0528938,19,32765
2.48361,-0.863548,-0.053503,20,32765
2.49962,-0.878392,-0.0531544,20,32765
2.50607,-0.890144,-0.0532673,21,32765
2.54069,-0.912136,-0.0539113,21,32765
2.48123,-0.900206,-0.0523846,20,32765
2.48764,-0.911819,-0.0523167,21,32765
2.47525,-0.916537,-0.0518386,20,32765
2.51906,-0.942166,-0.0524981,21,32765
2.53461,-0.95765,-0.0525849,21,32765
2.52206,-0.96255,-0.0518968,20,32765
2.51881,-0.971032,-0.0516542,21,32765
2.56214,-0.997618,-0.0518959,21,32765
2.53091,-0.995144,-0.0508457,20,32765
2.5183,-0.999865,-0.0502828,20,32765
2.55211,-1.02308,-0.0502143,20,32765
2.53015,-1.02411,-0.0495609,19,32765
2.54523,-1.04013,-0.0492568,20,32765
2.53251,-1.04483,-0.0484614,20,32765
2.53816,-1.05731,-0.0482332,18,32765
2.54379,-1.06978,-0.0477261,20,32765
2.54938,-1.08229,-0.0471597,20,32765
2.509,-1.07505,-0.0458218,20,32765
2.52378,-1.09132,-0.0456527,20,32765
2.52012,-1.09975,-0.0450719,19,32765
2.50728,-1.10418,-0.043874,19,32765
2.53094,-1.12486,-0.0437074,19,32765
2.60011,-1.16618,-0.043947,20,32765
2.58707,-1.17082,-0.0426981,19,32765
2.57401,-1.17543,-0.0419439,18,32765
2.5973,-1.19663,-0.04126,19,32765
2.58426,-1.20102,-0.0407352,19,32765
2.58024,-1.20966,-0.0398124,18,32765
2.55808,-1.20979,-0.0388502,18,32765
2.53593,-1.20986,-0.0374861,18,32765
2.57691,-1.24005,-0.0373748,18,32765
2.55482,-1.23984,-0.0362245,19,32765
2.57759,-1.26158,-0.0364151,18,32765
2.60923,-1.28792,-0.0356602,19,32765
2.6138,-1.30124,-0.0352003,19,32765
2.58253,-1.29672,-0.0339723,19,32765
2.65841,-1.34615,-0.0336155,19,32765
2.61817,-1.33707,-0.0319368,21,32765
2.57811,-1.32756,-0.0308191,20,32765
2.61801,-1.35926,-0.0305215,19,32765
2.63116,-1.37732,-0.0300631,20,32765
2.59122,-1.36736,-0.0286043,20,32765
2.5866,-1.37611,-0.0275528,19,32765
2.63469,-1.41344,-0.0259286,20,32765
2.57724,-1.39362,-0.0240791,19,32765
2.62518,-1.43108,-0.0234561,20,32765
2.64668,-1.4543,-0.0226017,21,32765
2.63306,-1.45831,-0.021439,20,32765
2.63688,-1.47201,-0.0205031,19,32765
2.66682,-1.50042,-0.019824,19,32765
2.67053,-1.5142,-0.0187446,18,32765
4.92279,-2.81318,-0.0327875,19,32765
4.89609,-2.81956,-0.0308926,33,32765
4.8521,-2.81574,-0.0286468,36,32765
4.81678,-2.81679,-0.0269702,34,32765
4.81601,-2.83788,-0.0249376,36,32765
4.76353,-2.8284,-0.0225675,35,32765
4.78839,-2.86484,-0.0211818,35,32765
4.71025,-2.83957,-0.018992,32,32765
4.68357,-2.84505,-0.0170536,34,32765
4.69978,-2.8761,-0.015578,33,32765
4.66475,-2.87582,-0.0134451,33,32765
4.65521,-2.89125,-0.0122599,36,32765
4.59495,-2.8745,-0.0101849,35,32765
4.5516,-2.86833,-0.00846975,33,32765
4.53375,-2.87784,-0.00665258,33,32765
4.49898,-2.87659,-0.00551141,33,32765
4.49787,-2.89683,-0.00369012,34,32765
4.46319,-2.89523,-0.00204595,31,32765
4.44521,-2.90452,-0.000491651,32,32765
4.42731,-2.91357,0.000763904,34,32765
4.42602,-2.93367,0.00242094,32,32765
4.42473,-2.95367,0.00373002,35,32765
4.39014,-2.9514,0.00507689,34,32765
4.33076,-2.93212,0.00620739,34,32765
4.29645,-2.92924,0.00790814,31,32765
4.31168,-2.96011,0.00923222,34,32765
4.24452,-2.93421,0.00987849,32,32765
4.28432,-2.98209,0.0112948,34,32765
4.25822,-2.98453,0.0121834,36,32765
4.16684,-2.94062,0.0132662,34,32765
4.12465,-2.93099,0.0138675,29,32765
4.13969,-2.96155,0.0149404,32,32765
4.13033,-2.9746,0.0158383,33,32765
4.13671,-2.99991,0.0162196,33,32765
4.08656,-2.98385,0.0167789,32,32765
2.44512,-0.754631,-0.0744194,22,32765
2.46171,-0.768561,-0.0754939,22,32765
2.4687,-0.779601,-0.076434,21,32765
2.42807,-0.775446,-0.075207,22,32765
2.44452,-0.78958,-0.0761522,21,32765
2.47039,-0.806973,-0.0771085,22,32765
2.4772,-0.818267,-0.0777427,22,32765
2.44599,-0.817061,-0.0769939,22,32765
2.47172,-0.834686,-0.077557,21,32765
2.46894,-0.842841,-0.0776933,22,32765
2.48511,-0.857358,-0.0780013,21,32765
2.47285,-0.862178,-0.0779057,21,32765
2.47942,-0.8737,-0.0774517,21,32765
2.47647,-0.882058,-0.077363,21,32765
2.47346,-0.890458,-0.0772081,21,32765
2.47985,-0.902201,-0.0771711,21,32765
2.47687,-0.910389,-0.0769038,21,32765
2.50197,-0.929002,-0.0774919,21,32765
2.50827,-0.940737,-0.0774591,21,32765
2.52381,-0.956221,-0.0777327,22,32765
2.4926,-0.953952,-0.0763785,20,32765
2.50802,-0.969566,-0.0767067,20,32765
2.50476,-0.977998,-0.0760056,20,32765
2.49221,-0.982664,-0.0752442,20,32765
2.53537,-1.00945,-0.0762671,20,32765
2.53203,-1.01787,-0.0754605,21,32765
2.54713,-1.03388,-0.0757207,20,32765
2.53442,-1.03862,-0.0747786,20,32765
2.47552,-1.02418,-0.0725363,20,32765
2.49968,-1.04421,-0.0729469,20,32765
2.56061,-1.07989,-0.0741416,21,32765
2.52937,-1.07682,-0.0726054,21,32765
2.50739,-1.07739,-0.0714184,21,32765
2.54049,-1.10164,-0.0719541,21,32765
2.50932,-1.09814,-0.0705939,20,32765
2.5788,-1.13889,-0.0715888,21,32765
2.55667,-1.13951,-0.0704249,21,32765
2.5528,-1.14821,-0.069418,20,32765
2.55804,-1.16096,-0.0685807,21,32765
2.51774,-1.153,-0.0670111,20,32765
2.55924,-1.18245,-0.0671059,21,32765
2.55531,-1.19095,-0.0667269,22,32765
2.56037,-1.20377,-0.0660449,22,32765
2.54727,-1.20812,-0.0651287,22,32765
2.56121,-1.22541,-0.0644873,22,32765
2.55709,-1.23403,-0.063712,22,32765
2.57098,-1.25126,-0.0632631,21,32765
2.57574,-1.2643,-0.0632894,22,32765
2.58943,-1.28182,-0.0624745,24,32765
2.57611,-1.28617,-0.0616812,22,32765
2.55384,-1.28601,-0.060393,23,32765
2.59405,-1.31735,-0.0600651,22,32765
2.58953,-1.32626,-0.0588477,22,32765
2.58506,-1.33499,-0.0581595,21,32765
2.57169,-1.33908,-0.057142,18,32765
2.56718,-1.34773,-0.0564896,17,32765
2.6069,-1.37963,-0.0564,18,32765
2.59342,-1.38375,-0.0551511,17,32765
2.61504,-1.40698,-0.0535382,16,32765
2.57523,-1.39659,-0.0514857,18,32765
2.64066,-1.44372,-0.0517652,20,32765
2.64458,-1.45739,-0.0508447,21,32765
2.66592,-1.48083,-0.0502447,21,32765
2.63476,-1.47514,-0.0487406,22,32765
2.66466,-1.50361,-0.0484326,23,32765
2.66835,-1.51741,-0.047444,22,32765
2.65456,-1.52144,-0.0462977,21,32765
4.79678,-2.77052,-0.0820701,24,32765
4.85669,-2.82673,-0.0812194,35,32765
4.84721,-2.84299,-0.0796793,35,32765
4.7947,-2.8337,-0.0768917,37,32765
4.811,-2.86508,-0.0751303,37,32765
4.74995,-2.85031,-0.0727821,37,32765
4.66336,-2.81969,-0.0697253,35,32765
4.68799,-2.85626,-0.0683588,37,32765
4.67857,-2.8717,-0.0667899,36,32765
4.58404,-2.83455,-0.0635537,34,32765
4.63403,-2.88676,-0.0631922,38,32765
4.60771,-2.89117,-0.0610075,38,32765
4.57278,-2.89038,-0.0590162,35,32765
4.55486,-2.9,-0.0570902,37,32765
4.53686,-2.90962,-0.055864,36,32765
4.51043,-2.91376,-0.0538127,37,32765
4.49247,-2.92311,-0.0520711,36,32765
4.45767,-2.92157,-0.0502175,35,32765
4.44806,-2.9362,-0.0489497,35,32765
4.40504,-2.92873,-0.0469273,38,32765
4.3622,-2.9209,-0.0452791,37,32765
4.34431,-2.92962,-0.0438319,35,32765
4.35122,-2.9551,-0.0427981,35,32765
4.27558,-2.92406,-0.0404119,35,32765
4.27432,-2.9436,-0.0392153,36,32765
4.27299,-2.96312,-0.0385085,37,32765
4.26344,-2.97685,-0.037206,35,32765
4.221,-2.96774,-0.0359888,37,32765
4.17872,-2.9583,-0.0343815,34,32765
4.1772,-2.97771,-0.0337268,34,32765
4.15144,-2.97936,-0.0325944,35,32765
4.12579,-2.98077,-0.0315627,33,32765
4.12402,-3.00025,-0.031299,36,32765
4.12229,-3.01958,-0.0306285,37,32765
2.43589,-0.746388,-0.108726,20,32765
2.40484,-0.745589,-0.106097,21,32765
2.42157,-0.759235,-0.105743,20,32765
2.40966,-0.763949,-0.104026,20,32765
2.45475,-0.787145,-0.104916,19,32765
2.43313,-0.789211,-0.103036,20,32765
2.46852,-0.809746,-0.103435,20,32765
2.48485,-0.824155,-0.103292,20,32765
2.4538,-0.822671,-0.100979,21,32765
2.38488,-0.808237,-0.0974382,20,32765
2.42955,-0.832183,-0.0983931,21,32765
2.45514,-0.850042,-0.0986853,20,32765
2.47115,-0.864937,-0.0985034,20,32765
2.51534,-0.890032,-0.0989155,21,32765
2.47466,-0.88519,-0.0968505,20,32765
2.47172,-0.893488,-0.0957109,20,32765
2.44998,-0.894923,-0.0939803,20,32765
2.49387,-0.920398,-0.0951979,20,32765
2.47213,-0.921658,-0.0933028,20,32765
2.4597,-0.926443,-0.0920462,20,32765
2.52199,-0.95958,-0.0937403,21,32765
2.49078,-0.957322,-0.0917868,20,32765
2.51556,-0.976463,-0.09206,21,32765
2.50302,-0.981193,-0.0908086,19,32765
2.49047,-0.98587,-0.0896245,19,32765
2.4686,-0.986841,-0.0879581,19,32765
2.4838,-1.00271,-0.087726,19,32765
2.48042,-1.01114,-0.0867602,18,32765
2.49551,-1.02709,-0.0867341,19,32765
2.51971,-1.04711,-0.0868516,20,32765
2.49777,-1.04785,-0.0852031,20,32765
2.51265,-1.06407,-0.0850751,20,32765
2.5182,-1.07663,-0.0845332,19,32765
2.43197,-1.04952,-0.0808712,18,32765
2.4284,-1.05781,-0.0800339,19,32765
2.48891,-1.09413,-0.081148,19,32765
2.52179,-1.11872,-0.0814925,21,32765
2.5089,-1.12315,-0.0804059,20,32765
2.51426,-1.13563,-0.0803227,20,32765
2.52861,-1.15244,-0.0799457,20,32765
2.49749,-1.14846,-0.0779244,19,32765
2.53897,-1.17792,-0.0784294,20,32765
2.51686,-1.17809,-0.0770501,19,32765
2.47669,-1.16961,-0.0751295,20,32765
2.52688,-1.20381,-0.075773,20,32765
2.54087,-1.22096,-0.0752946,20,32765
2.57273,-1.24697,-0.0756264,21,32765
2.52361,-1.23374,-0.0733102,21,32765
2.52841,-1.2467,-0.0728515,21,32765
2.55101,-1.26869,-0.0726827,20,32765
2.53782,-1.27278,-0.0715586,21,32765
2.55137,-1.29038,-0.0710059,19,32765
2.60043,-1.32627,-0.0716677,21,32765
2.58706,-1.33051,-0.0705051,19,32765
2.56479,-1.33009,-0.0692304,18,32765
2.60468,-1.36178,-0.0692373,16,32765
2.57358,-1.35656,-0.0673262,16,32765
2.5514,-1.35576,-0.0661501,16,32765
2.55573,-1.36894,-0.0653565,17,32765
2.50715,-1.35376,-0.0632434,15,32765
2.60801,-1.41949,-0.0649412,19,32765
2.63829,-1.44753,-0.0645195,22,32765
2.65091,-1.46611,-0.06381,20,32765
2.59354,-1.44591,-0.0616559,20,32765
2.66711,-1.49874,-0.0622625,20,32765
2.62734,-1.4879,-0.0601553,20,32765
2.59636,-1.48176,-0.0583774,20,32765
2.64344,-1.5203,-0.0585027,19,32765
4.84427,-2.80747,-0.105314,23,32765
4.82623,-2.81869,-0.103118,33,32765
4.83414,-2.84484,-0.10069,35,32765
4.77304,-2.8304,-0.0972532,36,32765
4.74656,-2.83585,-0.0947762,35,32765
4.74589,-2.85649,-0.092521,34,32765
4.71088,-2.85652,-0.089661,34,32765
4.69301,-2.86672,-0.0871316,36,32765
4.67494,-2.87713,-0.0844799,35,32765
4.62298,-2.86619,-0.0813549,36,32765
4.56264,-2.84968,-0.0780286,33,32765
4.58706,-2.88609,-0.0762507,33,32765
4.52693,-2.86901,-0.0726239,32,32765
4.52594,-2.88927,-0.0702663,33,32765
4.49972,-2.89319,-0.0671969,32,32765
4.51542,-2.92424,-0.0650079,35,32765
4.47233,-2.91719,-0.0619938,33,32765
4.44606,-2.92087,-0.0587746,35,32765
4.42807,-2.93005,-0.0558484,34,32765
4.42671,-2.95022,-0.0530748,34,32765
4.38381,-2.94247,-0.0497454,33,32765
4.31606,-2.9178,-0.0461838,33,32765
4.37271,-2.97683,-0.0440566,34,32765
4.3217,-2.96292,-0.0405303,33,32765
4.26265,-2.94293,-0.0370103,34,32765
4.2778,-2.97378,-0.0341399,33,32765
4.25977,-2.98218,-0.030775,34,32765
4.20925,-2.96714,-0.0275564,33,32765
4.19959,-2.98083,-0.0240682,33,32765
4.16579,-2.97661,-0.0205069,34,32765
4.15611,-2.99012,-0.0170963,37,32765
4.12171,-2.98655,-0.0130376,31,32765
4.11997,-3.00595,-0.00886717,35,32765
2.39599,-0.736382,-0.130577,20,32765
2.39361,-0.744347,-0.129231,21,32765
2.42938,-0.763982,-0.130089,20,32765
2.36037,-0.750574,-0.125242,20,32765
2.434,-0.782835,-0.128124,19,32765
2.43141,-0.791018,-0.127057,21,32765
2.4478,-0.805353,-0.126846,21,32765
2.41674,-0.803964,-0.124456,20,32765
2.44258,-0.821359,-0.124793,21,32765
2.43992,-0.829359,-0.123961,21,32765
2.41836,-0.830824,-0.122024,21,32765
2.41562,-0.838858,-0.121179,21,32765
2.43166,-0.853655,-0.121198,20,32765
2.44763,-0.868651,-0.120707,21,32765
2.42585,-0.870314,-0.119205,21,32765
2.43235,-0.881874,-0.118543,20,32765
2.41066,-0.883183,-0.116639,20,32765
2.42646,-0.898183,-0.116977,19,32765
2.44223,-0.91322,-0.116713,20,32765
2.41115,-0.910857,-0.114484,20,32765
2.4641,-0.940345,-0.116405,21,32765
2.46095,-0.94867,-0.115502,20,32765
2.43919,-0.949634,-0.113889,21,32765
2.45464,-0.96509,-0.113864,21,32765
2.48857,-0.988052,-0.11474,21,32765
2.47599,-0.99274,-0.113309,21,32765
2.46337,-0.997429,-0.111996,21,32765
2.42301,-0.99068,-0.109366,20,32765
2.45663,-1.0141,-0.11037,21,32765
2.50852,-1.04556,-0.112014,22,32765
2.45897,-1.03464,-0.108956,20,32765
2.48308,-1.05468,-0.10943,21,32765
2.47946,-1.06324,-0.108587,21,32765
2.51255,-1.08753,-0.109278,22,32765
2.4997,-1.09212,-0.108014,22,32765
2.52347,-1.11265,-0.108184,22,32765
2.51974,-1.12116,-0.107333,22,32765
2.54331,-1.14197,-0.107695,23,32765
2.53949,-1.15047,-0.107313,22,32765
2.5356,-1.1591,-0.106348,22,32765
2.54985,-1.17606,-0.105924,21,32765
2.51872,-1.17204,-0.103886,22,32765
2.54187,-1.19338,-0.104177,22,32765
2.5378,-1.20208,-0.103341,22,32765
2.52472,-1.20641,-0.10197,22,32765
2.52968,-1.21925,-0.101316,21,32765
2.50759,-1.21907,-0.0998737,21,32765
2.59319,-1.2716,-0.102429,22,32765
2.55306,-1.26267,-0.100281,23,32765
2.53981,-1.26695,-0.0989861,22,32765
2.58913,-1.30245,-0.100187,22,32765
2.59365,-1.31575,-0.0994551,22,32765
2.5625,-1.3109,-0.0976106,22,32765
2.56694,-1.32419,-0.097036,21,32765
2.56245,-1.33293,-0.096243,22,32765
2.56688,-1.34612,-0.095399,22,32765
2.5977,-1.37347,-0.0954953,22,32765
2.59312,-1.38215,-0.0947667,22,32765
2.60616,-1.40023,-0.0943649,21,32765
2.60146,-1.409,-0.0933379,22,32765
2.65817,-1.45124,-0.0945577,23,32765
2.61826,-1.44096,-0.0920191,21,32765
2.58718,-1.43528,-0.0899812,20,32765
2.63464,-1.47336,-0.0908966,21,32765
2.62968,-1.48228,-0.0896485,21,32765
2.64214,-1.50092,-0.0889376,22,32765
2.6285,-1.50475,-0.0874461,21,32765
2.66678,-1.5385,-0.0878297,21,32765
2.56662,-1.4921,-0.0835758,14,32765
4.75236,-2.7842,-0.153067,17,32765
4.77758,-2.82033,-0.151406,34,32765
4.77676,-2.84146,-0.14931,36,32765
4.73311,-2.83667,-0.146108,36,32765
4.73243,-2.85732,-0.143945,36,32765
4.72306,-2.8729,-0.141572,37,32765
4.66253,-2.85706,-0.137677,35,32765
4.66151,-2.87791,-0.135435,36,32765
4.59262,-2.85634,-0.131357,35,32765
4.60013,-2.88218,-0.129386,37,32765
4.58214,-2.89212,-0.126785,36,32765
4.58111,-2.91255,-0.124195,37,32765
4.54629,-2.91147,-0.120996,36,32765
4.51161,-2.91006,-0.117501,37,32765
4.51047,-2.93033,-0.115149,36,32765
4.48413,-2.93421,-0.112176,36,32765
4.42443,-2.91595,-0.10794,36,32765
4.43146,-2.94167,-0.105521,37,32765
4.37188,-2.92301,-0.10148,35,32765
4.38716,-2.95416,-0.0991179,37,32765
4.32772,-2.93508,-0.0950756,34,32765
4.31819,-2.94917,-0.0922666,36,32765
4.30851,-2.96339,-0.0891581,34,32765
4.29884,-2.97749,-0.086068,36,32765
4.22364,-2.94562,-0.0816979,36,32765
4.23846,-2.97685,-0.0788826,37,32765
4.19617,-2.9675,-0.0753517,36,32765
4.18652,-2.98119,-0.0718661,35,32765
4.16901,-2.98858,-0.0682945,35,32765
4.12687,-2.97874,-0.0643671,34,32765
4.14107,-3.01035,-0.0607605,37,32765
4.09893,-3.00034,-0.0561026,35,32765
2.39686,-0.735282,-0.12041,20,32765
2.41352,-0.74899,-0.121731,21,32765
2.41105,-0.756857,-0.122035,21,32765
2.41809,-0.767687,-0.122922,20,32765
2.44407,-0.784789,-0.124678,20,32765
2.41299,-0.783537,-0.123098,19,32765
2.48631,-0.816427,-0.126983,20,32765
2.42667,-0.805893,-0.124173,19,32765
2.40506,-0.807529,-0.123201,20,32765
2.41187,-0.81859,-0.123643,19,32765
2.38086,-0.816708,-0.12207,18,32765
2.46312,-0.853955,-0.126138,20,32765
2.42248,-0.849139,-0.12429,19,32765
2.41015,-0.854103,-0.123562,19,32765
2.46367,-0.88251,-0.126069,19,32765
2.44192,-0.883996,-0.12479,19,32765
2.44838,-0.895502,-0.124972,20,32765
2.40792,-0.889772,-0.122912,19,32765
2.39565,-0.894191,-0.122036,19,32765
2.43008,-0.9162,-0.123595,19,32765
2.46435,-0.938589,-0.12511,21,32765
2.46123,-0.94678,-0.124754,20,32765
2.40219,-0.933334,-0.121499,19,32765
2.47346,-0.970595,-0.124577,22,32765
2.41448,-0.956861,-0.121338,21,32765
2.45767,-0.983485,-0.123032,20,32765
2.50068,-1.01045,-0.124943,21,32765
2.44179,-0.996241,-0.121449,20,32765
2.46611,-1.01598,-0.122367,21,32765
2.51803,-1.04736,-0.124384,22,32765
2.49606,-1.04818,-0.122831,22,32765
2.5202,-1.06817,-0.123319,22,32765
2.4431,-1.04529,-0.119355,20,32765
2.49465,-1.07725,-0.120982,21,32765
2.5093,-1.09375,-0.12138,22,32765
2.49646,-1.09827,-0.120045,21,32765
2.48363,-1.10266,-0.118812,21,32765
2.46164,-1.10299,-0.117167,21,32765
2.52169,-1.14006,-0.119408,23,32765
2.49968,-1.14026,-0.117961,21,32765
2.505,-1.15273,-0.117416,21,32765
2.50118,-1.16108,-0.116485,20,32765
2.5154,-1.17796,-0.116479,22,32765
2.50246,-1.18211,-0.115047,19,32765
2.48951,-1.18618,-0.11364,20,32765
2.51255,-1.20755,-0.114193,20,32765
2.5085,-1.21601,-0.113355,20,32765
2.52232,-1.23339,-0.112982,20,32765
2.4733,-1.21996,-0.109817,21,32765
2.51386,-1.25072,-0.11097,22,32765
2.58108,-1.29514,-0.112898,21,32765
2.54998,-1.29033,-0.110707,21,32765
2.54557,-1.29907,-0.109942,20,32765
2.54121,-1.30768,-0.108795,21,32765
2.55454,-1.3255,-0.108597,20,32765
2.58554,-1.3526,-0.108992,20,32765
2.54567,-1.34263,-0.106356,20,32765
2.57641,-1.37007,-0.106825,21,32765
2.54542,-1.36455,-0.104534,21,32765
2.56726,-1.38732,-0.104416,21,32765
2.58898,-1.41024,-0.104544,20,32765
2.54926,-1.39964,-0.101916,19,32765
2.58827,-1.43244,-0.102823,20,32765
2.61839,-1.46062,-0.102996,21,32765
2.62222,-1.47433,-0.102144,20,32765
2.57386,-1.45843,-0.0991923,20,32765
2.63851,-1.50657,-0.100435,20,32765
2.63343,-1.51549,-0.0996142,19,32765
2.67162,-1.54937,-0.100144,14,32765
2.64914,-1.5483,-0.0984728,12,32765
4.80567,-2.83033,-0.176656,29,32765
4.80481,-2.85155,-0.174716,33,32765
4.82096,-2.88313,-0.174086,35,32765
4.72574,-2.84768,-0.16878,34,32765
4.72488,-2.8685,-0.167572,33,32765
4.68993,-2.8684,-0.164,33,32765
4.66355,-2.87323,-0.162106,33,32765
4.60312,-2.85702,-0.158565,33,32765
4.63611,-2.89873,-0.157478,34,32765
4.57558,-2.88242,-0.154211,34,32765
4.58289,-2.90837,-0.152921,34,32765
4.54815,-2.90721,-0.149981,33,32765
4.55533,-2.93312,-0.149042,35,32765
4.47031,-2.899,-0.144766,32,32765
4.46914,-2.91923,-0.14327,34,32765
4.45954,-2.93395,-0.141384,34,32765
4.42482,-2.93218,-0.13912,33,32765
4.41505,-2.94695,-0.137747,35,32765
4.42198,-2.9726,-0.136448,35,32765
4.32942,-2.93113,-0.132157,33,32765
4.36952,-2.97895,-0.131587,33,32765
4.31884,-2.96455,-0.129101,33,32765
4.30926,-2.97851,-0.127878,33,32765
4.25853,-2.96399,-0.125683,33,32765
4.2241,-2.96097,-0.123196,32,32765
4.2388,-2.99229,-0.122167,35,32765
4.221,-3.00015,-0.120882,36,32765
4.1951,-3.00207,-0.119569,34,32765
4.13695,-2.98026,-0.11693,32,32765
4.16791,-3.02278,-0.117524,35,32765
4.11786,-3.00665,-0.115142,35,32765
2.41412,-0.742869,-0.145103,21,32765
2.40214,-0.747766,-0.144887,21,32765
2.39966,-0.755616,-0.145187,21,32765
2.41619,-0.769467,-0.146742,22,32765
2.39462,-0.771302,-0.145882,21,32765
2.40158,-0.782254,-0.146335,21,32765
2.38001,-0.783953,-0.145183,20,32765
2.38682,-0.795126,-0.145856,21,32765
2.41256,-0.812569,-0.147589,22,32765
2.39099,-0.814031,-0.146386,22,32765
2.39777,-0.825072,-0.146843,21,32765
2.41392,-0.839508,-0.147712,21,32765
2.42045,-0.851074,-0.148371,21,32765
2.37989,-0.846014,-0.145818,21,32765
2.43339,-0.874385,-0.148889,21,32765
2.40229,-0.872368,-0.146851,22,32765
2.41815,-0.887211,-0.147702,23,32765
2.41519,-0.89525,-0.147553,21,32765
2.4029,-0.899706,-0.14658,22,32765
2.43728,-0.921792,-0.14851,22,32765
2.42486,-0.926443,-0.147559,22,32765
2.45903,-0.948902,-0.149471,22,32765
2.45585,-0.957176,-0.149038,22,32765
2.47123,-0.972762,-0.149476,22,32765
2.43084,-0.966371,-0.146794,21,32765
2.40909,-0.967076,-0.145044,22,32765
2.44286,-0.99019,-0.146872,21,32765
2.45802,-1.00601,-0.14726,21,32765
2.45459,-1.01442,-0.146797,21,32765
2.51567,-1.04967,-0.149924,22,32765
2.4293,-1.02336,-0.144355,20,32765
2.49025,-1.0588,-0.147318,21,32765
2.4316,-1.04365,-0.143692,21,32765
2.4831,-1.07565,-0.145881,22,32765
2.47943,-1.08414,-0.145393,22,32765
2.51231,-1.10873,-0.146638,23,32765
2.50858,-1.11726,-0.145833,23,32765
2.48655,-1.11768,-0.143991,22,32765
2.48282,-1.12605,-0.143203,22,32765
2.52444,-1.15521,-0.145232,23,32765
2.49344,-1.15105,-0.142692,22,32765
2.51678,-1.17203,-0.143309,23,32765
2.53094,-1.18901,-0.143481,23,32765
2.53602,-1.20177,-0.142964,22,32765
2.51401,-1.20166,-0.140941,22,32765
2.52796,-1.21883,-0.141261,22,32765
2.55082,-1.24046,-0.141914,22,32765
2.57351,-1.26243,-0.142199,23,32765
2.53339,-1.25359,-0.139032,22,32765
2.55591,-1.2757,-0.139652,23,32765
2.56052,-1.28894,-0.138915,21,32765
2.55618,-1.29762,-0.137889,22,32765
2.56953,-1.3155,-0.138075,22,32765
2.56511,-1.32421,-0.136912,22,32765
2.57836,-1.34217,-0.136888,22,32765
2.5562,-1.34155,-0.134843,21,32765
2.58705,-1.36884,-0.135544,21,32765
2.5824,-1.37769,-0.13453,22,32765
2.5954,-1.39584,-0.134227,21,32765
2.56442,-1.39026,-0.131656,20,32765
2.60362,-1.42281,-0.132956,21,32765
2.5814,-1.42188,-0.130831,20,32765
2.59409,-1.44031,-0.130868,21,32765
2.62414,-1.46858,-0.131408,20,32765
2.61923,-1.47743,-0.130209,20,32765
2.64908,-1.50593,-0.130644,21,32765
2.65281,-1.51967,-0.129622,21,32765
2.66498,-1.53866,-0.129634,21,32765
2.65986,-1.54759,-0.128526,21,32765
2.69774,-1.58187,-0.129566,22,32765
2.67526,-1.58078,-0.127437,21,32765
4.70465,-2.80128,-0.222335,22,32765
4.7552,-2.85316,-0.22362,37,32765
4.75424,-2.8743,-0.221793,36,32765
4.71061,-2.86928,-0.21868,36,32765
4.70123,-2.88482,-0.216003,36,32765
4.6833,-2.89497,-0.2143,35,32765
4.62286,-2.8788,-0.210184,37,32765
4.62186,-2.89943,-0.20802,37,32765
4.56139,-2.88306,-0.20419,37,32765
4.56867,-2.90903,-0.203084,36,32765
4.54236,-2.91323,-0.200233,36,32765
4.52431,-2.92291,-0.19837,35,32765
4.53993,-2.95404,-0.197636,38,32765
4.47169,-2.93072,-0.193307,33,32765
4.47873,-2.95652,-0.192126,37,32765
4.42731,-2.94375,-0.188858,37,32765
4.35105,-2.91408,-0.184657,33,32765
4.37464,-2.95076,-0.184259,36,32765
4.34012,-2.94838,-0.181469,36,32765
4.33059,-2.96248,-0.179392,36,32765
4.32117,-2.97629,-0.178141,36,32765
4.26226,-2.95612,-0.174887,33,32765
4.28538,-2.99294,-0.175245,36,32765
4.21819,-2.96702,-0.171132,35,32765
4.21651,-2.98683,-0.169719,36,32765
4.215,-3.00626,-0.168991,37,32765
4.18909,-3.00817,-0.167485,35,32765
4.12287,-2.98046,-0.163959,33,32765
4.12142,-2.99951,-0.163727,34,32765
4.10374,-3.00684,-0.16216,34,32765
2.35624,-0.719848,-0.175621,20,32765
2.35394,-0.72773,-0.174014,20,32765
2.31347,-0.72382,-0.169784,20,32765
2.32063,-0.734584,-0.169332,20,32765
2.37529,-0.760532,-0.172008,20,32765
2.31589,-0.749908,-0.166948,20,32765
2.35144,-0.769896,-0.16849,20,32765
2.35842,-0.780849,-0.16805,20,32765
2.31801,-0.776068,-0.164421,20,32765
2.39106,-0.809484,-0.168715,20,32765
2.34123,-0.801296,-0.164253,20,32765
2.37636,-0.822021,-0.166066,20,32765
2.35484,-0.823376,-0.163642,20,32765
2.43682,-0.861131,-0.16875,21,32765
2.36817,-0.845906,-0.163094,20,32765
2.43104,-0.87768,-0.166779,20,32765
2.38125,-0.868817,-0.162552,21,32765
2.41579,-0.890734,-0.164225,20,32765
2.37543,-0.884917,-0.160738,20,32765
2.42854,-0.914018,-0.16364,20,32765
2.38819,-0.907992,-0.160369,20,32765
2.4225,-0.930226,-0.161763,20,32765
2.47526,-0.960003,-0.164598,20,32765
2.36984,-0.928259,-0.157166,19,32765
2.3853,-0.943624,-0.157478,20,32765
2.42849,-0.970194,-0.159816,19,32765
2.4623,-0.993333,-0.161191,21,32765
2.48674,-1.01286,-0.162277,21,32765
2.45567,-1.00988,-0.159495,21,32765
2.41538,-1.00294,-0.156349,20,32765
2.49489,-1.04585,-0.160686,22,32765
2.45459,-1.03881,-0.157402,21,32765
2.46029,-1.051,-0.157366,21,32765
2.39263,-1.03164,-0.152156,20,32765
2.48983,-1.08363,-0.15785,21,32765
2.48615,-1.09214,-0.157174,22,32765
2.46421,-1.09252,-0.155127,21,32765
2.50602,-1.12144,-0.15722,22,32765
2.50225,-1.12998,-0.156265,22,32765
2.5075,-1.14267,-0.156059,22,32765
2.48555,-1.14278,-0.153978,21,32765
2.47271,-1.1469,-0.152432,21,32765
2.496,-1.16791,-0.153525,21,32765
2.51921,-1.18907,-0.154212,22,32765
2.50612,-1.19347,-0.152947,21,32765
2.51106,-1.20639,-0.152597,22,32765
2.49797,-1.21067,-0.150989,21,32765
2.51181,-1.22799,-0.151121,20,32765
2.50772,-1.23645,-0.150132,21,32765
2.50354,-1.24497,-0.149456,20,32765
2.56186,-1.28473,-0.152381,20,32765
2.53969,-1.28449,-0.150131,20,32765
2.53531,-1.29324,-0.149218,21,32765
2.5043,-1.28818,-0.146587,20,32765
2.52656,-1.31048,-0.147173,20,32765
2.54878,-1.33278,-0.147774,19,32765
2.50903,-1.32268,-0.144615,20,32765
2.58393,-1.3734,-0.148322,20,32765
2.62334,-1.40572,-0.149748,21,32765
2.57474,-1.39078,-0.146055,21,32765
2.614,-1.42323,-0.147619,21,32765
2.60942,-1.43177,-0.146234,19,32765
2.63095,-1.45489,-0.146502,21,32765
2.5738,-1.43449,-0.14254,20,32765
2.6386,-1.48244,-0.14524,21,32765
2.61623,-1.48157,-0.142858,20,32765
2.62001,-1.49527,-0.141859,20,32765
2.62364,-1.50912,-0.141329,20,32765
2.61868,-1.51783,-0.140016,21,32765
2.69987,-1.57703,-0.14352,20,32765
2.6774,-1.57599,-0.140979,20,32765
2.64636,-1.56973,-0.138275,18,32765
4.74202,-2.83443,-0.245324,21,32765
4.75838,-2.86562,-0.244269,32,32765
4.76608,-2.89166,-0.24322,34,32765
4.73973,-2.89676,-0.239386,32,32765
4.67073,-2.87573,-0.233591,34,32765
4.62729,-2.87025,-0.228913,34,32765
4.61784,-2.88559,-0.226677,32,32765
4.60833,-2.90098,-0.22384,32,32765
4.59898,-2.91601,-0.22093,34,32765
4.55584,-2.90956,-0.216639,34,32765
4.54635,-2.92461,-0.213259,34,32765
4.55367,-2.95033,-0.211081,34,32765
4.49379,-2.93262,-0.206298,34,32765
4.45921,-2.9309,-0.202091,33,32765
4.43301,-2.93456,-0.198008,35,32765
4.39838,-2.9327,-0.1939,35,32765
4.38051,-2.94164,-0.190394,31,32765
4.37916,-2.96172,-0.187845,32,32765
4.32832,-2.94783,-0.18319,35,32765
4.31062,-2.95624,-0.179071,33,32765
4.30917,-2.97616,-0.176449,33,32765
4.25862,-2.96158,-0.171063,33,32765
4.24909,-2.97542,-0.167917,33,32765
4.21492,-2.97208,-0.163647,35,32765
4.20525,-2.98596,-0.159797,34,32765
4.17912,-2.98839,-0.155246,35,32765
4.17741,-3.00811,-0.151767,33,32765
4.15151,-3.01002,-0.147157,35,32765
4.13407,-3.01721,-0.142685,34,32765
2.33482,-0.715734,-0.197127,20,32765
2.3611,-0.732425,-0.197927,22,32765
2.37773,-0.746447,-0.19807,21,32765
2.3563,-0.748401,-0.195314,22,32765
2.36341,-0.759284,-0.194619,21,32765
2.38942,-0.776324,-0.196001,21,32765
2.3396,-0.768597,-0.190921,21,32765
2.37496,-0.788968,-0.192883,21,32765
2.34402,-0.787409,-0.189636,20,32765
2.38863,-0.811373,-0.192383,21,32765
2.386,-0.819353,-0.191231,21,32765
2.42104,-0.840276,-0.1934,21,32765
2.37125,-0.831884,-0.188521,21,32765
2.41552,-0.856454,-0.191483,21,32765
2.41267,-0.864675,-0.190364,21,32765
2.4004,-0.869505,-0.188786,21,32765
2.37878,-0.870806,-0.186302,21,32765
2.42263,-0.896229,-0.189078,21,32765
2.40098,-0.897409,-0.186664,21,32765
2.42599,-0.916096,-0.187946,22,32765
2.43227,-0.927826,-0.187899,23,32765
2.42925,-0.935916,-0.186781,22,32765
2.40757,-0.93685,-0.184473,22,32765
2.39517,-0.941295,-0.183127,22,32765
2.41057,-0.956784,-0.183613,23,32765
2.38885,-0.957525,-0.181483,21,32765
2.42266,-0.980585,-0.183247,23,32765
2.42864,-0.992478,-0.183228,22,32765
2.42534,-1.00071,-0.182265,21,32765
2.44037,-1.01668,-0.182893,20,32765
2.46457,-1.03657,-0.183939,21,32765
2.47025,-1.04891,-0.183704,22,32765
2.4484,-1.04939,-0.181712,22,32765
2.48154,-1.07353,-0.183291,22,32765
2.48704,-1.08602,-0.183246,22,32765
2.51987,-1.11064,-0.185252,23,32765
2.47055,-1.09898,-0.180999,22,32765
2.50318,-1.1239,-0.182888,22,32765
2.47213,-1.12009,-0.179946,22,32765
2.49555,-1.14102,-0.181157,22,32765
2.49175,-1.14945,-0.180202,22,32765
2.54223,-1.18307,-0.183117,23,32765
2.51116,-1.17893,-0.180574,23,32765
2.5343,-1.20019,-0.181531,24,32765
2.51217,-1.20036,-0.179521,23,32765
2.53506,-1.222,-0.180539,22,32765
2.52193,-1.22638,-0.178823,22,32765
2.53569,-1.24382,-0.179129,22,32765
2.54943,-1.26123,-0.179385,23,32765
2.58089,-1.28774,-0.181202,22,32765
2.54983,-1.283,-0.17851,23,32765
2.54549,-1.29175,-0.177315,22,32765
2.55885,-1.30964,-0.17763,22,32765
2.54555,-1.31382,-0.175931,21,32765
2.56769,-1.33631,-0.176776,22,32765
2.57211,-1.34953,-0.176425,22,32765
2.60294,-1.37682,-0.177698,21,32765
2.58947,-1.381,-0.176213,22,32765
2.53209,-1.36142,-0.171547,21,32765
2.56268,-1.38897,-0.17275,20,32765
2.54057,-1.38795,-0.17066,21,32765
2.56233,-1.41071,-0.171061,20,32765
2.61882,-1.45311,-0.173945,21,32765
2.6053,-1.45699,-0.172306,21,32765
2.65253,-1.49535,-0.174587,22,32765
2.68223,-1.52413,-0.175414,23,32765
2.62521,-1.50336,-0.170526,21,32765
2.6115,-1.50728,-0.168963,21,32765
2.6756,-1.55613,-0.172092,23,32765
2.64455,-1.55002,-0.169328,22,32765
2.69958,-1.5945,-0.171547,22,32765
2.64277,-1.573,-0.166921,21,32765
2.69746,-1.6179,-0.169036,21,32765
2.66651,-1.61138,-0.166085,18,32765
4.65716,-2.83534,-0.288756,30,32765
4.71614,-2.89231,-0.29003,36,32765
4.67272,-2.88693,-0.285145,36,32765
4.6293,-2.88145,-0.280084,38,32765
4.61981,-2.89685,-0.277838,36,32765
4.60182,-2.90696,-0.274488,35,32765
4.60088,-2.92737,-0.272071,38,32765
4.56616,-2.92631,-0.267892,36,32765
4.52306,-2.91978,-0.262546,36,32765
4.53037,-2.9455,-0.26056,37,32765
4.504,-2.94957,-0.257131,35,32765
4.46108,-2.9424,-0.252158,37,32765
4.43487,-2.94609,-0.247878,35,32765
4.40024,-2.94424,-0.243481,36,32765
4.37407,-2.94765,-0.239419,36,32765
4.36442,-2.96215,-0.236509,37,32765
4.2724,-2.92001,-0.229178,35,32765
4.35358,-2.99624,-0.230228,37,32765
4.2945,-2.97652,-0.224654,36,32765
4.24403,-2.96188,-0.218806,37,32765
4.25085,-2.98721,-0.216495,38,32765
4.20038,-2.97233,-0.211116,36,32765
4.22327,-3.0094,-0.208879,36,32765
4.18898,-3.00608,-0.203721,36,32765
4.17101,-3.01419,-0.19954,36,32765
4.10473,-2.9867,-0.192844,34,32765
4.07933,-2.98787,-0.187945,34,32765
2.33588,-0.714606,-0.188379,21,32765
2.34305,-0.725096,-0.189597,21,32765
2.37867,-0.744718,-0.193191,21,32765
2.39521,-0.758549,-0.194837,21,32765
2.35469,-0.754295,-0.192045,21,32765
2.35212,-0.762246,-0.192162,21,32765
2.3401,-0.766909,-0.191496,20,32765
2.37538,-0.787274,-0.194601,21,32765
2.37278,-0.795104,-0.194454,21,32765
2.36072,-0.799692,-0.193596,20,32765
2.32974,-0.79788,-0.191324,20,32765
2.40247,-0.831705,-0.197195,19,32765
2.40905,-0.843183,-0.197811,20,32765
2.41563,-0.854576,-0.19838,21,32765
2.37524,-0.849186,-0.194931,20,32765
2.38178,-0.860504,-0.19562,20,32765
2.37896,-0.868393,-0.19509,20,32765
2.36666,-0.873023,-0.194022,20,32765
2.41045,-0.898476,-0.197162,19,32765
2.40744,-0.906612,-0.196748,20,32765
2.43234,-0.925423,-0.19854,21,32765
2.41996,-0.930008,-0.197232,20,32765
2.37968,-0.923679,-0.193766,19,32765
2.39518,-0.938989,-0.194494,21,32765
2.42913,-0.961702,-0.197166,21,32765
2.43517,-0.973615,-0.197342,21,32765
2.47817,-1.00043,-0.200576,21,32765
2.37321,-0.96749,-0.191612,19,32765
2.38838,-0.983191,-0.192524,21,32765
2.41266,-1.00293,-0.193918,21,32765
2.45528,-1.03041,-0.196804,20,32765
2.48855,-1.0543,-0.199169,22,32765
2.4667,-1.05489,-0.196684,21,32765
2.46319,-1.0632,-0.19595,21,32765
2.47791,-1.07957,-0.196415,21,32765
2.47429,-1.088,-0.195494,21,32765
2.46157,-1.0923,-0.193803,21,32765
2.47609,-1.10886,-0.194445,21,32765
2.48144,-1.12142,-0.194369,22,32765
2.49589,-1.13805,-0.194605,22,32765
2.45585,-1.12984,-0.190766,21,32765
2.4702,-1.14647,-0.191334,22,32765
2.45732,-1.15065,-0.189764,21,32765
2.49857,-1.18032,-0.192009,22,32765
2.5126,-1.19746,-0.192512,22,32765
2.51762,-1.21027,-0.191951,21,32765
2.53161,-1.22739,-0.192007,21,32765
2.49167,-1.2184,-0.188373,21,32765
2.49653,-1.23129,-0.188062,20,32765
2.51912,-1.25328,-0.188966,20,32765
2.50595,-1.25753,-0.18689,20,32765
2.51053,-1.27077,-0.186538,20,32765
2.48846,-1.27031,-0.184004,20,32765
2.53746,-1.30616,-0.186635,20,32765
2.56856,-1.33309,-0.188152,20,32765
2.53759,-1.3279,-0.185008,20,32765
2.56848,-1.35509,-0.186353,21,32765
2.59039,-1.37783,-0.187205,21,32765
2.52424,-1.35359,-0.181446,20,32765
2.55485,-1.3811,-0.182843,21,32765
2.5415,-1.38496,-0.180723,20,32765
2.57189,-1.41274,-0.18203,21,32765
2.58465,-1.43108,-0.182114,21,32765
2.61474,-1.45928,-0.183363,21,32765
2.59251,-1.45829,-0.180781,20,32765
2.64842,-1.50152,-0.183915,21,32765
2.6348,-1.50542,-0.182029,22,32765
2.62112,-1.50935,-0.180211,20,32765
2.62479,-1.5231,-0.179541,20,32765
2.60251,-1.5218,-0.177394,20,32765
2.64048,-1.5559,-0.178777,20,32765
2.62671,-1.55967,-0.177275,20,32765
2.63862,-1.57883,-0.177123,19,32765
2.69323,-1.62378,-0.179909,19,32765
4.75269,-2.88734,-0.316355,28,32765
4.70905,-2.88244,-0.311881,33,32765
4.69112,-2.89279,-0.309033,35,32765
4.67318,-2.90301,-0.306655,33,32765
4.67221,-2.92365,-0.305111,36,32765
4.58664,-2.89112,-0.29851,32,32765
4.64463,-2.94909,-0.300736,36,32765
4.54256,-2.90514,-0.292125,33,32765
4.55808,-2.93656,-0.292236,34,32765
4.50654,-2.92446,-0.28807,36,32765
4.48865,-2.93385,-0.285422,34,32765
4.46221,-2.93789,-0.282802,35,32765
4.47753,-2.96924,-0.282335,34,32765
4.4427,-2.96764,-0.279354,35,32765
4.43301,-2.98229,-0.277342,35,32765
4.37354,-2.96341,-0.272877,34,32765
4.36383,-2.97787,-0.270871,35,32765
4.37062,-3.00344,-0.270368,32,32765
4.35258,-3.01211,-0.268701,33,32765
4.2938,-2.99182,-0.264458,33,32765
4.24337,-2.97693,-0.260293,33,32765
4.24193,-2.99647,-0.259207,34,32765
4.24852,-3.0218,-0.25932,34,32765
4.19799,-3.0067,-0.255944,34,32765
4.18016,-3.01451,-0.25409,32,32765
4.18662,-3.03973,-0.254367,37,32765
4.10426,-3.00014,-0.249638,35,32765
2.34292,-0.719259,-0.212153,21,32765
2.36908,-0.735709,-0.215193,21,32765
2.37609,-0.746509,-0.216565,21,32765
2.34513,-0.745281,-0.214062,21,32765
2.37107,-0.762196,-0.216962,21,32765
2.36847,-0.770225,-0.217078,21,32765
2.38482,-0.784293,-0.218922,22,32765
2.36327,-0.785996,-0.217186,22,32765
2.34178,-0.787458,-0.215301,22,32765
2.38635,-0.811196,-0.219555,22,32765
2.36477,-0.812707,-0.217868,22,32765
2.39972,-0.833654,-0.221013,22,32765
2.38748,-0.838551,-0.219987,22,32765
2.38466,-0.846569,-0.219784,23,32765
2.37248,-0.85116,-0.218554,22,32765
2.40709,-0.872686,-0.221925,22,32765
2.39487,-0.877255,-0.220526,21,32765
2.38255,-0.881953,-0.219358,22,32765
2.39826,-0.897052,-0.220385,22,32765
2.3766,-0.898125,-0.218258,21,32765
2.4015,-0.916878,-0.220334,22,32765
2.41704,-0.93213,-0.221493,22,32765
2.4325,-0.947479,-0.222752,22,32765
2.39226,-0.94112,-0.218563,23,32765
2.43541,-0.967559,-0.222452,23,32765
2.42292,-0.972105,-0.221028,22,32765
2.45663,-0.995204,-0.223887,22,32765
2.42561,-0.992304,-0.220611,22,32765
2.44066,-1.00822,-0.221694,22,32765
2.40964,-1.00517,-0.218346,22,32765
2.41546,-1.01724,-0.218374,21,32765
2.43955,-1.03715,-0.22029,21,32765
2.44525,-1.04937,-0.220108,21,32765
2.46919,-1.06952,-0.221841,22,32765
2.43821,-1.06599,-0.218397,20,32765
2.47111,-1.0904,-0.220746,21,32765
2.4857,-1.10687,-0.221392,22,32765
2.46378,-1.10721,-0.218977,20,32765
2.50543,-1.13623,-0.222215,22,32765
2.49262,-1.14054,-0.22022,21,32765
2.50692,-1.15737,-0.220789,22,32765
2.49405,-1.16159,-0.219139,23,32765
2.49917,-1.17435,-0.219045,22,32765
2.47723,-1.17435,-0.216227,22,32765
2.52722,-1.20865,-0.220052,23,32765
2.51423,-1.21289,-0.218016,22,32765
2.54613,-1.23876,-0.219804,23,32765
2.55095,-1.25177,-0.219642,22,32765
2.53781,-1.25605,-0.217862,21,32765
2.56028,-1.27824,-0.219022,23,32765
2.54704,-1.28265,-0.216827,22,32765
2.52484,-1.28251,-0.214283,22,32765
2.54714,-1.30485,-0.215302,22,32765
2.53393,-1.30894,-0.213237,22,32765
2.54727,-1.32671,-0.21364,22,32765
2.56051,-1.34463,-0.213911,22,32765
2.57367,-1.36263,-0.214145,21,32765
2.56912,-1.37135,-0.213081,21,32765
2.56456,-1.38007,-0.211753,22,32765
2.56872,-1.39352,-0.211336,20,32765
2.5641,-1.40223,-0.209827,21,32765
2.59438,-1.43016,-0.21149,21,32765
2.61578,-1.45347,-0.212454,22,32765
2.59352,-1.45259,-0.20983,22,32765
2.64084,-1.49076,-0.212665,23,32765
2.66186,-1.51452,-0.213641,22,32765
2.67417,-1.53337,-0.213725,23,32765
2.65178,-1.53246,-0.211103,22,32765
2.64673,-1.54133,-0.209823,22,32765
2.62441,-1.5401,-0.207476,22,32765
2.66225,-1.57436,-0.209306,21,32765
2.657,-1.58333,-0.20837,21,32765
2.68591,-1.61292,-0.209719,20,32765
2.63787,-1.59614,-0.20516,20,32765
2.68363,-1.63624,-0.208139,19,32765
4.63372,-2.84658,-0.357937,17,32765
4.70077,-2.90924,-0.36155,37,32765
4.67431,-2.91424,-0.358416,36,32765
4.65638,-2.92433,-0.355664,37,32765
4.61308,-2.91837,-0.351437,37,32765
4.56988,-2.9122,-0.34672,37,32765
4.55206,-2.92185,-0.343459,37,32765
4.53396,-2.9317,-0.341312,37,32765
4.51594,-2.9413,-0.339193,36,32765
4.51468,-2.96171,-0.337687,37,32765
4.47984,-2.96036,-0.334241,36,32765
4.4535,-2.96419,-0.330946,38,32765
4.36896,-2.92918,-0.323996,36,32765
4.45039,-3.00506,-0.328729,36,32765
4.34139,-2.95254,-0.320042,35,32765
4.37288,-2.99515,-0.321064,37,32765
4.32206,-2.98114,-0.316521,34,32765
4.30409,-2.98969,-0.314764,36,32765
4.29453,-3.00353,-0.313553,37,32765
4.26861,-3.00588,-0.310697,36,32765
4.24262,-3.00823,-0.307911,36,32765
4.20849,-3.00463,-0.305252,35,32765
4.19861,-3.01852,-0.30435,37,32765
4.15648,-3.0088,-0.300639,35,32765
4.14677,-3.02225,-0.299928,37,32765
4.10481,-3.012,-0.297274,36,32765
2.31238,-0.705848,-0.244087,21,32765
2.31971,-0.716399,-0.243523,21,32765
2.29849,-0.718042,-0.240356,20,32765
2.35319,-0.743676,-0.24466,21,32765
2.3603,-0.75458,-0.244366,21,32765
2.34839,-0.759435,-0.242369,21,32765
2.32708,-0.76102,-0.239091,21,32765
2.33411,-0.771811,-0.239075,21,32765
2.33168,-0.779501,-0.237806,21,32765
2.32921,-0.78721,-0.23656,20,32765
2.33605,-0.798348,-0.236424,20,32765
2.38053,-0.822438,-0.239948,20,32765
2.34962,-0.820668,-0.236153,20,32765
2.34692,-0.828706,-0.235004,20,32765
2.34422,-0.836623,-0.233892,19,32765
2.33208,-0.841228,-0.231999,19,32765
2.3761,-0.866152,-0.235601,21,32765
2.41064,-0.887976,-0.238136,20,32765
2.41707,-0.899512,-0.238195,19,32765
2.38617,-0.897185,-0.234185,19,32765
2.36457,-0.898214,-0.23158,19,32765
2.38019,-0.913468,-0.232077,20,32765
2.3864,-0.925275,-0.232088,20,32765
2.46676,-0.966121,-0.239347,21,32765
2.40803,-0.952464,-0.232799,21,32765
2.43265,-0.971656,-0.234562,21,32765
2.42945,-0.97988,-0.233491,20,32765
2.43542,-0.991908,-0.233301,21,32765
2.43209,-1.00031,-0.232174,21,32765
2.44709,-1.01637,-0.233102,22,32765
2.4804,-1.04024,-0.235606,22,32765
2.47696,-1.04863,-0.234564,22,32765
2.46434,-1.0531,-0.232553,21,32765
2.43337,-1.0497,-0.229008,21,32765
2.48465,-1.08186,-0.233379,21,32765
2.44453,-1.07438,-0.228886,20,32765
2.47735,-1.09895,-0.231167,21,32765
2.45541,-1.09941,-0.228647,19,32765
2.44262,-1.10379,-0.226658,20,32765
2.42987,-1.10798,-0.224749,20,32765
2.48048,-1.14126,-0.228796,20,32765
2.48575,-1.15385,-0.228437,21,32765
2.47288,-1.15802,-0.226879,20,32765
2.49605,-1.17917,-0.228487,22,32765
2.49217,-1.18757,-0.227249,22,32765
2.48817,-1.19609,-0.226453,20,32765
2.4931,-1.20899,-0.22627,22,32765
2.51581,-1.23081,-0.227843,21,32765
2.5474,-1.25713,-0.22991,21,32765
2.49854,-1.24367,-0.224841,21,32765
2.51216,-1.26115,-0.225764,21,32765
2.55245,-1.29224,-0.228136,21,32765
2.51251,-1.28292,-0.224324,21,32765
2.55249,-1.31439,-0.227063,21,32765
2.50384,-1.30011,-0.222249,21,32765
2.56137,-1.34089,-0.226683,20,32765
2.58342,-1.3634,-0.227958,20,32765
2.5613,-1.36276,-0.225204,19,32765
2.57432,-1.38089,-0.225622,20,32765
2.57843,-1.39448,-0.225234,21,32765
2.59123,-1.41285,-0.225783,22,32765
2.58657,-1.42157,-0.224484,21,32765
2.58188,-1.43026,-0.223271,21,32765
2.57719,-1.43886,-0.222251,20,32765
2.58985,-1.45726,-0.222498,20,32765
2.59371,-1.47087,-0.222079,20,32765
2.64942,-1.51429,-0.226047,21,32765
2.61844,-1.50834,-0.222668,21,32765
2.64796,-1.53718,-0.22424,22,32765
2.60846,-1.52591,-0.220002,21,32765
2.61201,-1.53975,-0.219491,21,32765
2.67564,-1.58913,-0.223596,21,32765
2.59337,-1.55199,-0.216006,20,32765
2.63957,-1.5915,-0.218802,19,32765
2.65991,-1.61587,-0.21963,20,32765
2.6972,-1.65073,-0.221581,18,32765
4.67037,-2.87956,-0.381728,19,32765
4.67785,-2.90574,-0.380536,35,32765
4.65996,-2.91595,-0.376979,33,32765
4.62512,-2.91551,-0.372163,33,32765
4.60717,-2.92551,-0.369163,34,32765
4.58094,-2.92997,-0.364382,37,32765
4.59651,-2.96143,-0.363876,35,32765
4.51997,-2.9332,-0.355313,35,32765
4.51878,-2.95364,-0.353149,34,32765
4.47574,-2.94681,-0.347771,34,32765
4.45792,-2.95608,-0.343716,33,32765
4.45666,-2.97632,-0.341471,37,32765
4.39753,-2.95738,-0.334258,34,32765
4.3632,-2.95505,-0.32944,34,32765
4.40303,-3.00332,-0.330157,35,32765
4.35209,-2.98978,-0.323433,35,32765
4.32598,-2.99281,-0.319269,33,32765
4.35739,-3.03544,-0.318823,33,32765
4.26607,-2.9922,-0.309539,34,32765
4.22391,-2.98308,-0.303615,34,32765
4.20621,-2.99118,-0.299328,35,32765
4.23706,-3.03424,-0.29853,35,32765
4.19507,-3.02466,-0.291946,36,32765
4.15314,-3.01491,-0.285223,34,32765
4.11943,-3.01072,-0.27918,35,32765
2.33785,-0.716342,-0.270032,20,32765
2.33565,-0.724063,-0.26845,21,32765
2.35237,-0.737662,-0.269433,21,32765
2.29323,-0.727468,-0.261299,20,32765
2.33825,-0.750351,-0.265426,21,32765
2.37366,-0.770496,-0.268695,22,32765
2.35234,-0.772171,-0.265214,22,32765
2.35933,-0.783075,-0.265277,22,32765
2.37572,-0.797196,-0.266104,22,32765
2.30729,-0.78271,-0.257475,21,32765
2.35176,-0.806711,-0.261626,22,32765
2.33977,-0.811363,-0.259355,22,32765
2.35587,-0.825907,-0.260483,22,32765
2.3719,-0.840634,-0.261395,22,32765
2.34107,-0.838595,-0.257182,21,32765
2.36636,-0.856749,-0.259293,22,32765
2.40093,-0.878434,-0.262322,22,32765
2.38872,-0.883148,-0.260134,23,32765
2.37652,-0.88768,-0.258265,22,32765
2.38293,-0.899265,-0.258025,22,32765
2.40782,-0.918012,-0.260256,21,32765
2.39551,-0.922726,-0.257913,22,32765
2.40167,-0.934617,-0.258008,22,32765
2.4078,-0.946492,-0.258153,21,32765
2.40471,-0.954638,-0.257002,21,32765
2.44775,-0.981274,-0.261012,22,32765
2.4353,-0.985838,-0.25895,22,32765
2.4136,-0.986622,-0.255917,22,32765
2.43789,-1.00637,-0.257714,22,32765
2.40691,-1.00334,-0.253976,22,32765
2.42186,-1.01941,-0.254933,21,32765
2.45514,-1.04319,-0.25776,21,32765
2.47,-1.05938,-0.258535,22,32765
2.39336,-1.03622,-0.249934,22,32765
2.44461,-1.06832,-0.254873,21,32765
2.45924,-1.08479,-0.255703,22,32765
2.4465,-1.08923,-0.253632,21,32765
2.46093,-1.10591,-0.254692,21,32765
2.43907,-1.10622,-0.251667,21,32765
2.48064,-1.13528,-0.255252,22,32765
2.50396,-1.15628,-0.257049,22,32765
2.47307,-1.15216,-0.253073,22,32765
2.47823,-1.16478,-0.253264,22,32765
2.47435,-1.1732,-0.252391,22,32765
2.50643,-1.19874,-0.254813,23,32765
2.49341,-1.20301,-0.253098,22,32765
2.52517,-1.22903,-0.255722,22,32765
2.52989,-1.24224,-0.25575,23,32765
2.49891,-1.23773,-0.251881,21,32765
2.53928,-1.2686,-0.255322,22,32765
2.5172,-1.26833,-0.252841,23,32765
2.53076,-1.28597,-0.253006,21,32765
2.49976,-1.28111,-0.249709,20,32765
2.53083,-1.30804,-0.252032,20,32765
2.52644,-1.31668,-0.251148,20,32765
2.55736,-1.34373,-0.253594,20,32765
2.57055,-1.36162,-0.254273,20,32765
2.56604,-1.37033,-0.253069,20,32765
2.54391,-1.36963,-0.250214,21,32765
2.58307,-1.40217,-0.253363,21,32765
2.57833,-1.41103,-0.252379,21,32765
2.57368,-1.41974,-0.251082,21,32765
2.59512,-1.44293,-0.252411,22,32765
2.61646,-1.46622,-0.253912,21,32765
2.61164,-1.47499,-0.252641,21,32765
2.62409,-1.49364,-0.253134,21,32765
2.65369,-1.52239,-0.255238,22,32765
2.65724,-1.5364,-0.254884,20,32765
2.64355,-1.54036,-0.252685,20,32765
2.68145,-1.57448,-0.255442,22,32765
2.59904,-1.53784,-0.246838,20,32765
2.62832,-1.56688,-0.248448,21,32765
2.64023,-1.58598,-0.248901,21,32765
2.66065,-1.61025,-0.249819,22,32765
2.68088,-1.63475,-0.250908,21,32765
2.70106,-1.65932,-0.251721,18,32765
2.62784,-1.62634,-0.243853,14,32765
4.67819,-2.91693,-0.432411,35,32765
4.64339,-2.91658,-0.427198,37,32765
4.60859,-2.9161,-0.422103,37,32765
4.57383,-2.91536,-0.417474,36,32765
4.58963,-2.94667,-0.416327,37,32765
4.55486,-2.94576,-0.411545,36,32765
4.52862,-2.95,-0.406764,36,32765
4.50236,-2.95412,-0.40244,37,32765
4.48433,-2.96374,-0.398912,35,32765
4.44987,-2.96203,-0.39328,36,32765
4.44858,-2.98229,-0.391123,37,32765
4.40606,-2.97447,-0.384794,38,32765
4.37173,-2.97218,-0.379682,38,32765
4.40318,-3.01496,-0.380226,37,32765
4.34407,-2.99575,-0.372325,35,32765
4.32616,-3.00446,-0.368669,36,32765
4.31659,-3.01862,-0.365215,37,32765
4.29074,-3.02112,-0.360511,37,32765
4.28926,-3.04094,-0.357578,38,32765
4.21455,-3.0087,-0.348431,36,32765
4.21287,-3.0286,-0.345419,37,32765
4.18714,-3.03065,-0.33979,37,32765
4.12914,-3.00912,-0.331401,35,32765
4.09552,-3.00486,-0.325095,35,32765
2.31094,-0.706104,-0.256698,21,32765
2.36555,-0.731411,-0.263247,21,32765
2.37256,-0.742279,-0.264527,21,32765
2.34165,-0.741117,-0.2614,22,32765
2.36757,-0.758041,-0.264511,19,32765
2.38392,-0.7722,-0.266561,20,32765
2.30573,-0.755437,-0.257948,20,32765
2.33153,-0.772517,-0.26091,21,32765
2.31012,-0.773941,-0.258566,20,32765
2.35466,-0.797511,-0.26373,21,32765
2.34264,-0.80207,-0.262378,21,32765
2.32121,-0.803367,-0.259788,21,32765
2.35606,-0.824293,-0.263841,21,32765
2.37209,-0.838871,-0.265299,20,32765
2.35054,-0.840176,-0.263022,21,32765
2.34765,-0.848294,-0.262771,21,32765
2.3635,-0.863123,-0.264154,22,32765
2.39792,-0.884955,-0.267835,21,32765
2.37633,-0.886088,-0.265297,21,32765
2.3455,-0.883489,-0.261674,20,32765
2.46343,-0.937345,-0.274543,20,32765
2.38605,-0.917082,-0.26573,19,32765
2.39226,-0.928777,-0.266181,20,32765
2.36135,-0.926079,-0.262453,20,32765
2.42299,-0.959749,-0.269094,20,32765
2.4659,-0.98663,-0.273468,21,32765
2.37036,-0.957756,-0.262637,20,32765
2.45006,-0.999668,-0.271085,21,32765
2.43754,-1.00418,-0.269325,21,32765
2.43425,-1.01231,-0.268676,21,32765
2.44926,-1.02817,-0.269975,21,32765
2.40008,-1.01693,-0.264277,20,32765
2.415,-1.03295,-0.265283,21,32765
2.41152,-1.04128,-0.264369,21,32765
2.45361,-1.0695,-0.268485,20,32765
2.45001,-1.07795,-0.2675,21,32765
2.45554,-1.09025,-0.267728,20,32765
2.42471,-1.08629,-0.263919,20,32765
2.46641,-1.11506,-0.268074,21,32765
2.50801,-1.14404,-0.271919,23,32765
2.44993,-1.12769,-0.265037,21,32765
2.44614,-1.1361,-0.264199,21,32765
2.47839,-1.1614,-0.26688,22,32765
2.51046,-1.18693,-0.269988,22,32765
2.50656,-1.19542,-0.268799,21,32765
2.47562,-1.19106,-0.265077,21,32765
2.4986,-1.21242,-0.266741,21,32765
2.4767,-1.21214,-0.263793,21,32765
2.44587,-1.20734,-0.260122,21,32765
2.50425,-1.24673,-0.265473,19,32765
2.46445,-1.2375,-0.26071,21,32765
2.57572,-1.30451,-0.271923,20,32765
2.54472,-1.29983,-0.267833,19,32765
2.51376,-1.29495,-0.264053,19,32765
2.55365,-1.32644,-0.267456,20,32765
2.55801,-1.33985,-0.267222,19,32765
2.55356,-1.3485,-0.266261,19,32765
2.51397,-1.33845,-0.26097,19,32765
2.49191,-1.33763,-0.258346,20,32765
2.54883,-1.37918,-0.263526,21,32765
2.57922,-1.40694,-0.26585,21,32765
2.56587,-1.41079,-0.263819,21,32765
2.61351,-1.44835,-0.268078,21,32765
2.62606,-1.46695,-0.26877,22,32765
2.57781,-1.45142,-0.262983,19,32765
2.59892,-1.47501,-0.264528,20,32765
2.60269,-1.48871,-0.264277,20,32765
2.64092,-1.52238,-0.267379,20,32765
2.61865,-1.52131,-0.264362,21,32765
2.55349,-1.49482,-0.257091,19,32765
2.63426,-1.55416,-0.26487,19,32765
2.66337,-1.58345,-0.266931,20,32765
2.62391,-1.572,-0.262341,21,32765
2.64427,-1.59635,-0.263645,19,32765
2.69859,-1.64152,-0.268214,19,32765
2.71863,-1.66628,-0.269419,19,32765
2.54359,-1.57065,-0.25138,14,32765
4.73836,-2.9478,-0.467375,29,32765
4.65267,-2.91608,-0.457355,34,32765
4.63477,-2.92613,-0.454601,33,32765
4.57463,-2.90969,-0.447311,33,32765
4.59871,-2.94638,-0.44839,33,32765
4.61422,-2.97783,-0.449016,35,32765
4.57936,-2.97696,-0.444492,35,32765
4.51125,-2.95392,-0.437108,34,32765
4.4849,-2.95805,-0.433285,34,32765
4.47514,-2.97308,-0.431238,33,32765
4.44899,-2.97667,-0.427548,34,32765
4.43093,-2.98595,-0.424885,36,32765
4.44594,-3.01739,-0.425587,34,32765
4.37022,-2.98716,-0.417341,33,32765
4.35226,-2.996,-0.414534,36,32765
