x, y, z, intensity, ring
0,0,-0,0,32765
0,0,-0,0,32765
0,0,-0,0,32765
2.32146,0.413876,-0.0955917,11,32765
2.2736,0.397506,-0.0939714,11,32765
2.22566,0.38141,-0.0926277,14,32765
2.19734,0.368955,-0.0919428,17,32765
2.16901,0.356556,-0.0909728,17,32765
2.21953,0.357025,-0.0933276,18,32765
2.20098,0.346286,-0.0930779,18,32765
2.15276,0.331179,-0.0912391,16,32765
2.16374,0.325381,-0.0920646,17,32765
2.16481,0.317961,-0.0927045,17,32765
2.17575,0.312052,-0.0934284,18,32765
2.15699,0.301892,-0.0930465,17,32765
2.15798,0.294649,-0.093383,17,32765
2.19855,0.292671,-0.0954016,18,32765
2.14007,0.277456,-0.0932643,18,32765
2.11125,0.266511,-0.0922234,17,32765
2.12203,0.260651,-0.092911,17,32765
2.12287,0.253548,-0.0933835,17,32765
2.1237,0.246445,-0.0936268,17,32765
2.12449,0.23927,-0.094195,18,32765
2.12528,0.232103,-0.0944741,17,32765
2.13597,0.225988,-0.0952149,17,32765
2.14664,0.219871,-0.0958824,17,32765
2.10759,0.208822,-0.0941999,17,32765
2.1182,0.202628,-0.0952515,17,32765
2.16859,0.200112,-0.0978794,16,32765
2.19908,0.195421,-0.099699,17,32765
2.12009,0.181214,-0.0963373,16,32765
2.11072,0.173257,-0.0961642,17,32765
2.11127,0.166121,-0.0967466,17,32765
2.10184,0.158278,-0.0965741,16,32765
2.12225,0.15273,-0.0980661,16,32765
2.06295,0.141617,-0.0953649,16,32765
2.10324,0.137456,-0.0978528,16,32765
2.10367,0.130471,-0.0983005,17,32765
2.09411,0.122905,-0.0979458,16,32765
2.11444,0.116901,-0.0994556,15,32765
0,0,-0,0,32765
0,0,-0,0,32765
0,0,-0,0,32765
1.51693,0.0637394,-0.0725211,14,32765
1.53708,0.0594786,-0.0737945,13,32765
1.42745,0.0505009,-0.0687826,14,32765
1.32776,0.0425408,-0.0643355,16,32765
1.31789,0.037799,-0.0642448,17,32765
1.39788,0.0354723,-0.0684101,16,32765
1.3081,0.0288539,-0.0642853,16,32765
1.33814,0.0251537,-0.0659255,15,32765
1.30824,0.020407,-0.0648368,16,32765
1.2883,0.0159051,-0.0642468,16,32765
1.27834,0.0115892,-0.0642194,16,32765
1.29833,0.00741362,-0.0654893,15,32765
1.32829,0.00314684,-0.0672776,14,32765
1.29831,-0.00113571,-0.0662094,15,32765
1.29828,-0.00533315,-0.0667151,15,32765
1.26827,-0.00924554,-0.0655395,15,32765
1.27819,-0.0134196,-0.0666335,14,32765
1.25815,-0.0172679,-0.0659668,14,32765
2.28619,0.758364,-0.0795296,19,32765
2.25059,0.738496,-0.0798109,19,32765
2.27193,0.737352,-0.0820483,19,32765
2.22666,0.714744,-0.0819545,19,32765
2.24798,0.713497,-0.0842085,19,32765
2.24072,0.703164,-0.0849842,19,32765
2.22389,0.689867,-0.0855217,19,32765
2.22613,0.682411,-0.0868941,19,32765
2.19962,0.666402,-0.0870129,19,32765
2.24002,0.6707,-0.0897348,19,32765
2.19423,0.649257,-0.0889244,19,32765
2.18671,0.639277,-0.0894929,18,32765
2.20802,0.637373,-0.0916482,19,32765
2.20053,0.62708,-0.0923093,19,32765
2.16414,0.608783,-0.0916028,19,32765
2.20464,0.612207,-0.0942057,19,32765
2.1777,0.597001,-0.0939317,19,32765
2.14104,0.579349,-0.093353,19,32765
2.1622,0.577476,-0.0950421,20,32765
2.16405,0.570339,-0.0959487,19,32765
2.15624,0.560555,-0.0964163,19,32765
2.15805,0.553392,-0.0973263,19,32765
2.12111,0.536356,-0.0964213,19,32765
2.15196,0.536482,-0.098368,20,32765
2.13431,0.524452,-0.0983299,19,32765
2.14573,0.519672,-0.0994368,19,32765
2.12799,0.507828,-0.0994083,18,32765
2.15883,0.507508,-0.101373,19,32765
2.14105,0.49564,-0.101305,19,32765
2.13295,0.486159,-0.101455,19,32765
2.11506,0.474528,-0.101213,19,32765
2.12636,0.469654,-0.102146,19,32765
2.12789,0.46243,-0.103068,19,32765
2.11965,0.453188,-0.102901,19,32765
2.11137,0.443895,-0.103249,19,32765
2.10307,0.434675,-0.103243,19,32765
2.12408,0.431522,-0.104757,19,32765
2.12552,0.424243,-0.105338,19,32765
2.1073,0.413254,-0.104915,18,32765
2.19691,0.423149,-0.110065,14,32765
2.16885,0.410278,-0.108983,13,32765
2.12108,0.393911,-0.106945,17,32765
2.10272,0.383186,-0.106461,19,32765
2.10397,0.37614,-0.106822,19,32765
2.11504,0.370808,-0.107699,19,32765
2.10641,0.361975,-0.107852,19,32765
2.09774,0.353209,-0.107869,19,32765
2.09893,0.345995,-0.108128,19,32765
2.10009,0.338753,-0.108401,18,32765
2.11109,0.333069,-0.109466,18,32765
2.15168,0.331937,-0.111761,16,32765
2.13302,0.32166,-0.111138,13,32765
2.16372,0.318692,-0.113322,12,32765
2.05604,0.295711,-0.107915,15,32765
2.08668,0.292875,-0.109924,17,32765
2.04806,0.280431,-0.108161,18,32765
2.03908,0.27221,-0.107922,18,32765
2.07959,0.27038,-0.110447,19,32765
2.06066,0.260866,-0.109644,19,32765
2.06151,0.25394,-0.109892,18,32765
2.06233,0.247022,-0.110351,18,32765
2.08297,0.242413,-0.111652,19,32765
2.04406,0.230874,-0.110072,18,32765
1.99518,0.218526,-0.107663,18,32765
2.03561,0.215995,-0.110092,19,32765
2.02638,0.208158,-0.109767,18,32765
2.07674,0.206368,-0.11255,18,32765
2.0277,0.194542,-0.110439,17,32765
2.00843,0.185882,-0.10972,18,32765
2.03887,0.181723,-0.111788,17,32765
2.02951,0.173991,-0.11148,17,32765
2.02012,0.16632,-0.111201,17,32765
2.02064,0.159473,-0.111759,18,32765
2.00124,0.151163,-0.110929,18,32765
2.02162,0.145936,-0.112582,18,32765
1.98224,0.136501,-0.110423,18,32765
1.98264,0.129982,-0.111031,17,32765
1.98304,0.123382,-0.111454,18,32765
1.98344,0.116784,-0.111559,18,32765
1.96385,0.108931,-0.110974,18,32765
0,0,-0,0,32765
0,0,-0,0,32765
0,0,-0,0,32765
1.51617,0.0639315,-0.0868385,14,32765
1.32681,0.0515272,-0.0762594,17,32765
1.38682,0.0492457,-0.0799516,16,32765
1.35703,0.0436454,-0.0785971,14,32765
1.34716,0.0387932,-0.078421,15,32765
1.32731,0.0338231,-0.0775173,16,32765
1.26751,0.0280834,-0.0742849,17,32765
1.25761,0.0237535,-0.073858,16,32765
1.26764,0.0198783,-0.0748195,17,32765
1.23773,0.015373,-0.0734364,16,32765
1.2078,0.0110301,-0.0721044,16,32765
1.2178,0.00702469,-0.0729504,16,32765
1.19783,0.00289761,-0.0720043,16,32765
1.20779,-0.00100578,-0.0730224,16,32765
1.21774,-0.00496072,-0.0741003,16,32765
1.22768,-0.00891728,-0.07506,16,32765
1.18768,-0.0124474,-0.073156,15,32765
1.18762,-0.0162872,-0.0735095,15,32765
2.23662,0.744643,-0.112327,17,32765
2.26757,0.746571,-0.113472,17,32765
2.26058,0.735808,-0.11291,16,32765
2.28203,0.734391,-0.114025,17,32765
2.313,0.735947,-0.115289,17,32765
2.27727,0.716383,-0.113758,17,32765
2.24143,0.697109,-0.111958,18,32765
2.26281,0.695563,-0.113118,18,32765
2.23642,0.679319,-0.112072,18,32765
2.24824,0.674679,-0.112837,19,32765
2.25045,0.66722,-0.113031,18,32765
2.27177,0.665488,-0.114477,18,32765
2.25477,0.652375,-0.11374,18,32765
2.23768,0.639418,-0.113339,18,32765
2.22059,0.626428,-0.11263,18,32765
2.26116,0.629622,-0.115122,18,32765
2.22473,0.611399,-0.113519,18,32765
2.2364,0.606466,-0.114505,18,32765
2.2384,0.598975,-0.114916,18,32765
2.18243,0.576157,-0.112412,18,32765
2.24231,0.583948,-0.115997,18,32765
2.19585,0.564107,-0.113743,18,32765
2.21706,0.561671,-0.115229,18,32765
2.2092,0.551839,-0.115434,18,32765
2.21102,0.544381,-0.115879,18,32765
2.1934,0.532224,-0.115497,18,32765
2.21459,0.529479,-0.116858,18,32765
2.20659,0.519805,-0.116983,17,32765
2.17912,0.505589,-0.115856,17,32765
2.21973,0.507071,-0.11856,17,32765
2.19219,0.492992,-0.117385,18,32765
2.21333,0.489832,-0.118926,17,32765
2.20516,0.48027,-0.119143,17,32765
2.18723,0.468644,-0.118373,16,32765
2.21809,0.467369,-0.120646,17,32765
2.19029,0.453722,-0.119771,17,32765
2.18201,0.444271,-0.119753,17,32765
2.20308,0.440641,-0.121483,18,32765
2.19474,0.431222,-0.121419,17,32765
2.17656,0.41994,-0.120975,17,32765
2.16813,0.410753,-0.120889,17,32765
2.19891,0.408979,-0.122951,17,32765
2.21005,0.403375,-0.124301,17,32765
2.16223,0.38716,-0.121979,18,32765
2.11434,0.371071,-0.119897,16,32765
2.10573,0.362128,-0.119865,17,32765
2.11679,0.356545,-0.120817,17,32765
2.18692,0.360676,-0.125249,17,32765
2.12896,0.343756,-0.1223,17,32765
2.11035,0.333407,-0.121874,17,32765
2.10156,0.324771,-0.1219,17,32765
2.09277,0.316079,-0.121629,17,32765
2.1432,0.316148,-0.125046,15,32765
2.20353,0.317368,-0.128916,13,32765
2.24411,0.315436,-0.131729,12,32765
2.09677,0.2876,-0.123499,12,32765
2.16696,0.289841,-0.127924,15,32765
2.11841,0.276012,-0.12558,17,32765
2.15892,0.273863,-0.128335,17,32765
2.13009,0.262938,-0.126883,16,32765
2.08136,0.249887,-0.124443,17,32765
2.10199,0.245392,-0.12576,18,32765
2.10277,0.238429,-0.126059,17,32765
2.11346,0.232494,-0.127077,17,32765
2.07451,0.221014,-0.125065,17,32765
2.07525,0.21394,-0.125226,17,32765
2.09581,0.208962,-0.126529,16,32765
2.08654,0.200889,-0.126422,17,32765
2.08719,0.193942,-0.126646,17,32765
2.09775,0.187782,-0.127675,17,32765
2.02875,0.174697,-0.123471,17,32765
2.04921,0.169472,-0.124916,18,32765
2.01992,0.16016,-0.123109,17,32765
2.06024,0.156461,-0.125765,18,32765
2.04081,0.148201,-0.124964,18,32765
2.0612,0.142911,-0.126148,17,32765
2.07162,0.136738,-0.1268,17,32765
2.08203,0.130421,-0.127373,17,32765
2.0924,0.124079,-0.128261,16,32765
2.08284,0.116516,-0.127672,16,32765
2.10315,0.110743,-0.128856,17,32765
2.06362,0.101854,-0.126477,16,32765
2.18361,0.100508,-0.13356,12,32765
1.9446,0.0831074,-0.118862,13,32765
1.42623,0.0562085,-0.087277,16,32765
1.39649,0.0504215,-0.0853646,17,32765
1.42658,0.0467761,-0.0870263,16,32765
1.46664,0.0431701,-0.0893986,14,32765
1.40692,0.0367377,-0.0856347,14,32765
1.38708,0.0316044,-0.0843785,15,32765
1.3273,0.0258994,-0.0806839,16,32765
1.32739,0.021559,-0.0803691,16,32765
1.29752,0.0167595,-0.0784926,16,32765
1.30757,0.0126273,-0.0787932,16,32765
1.31759,0.00841141,-0.0792551,16,32765
1.25773,0.00387603,-0.0754772,16,32765
1.23779,-0.000289598,-0.0739559,16,32765
1.28772,-0.00463783,-0.0765849,15,32765
1.31766,-0.00915645,-0.0780457,15,32765
1.25775,-0.0128787,-0.0741063,15,32765
1.24775,-0.0167393,-0.0730534,15,32765
2.16859,0.724079,-0.130478,20,32765
2.15205,0.710583,-0.129071,18,32765
2.14496,0.700185,-0.128422,18,32765
2.17578,0.702214,-0.130287,20,32765
2.19712,0.701086,-0.131273,19,32765
2.1613,0.681857,-0.129349,19,32765
2.14445,0.668862,-0.128311,20,32765
2.15618,0.66469,-0.12908,19,32765
2.15837,0.657491,-0.129455,20,32765
2.13187,0.641591,-0.128009,19,32765
2.15312,0.640191,-0.129345,19,32765
2.12644,0.6247,-0.128074,19,32765
2.1285,0.617603,-0.128292,19,32765
2.1497,0.616035,-0.129994,19,32765
2.12294,0.600594,-0.128507,19,32765
2.13455,0.596068,-0.129602,19,32765
2.09804,0.578231,-0.127604,19,32765
2.14813,0.584192,-0.131008,19,32765
2.16934,0.582153,-0.132582,19,32765
2.15196,0.569735,-0.131867,19,32765
2.11519,0.552417,-0.130069,19,32765
2.12666,0.547893,-0.130903,19,32765
2.11878,0.538306,-0.130772,19,32765
2.12053,0.531205,-0.131453,19,32765
2.13198,0.52642,-0.132483,19,32765
2.10461,0.512139,-0.131287,19,32765
2.11601,0.507358,-0.132218,19,32765
2.09823,0.495693,-0.131612,18,32765
2.09987,0.488596,-0.132016,19,32765
2.06257,0.472517,-0.130164,18,32765
2.10308,0.474308,-0.13299,19,32765
2.09491,0.464955,-0.132846,20,32765
2.09642,0.457897,-0.133552,19,32765
2.09794,0.450804,-0.133826,19,32765
2.09943,0.443638,-0.134478,19,32765
2.07157,0.430363,-0.133283,19,32765
2.10233,0.42928,-0.135669,19,32765
2.07442,0.416101,-0.134394,18,32765
2.07579,0.409027,-0.134845,19,32765
2.05755,0.398124,-0.134179,18,32765
2.10787,0.400492,-0.137821,20,32765
2.05031,0.382445,-0.134369,19,32765
2.05154,0.37553,-0.135113,18,32765
2.09205,0.375683,-0.138126,19,32765
2.04416,0.359798,-0.135553,18,32765
2.05518,0.354465,-0.136718,18,32765
2.03669,0.344055,-0.135788,18,32765
2.04767,0.338698,-0.136911,18,32765
2.00937,0.325397,-0.134691,18,32765
2.02028,0.320115,-0.136028,18,32765
2.04103,0.316346,-0.137935,18,32765
2.06181,0.312322,-0.139565,18,32765
2.0431,0.302275,-0.138753,18,32765
2.02435,0.292426,-0.137792,18,32765
2.03519,0.28692,-0.138919,18,32765
1.98668,0.273314,-0.135997,18,32765
2.01723,0.270621,-0.138352,18,32765
2.00821,0.262441,-0.138221,17,32765
2.03876,0.2594,-0.140649,17,32765
2.0396,0.25253,-0.14095,17,32765
2.07011,0.249291,-0.143512,16,32765
2.05109,0.24018,-0.142267,13,32765
2.11133,0.240132,-0.146692,14,32765
1.96335,0.216646,-0.136755,16,32765
1.97398,0.210954,-0.137803,19,32765
1.93499,0.2001,-0.135184,19,32765
1.9555,0.195581,-0.136669,20,32765
1.95612,0.188923,-0.137132,20,32765
1.93686,0.180542,-0.135948,19,32765
1.98711,0.178444,-0.139837,18,32765
1.94795,0.168276,-0.137072,20,32765
1.93855,0.160838,-0.136594,19,32765
1.96892,0.156624,-0.138708,19,32765
1.93957,0.14778,-0.136823,20,32765
1.94002,0.141349,-0.137218,20,32765
1.93053,0.134299,-0.136482,20,32765
1.95087,0.129203,-0.13793,18,32765
1.94134,0.122025,-0.137192,19,32765
1.96163,0.116729,-0.13886,19,32765
1.93213,0.108467,-0.136767,19,32765
1.96236,0.1037,-0.138846,18,32765
1.94276,0.0962392,-0.137497,18,32765
1.97298,0.0911511,-0.139388,18,32765
1.99321,0.0855093,-0.140734,13,32765
1.84396,0.072956,-0.130323,13,32765
1.59498,0.0578206,-0.112619,13,32765
1.34593,0.0443158,-0.0948641,16,32765
1.36602,0.0403833,-0.0962119,18,32765
1.37613,0.036098,-0.096802,15,32765
1.34632,0.030825,-0.0946573,15,32765
1.33645,0.0262147,-0.0939036,15,32765
1.28668,0.0210181,-0.0900947,16,32765
1.21692,0.0158219,-0.0851463,16,32765
1.22696,0.0119427,-0.0855598,17,32765
1.20705,0.00778769,-0.0840408,16,32765
1.18713,0.00372883,-0.0824861,16,32765
1.19714,-0.000219572,-0.0828668,16,32765
1.20713,-0.00429726,-0.0832264,16,32765
1.24703,-0.00862462,-0.0856746,16,32765
1.22707,-0.0125348,-0.0839216,15,32765
1.17717,-0.0157738,-0.0800716,15,32765
2.27393,0.756725,-0.128897,17,32765
2.26676,0.746302,-0.130134,18,32765
2.27857,0.74198,-0.13254,18,32765
2.21437,0.713115,-0.130081,17,32765
2.23563,0.711899,-0.132826,18,32765
2.23792,0.704388,-0.134303,18,32765
2.26873,0.705933,-0.137478,18,32765
2.2519,0.69252,-0.137683,18,32765
2.20633,0.670617,-0.135934,18,32765
2.20843,0.66341,-0.13716,18,32765
2.21054,0.656073,-0.138541,18,32765
2.18389,0.640343,-0.137742,18,32765
2.20515,0.638487,-0.140156,18,32765
2.1976,0.628388,-0.140684,18,32765
2.1996,0.621106,-0.141658,18,32765
2.20158,0.613791,-0.142908,17,32765
2.18429,0.601228,-0.142464,18,32765
2.18624,0.593836,-0.143519,18,32765
2.17856,0.58385,-0.143577,18,32765
2.19974,0.581623,-0.145799,18,32765
2.22095,0.579215,-0.147975,18,32765
2.19382,0.564327,-0.146867,18,32765
2.18596,0.554549,-0.147137,18,32765
2.18777,0.547193,-0.147735,17,32765
2.19921,0.542266,-0.149405,18,32765
2.17188,0.527782,-0.148233,17,32765
2.18328,0.522853,-0.149752,17,32765
2.19471,0.5177,-0.151085,17,32765
2.1381,0.496673,-0.147869,18,32765
2.13975,0.489301,-0.148452,17,32765
2.18029,0.490815,-0.151757,18,32765
2.13318,0.472648,-0.149171,17,32765
2.16398,0.471803,-0.15164,17,32765
2.15575,0.462433,-0.151622,17,32765
2.11824,0.44685,-0.14933,17,32765
2.13924,0.443706,-0.15122,17,32765
2.10159,0.428526,-0.148908,17,32765
2.11278,0.423317,-0.150226,17,32765
2.13374,0.419964,-0.152254,17,32765
2.14492,0.414678,-0.153236,17,32765
2.09727,0.398113,-0.150161,17,32765
2.12797,0.396567,-0.152836,17,32765
2.1489,0.392915,-0.154811,17,32765
2.11093,0.378554,-0.152237,17,32765
2.09252,0.367878,-0.151386,17,32765
2.04459,0.352334,-0.148074,17,32765
2.06541,0.348826,-0.14968,18,32765
2.1059,0.348367,-0.153057,18,32765
2.10704,0.341197,-0.153531,17,32765
2.11803,0.335452,-0.154649,17,32765
2.0896,0.323532,-0.152645,18,32765
2.09068,0.316247,-0.153131,17,32765
2.06213,0.304688,-0.151259,17,32765
2.08288,0.300531,-0.152929,18,32765
2.08385,0.293515,-0.153331,17,32765
2.06505,0.283733,-0.152191,17,32765
2.07586,0.278083,-0.153213,17,32765
2.04709,0.267182,-0.151456,17,32765
2.05786,0.2615,-0.152416,17,32765
2.0686,0.255758,-0.153525,17,32765
2.07935,0.249942,-0.154347,17,32765
2.09006,0.244078,-0.155425,17,32765
2.07103,0.23477,-0.154325,17,32765
2.04205,0.224482,-0.152448,15,32765
2.12211,0.226049,-0.158589,14,32765
2.16251,0.222938,-0.162009,15,32765
2.05407,0.204806,-0.154119,17,32765
2.05473,0.197844,-0.154464,18,32765
2.06528,0.191892,-0.155509,17,32765
2.03608,0.182298,-0.153784,19,32765
2.02674,0.174566,-0.153132,18,32765
2.05709,0.170201,-0.15596,18,32765
2.01787,0.160046,-0.153237,18,32765
1.99849,0.151733,-0.152077,18,32765
2.01884,0.146401,-0.154124,19,32765
2.04914,0.141665,-0.156748,19,32765
1.98988,0.130923,-0.152468,18,32765
2.01017,0.125571,-0.15447,19,32765
2.0205,0.119532,-0.155591,19,32765
2.02084,0.112847,-0.156138,18,32765
2.02118,0.106142,-0.156472,18,32765
2.0215,0.0994804,-0.156592,18,32765
2.01182,0.0922305,-0.156435,19,32765
2.00211,0.0851173,-0.156269,18,32765
2.02228,0.0792647,-0.158159,15,32765
2.0723,0.074245,-0.162661,12,32765
1.95294,0.0634565,-0.153633,13,32765
0,0,-0,0,32765
0,0,-0,0,32765
1.6444,0.0369187,-0.130723,13,32765
1.53486,0.0293514,-0.122293,14,32765
1.50501,0.0238313,-0.120339,13,32765
1.4552,0.018234,-0.116889,14,32765
1.42531,0.0132597,-0.114973,14,32765
1.33561,0.00810642,-0.10806,14,32765
1.35554,0.0037987,-0.110027,15,32765
1.26579,-0.000584754,-0.103276,16,32765
1.22587,-0.00462809,-0.100544,16,32765
1.24575,-0.00878205,-0.102569,17,32765
1.24567,-0.0128277,-0.103136,17,32765
1.24557,-0.016862,-0.103813,17,32765
2.13948,0.714074,-0.142569,19,32765
2.17008,0.716573,-0.146161,19,32765
2.18179,0.712554,-0.148585,18,32765
2.15552,0.696208,-0.148017,19,32765
2.11017,0.673927,-0.146296,19,32765
2.14088,0.675829,-0.149688,19,32765
2.15252,0.671747,-0.151741,19,32765
2.10698,0.649867,-0.149658,19,32765
2.13766,0.651663,-0.152824,19,32765
2.11104,0.636027,-0.15195,18,32765
2.12261,0.631839,-0.153966,19,32765
2.12462,0.624806,-0.15494,19,32765
2.09791,0.609233,-0.153996,20,32765
2.09027,0.599467,-0.154376,19,32765
2.12097,0.600675,-0.157441,20,32765
2.08444,0.582858,-0.155776,19,32765
2.07669,0.573306,-0.155825,20,32765
2.12666,0.579366,-0.16046,20,32765
2.07078,0.556612,-0.156761,19,32765
2.08221,0.552184,-0.158392,19,32765
2.08401,0.545117,-0.159236,19,32765
2.09542,0.540618,-0.160759,19,32765
2.03916,0.518849,-0.157171,19,32765
2.0602,0.516821,-0.159225,19,32765
2.08121,0.514701,-0.161684,20,32765
2.07319,0.505303,-0.161699,19,32765
2.05542,0.493703,-0.160997,19,32765
2.07645,0.491268,-0.163149,19,32765
2.06834,0.481907,-0.163156,18,32765
2.0408,0.46807,-0.161416,19,32765
2.07151,0.467723,-0.164298,19,32765
2.07302,0.460697,-0.165079,20,32765
2.09402,0.457921,-0.167042,20,32765
2.02727,0.43618,-0.16223,18,32765
2.05797,0.435444,-0.16501,19,32765
2.05941,0.428434,-0.165507,19,32765
2.05104,0.419479,-0.165162,19,32765
2.01332,0.404607,-0.162614,18,32765
2.0342,0.401583,-0.164801,19,32765
2.01595,0.390926,-0.163484,18,32765
2.04661,0.389674,-0.16628,19,32765
2.00867,0.37547,-0.163636,18,32765
2.0197,0.370416,-0.164968,18,32765
2.02093,0.363519,-0.165211,18,32765
2.04175,0.360049,-0.167368,18,32765
2.01348,0.348034,-0.165193,18,32765
2.01461,0.341291,-0.165371,18,32765
2.00588,0.332841,-0.165067,18,32765
2.01681,0.327591,-0.166331,18,32765
1.95884,0.311198,-0.161834,18,32765
1.96975,0.305919,-0.162793,18,32765
2.00033,0.303519,-0.165701,18,32765
2.00134,0.296626,-0.165988,17,32765
1.98259,0.286953,-0.164565,18,32765
1.96378,0.277468,-0.163307,17,32765
1.99431,0.274874,-0.166073,18,32765
2.03471,0.273429,-0.169651,18,32765
1.98619,0.260053,-0.165953,17,32765
1.97715,0.252042,-0.165347,17,32765
1.92852,0.239198,-0.161565,18,32765
1.92931,0.232649,-0.161646,18,32765
1.95976,0.229597,-0.164455,19,32765
2.0001,0.227462,-0.168139,18,32765
1.9414,0.214111,-0.163467,18,32765
1.952,0.208608,-0.164504,19,32765
1.95267,0.201966,-0.164917,19,32765
1.9434,0.194412,-0.16435,19,32765
1.95394,0.188765,-0.165517,19,32765
1.95454,0.182211,-0.1658,19,32765
1.97494,0.177422,-0.167987,17,32765
1.95567,0.169018,-0.166393,17,32765
1.96611,0.163234,-0.167789,16,32765
1.94677,0.154943,-0.166376,16,32765
1.94725,0.148362,-0.166716,16,32765
1.93776,0.14102,-0.166379,17,32765
1.89844,0.131719,-0.163287,17,32765
1.88891,0.124732,-0.162704,19,32765
1.9191,0.120326,-0.165728,20,32765
1.92941,0.114572,-0.166928,19,32765
1.90984,0.107057,-0.165725,19,32765
1.9201,0.101228,-0.166905,18,32765
1.90052,0.0938992,-0.165289,19,32765
1.91072,0.0879539,-0.166739,19,32765
1.901,0.0811588,-0.166448,19,32765
1.9311,0.0760193,-0.169383,19,32765
1.93129,0.0695047,-0.169948,17,32765
1.95139,0.0637042,-0.172057,13,32765
0,0,-0,0,32765
0,0,-0,0,32765
1.58334,0.0357483,-0.140915,13,32765
1.60334,0.03085,-0.142985,13,32765
1.5038,0.0239766,-0.134531,14,32765
1.49387,0.018869,-0.134189,13,32765
1.49387,0.0140356,-0.134699,14,32765
1.38433,0.00851842,-0.125156,14,32765
1.32456,0.00381192,-0.1201,14,32765
1.32452,-0.000522961,-0.120655,14,32765
1.34437,-0.00499665,-0.123041,15,32765
1.25469,-0.00878217,-0.115231,15,32765
1.17494,-0.0120502,-0.10845,16,32765
1.14497,-0.0154618,-0.106315,17,32765
2.22158,0.743862,-0.183741,18,32765
2.18616,0.724047,-0.180404,18,32765
2.18849,0.716943,-0.180568,18,32765
2.18139,0.706631,-0.179529,17,32765
2.17422,0.696328,-0.178869,18,32765
2.19551,0.695088,-0.18081,18,32765
2.16924,0.678924,-0.178509,17,32765
2.18095,0.674757,-0.179666,18,32765
2.1736,0.664689,-0.17898,18,32765
2.15668,0.651766,-0.177533,17,32765
2.17796,0.650169,-0.17942,18,32765
2.16098,0.637254,-0.178021,18,32765
2.14394,0.624376,-0.176898,18,32765
2.15561,0.619826,-0.177962,18,32765
2.16724,0.615305,-0.179046,18,32765
2.19808,0.616022,-0.181878,18,32765
2.17128,0.600654,-0.179858,18,32765
2.17328,0.593317,-0.180132,18,32765
2.12707,0.573107,-0.176683,17,32765
2.12898,0.565926,-0.17687,17,32765
2.16939,0.568833,-0.180706,18,32765
2.13272,0.551427,-0.177629,18,32765
2.14421,0.546557,-0.178979,18,32765
2.12668,0.534389,-0.177948,18,32765
2.13811,0.52963,-0.179049,18,32765
2.13016,0.520084,-0.178742,18,32765
2.11248,0.508238,-0.17749,17,32765
2.13356,0.505659,-0.179501,18,32765
2.07703,0.484723,-0.174953,18,32765
2.10777,0.484246,-0.178031,17,32765
2.14827,0.485762,-0.181808,17,32765
2.0915,0.465519,-0.177291,17,32765
2.16118,0.473375,-0.183404,18,32765
2.06532,0.444999,-0.175635,18,32765
2.07651,0.440033,-0.177107,17,32765
2.09749,0.43696,-0.179189,17,32765
2.12823,0.435749,-0.182064,17,32765
2.0906,0.420508,-0.179367,17,32765
2.09201,0.413289,-0.179724,18,32765
2.06402,0.400468,-0.177601,18,32765
2.04576,0.389703,-0.176398,18,32765
2.03724,0.380955,-0.175852,18,32765
2.10706,0.386665,-0.182473,17,32765
2.04947,0.368937,-0.177953,18,32765
2.06049,0.363771,-0.17907,17,32765
2.0813,0.360126,-0.181435,17,32765
2.06283,0.349645,-0.180218,17,32765
2.09347,0.347358,-0.18343,18,32765
2.07495,0.336936,-0.182088,18,32765
2.07605,0.329805,-0.182562,17,32765
2.04757,0.318123,-0.18072,18,32765
2.04864,0.311131,-0.180724,17,32765
2.0792,0.308434,-0.184155,17,32765
2.08021,0.301271,-0.184504,18,32765
2.05159,0.289998,-0.182482,17,32765
2.03277,0.280372,-0.181172,17,32765
2.04353,0.274903,-0.182494,17,32765
2.07405,0.271879,-0.185494,18,32765
2.0354,0.259771,-0.182378,17,32765
2.04613,0.253992,-0.183679,17,32765
2.03705,0.245782,-0.183341,17,32765
2.02795,0.237755,-0.182733,17,32765
2.0386,0.232054,-0.183973,17,32765
2.01952,0.223064,-0.182669,17,32765
2.03013,0.217356,-0.18388,18,32765
1.99119,0.206416,-0.180676,18,32765
2.02158,0.202637,-0.183745,18,32765
2.00239,0.193847,-0.182357,17,32765
1.99309,0.186159,-0.181719,17,32765
2.03336,0.183028,-0.185624,17,32765
1.9744,0.171016,-0.180537,17,32765
2.01465,0.167771,-0.184204,18,32765
2.01517,0.161,-0.184623,17,32765
2.00575,0.153528,-0.183884,17,32765
2.01615,0.147519,-0.185122,16,32765
1.98682,0.13873,-0.182518,15,32765
2.01706,0.134093,-0.185393,15,32765
2.00755,0.126682,-0.18469,15,32765
2.02783,0.121188,-0.186594,15,32765
2.03816,0.114964,-0.187628,15,32765
2.01861,0.107115,-0.186096,16,32765
1.98914,0.0989357,-0.183166,18,32765
1.96954,0.0913591,-0.181553,18,32765
1.98974,0.0856612,-0.183274,18,32765
1.99996,0.0794281,-0.184261,17,32765
1.9405,0.070531,-0.178855,17,32765
1.96064,0.0647408,-0.180498,15,32765
1.91108,0.0567642,-0.175943,13,32765
1.95109,0.0515738,-0.179386,14,32765
1.8517,0.0428198,-0.170218,12,32765
0,0,-0,0,32765
0,0,-0,0,32765
1.61309,0.0211044,-0.147973,14,32765
1.42397,0.0139552,-0.130436,13,32765
1.47381,0.0096508,-0.134837,14,32765
1.41411,0.00461625,-0.129135,14,32765
1.40418,-6.2707e-05,-0.127949,14,32765
1.33449,-0.00453137,-0.121357,14,32765
1.3345,-0.00890398,-0.120908,15,32765
1.22496,-0.012207,-0.110516,17,32765
1.22496,-0.0162138,-0.110062,17,32765
2.06805,0.694622,-0.191717,18,32765
2.07979,0.690969,-0.192395,20,32765
2.09148,0.687302,-0.193428,20,32765
2.09377,0.680364,-0.193184,18,32765
2.09602,0.673374,-0.193301,19,32765
2.06025,0.654297,-0.19016,19,32765
2.0814,0.65346,-0.19196,20,32765
2.08351,0.646615,-0.192319,19,32765
2.07609,0.636842,-0.191537,19,32765
2.0591,0.624209,-0.189899,19,32765
2.09935,0.628649,-0.193723,20,32765
2.05367,0.60749,-0.189487,19,32765
2.06523,0.603323,-0.190806,20,32765
2.05769,0.593505,-0.190187,20,32765
2.06923,0.5893,-0.191353,20,32765
2.04241,0.574173,-0.18912,20,32765
2.0827,0.577936,-0.193021,20,32765
2.03659,0.557725,-0.188832,20,32765
2.05762,0.556114,-0.191133,20,32765
2.0306,0.54145,-0.188634,20,32765
2.02274,0.532025,-0.188334,20,32765
2.0631,0.535084,-0.192054,20,32765
2.03594,0.52057,-0.189881,19,32765
2.04731,0.516044,-0.191343,19,32765
2.02002,0.501932,-0.188912,19,32765
2.02165,0.495127,-0.189391,19,32765
2.05232,0.4953,-0.192474,20,32765
2.03459,0.483703,-0.191024,19,32765
2.03621,0.476678,-0.191367,19,32765
2.01838,0.465155,-0.190144,18,32765
2.00052,0.453763,-0.188779,18,32765
2.02144,0.451331,-0.191018,19,32765
2.0132,0.442342,-0.190418,19,32765
2.00493,0.433339,-0.189978,18,32765
1.97712,0.420283,-0.187825,19,32765
2.00775,0.419579,-0.191003,19,32765
1.97989,0.40665,-0.188571,19,32765
2.00076,0.403704,-0.191047,18,32765
1.95328,0.387098,-0.186722,18,32765
1.98387,0.386131,-0.189904,18,32765
1.96557,0.375613,-0.188496,18,32765
1.95702,0.367114,-0.187845,17,32765
1.95819,0.360488,-0.1885,18,32765
1.93976,0.350299,-0.187158,18,32765
1.94091,0.343751,-0.187409,18,32765
1.98124,0.34391,-0.191824,19,32765
1.97256,0.335415,-0.191348,18,32765
1.98348,0.330165,-0.192905,18,32765
1.9944,0.324899,-0.194227,18,32765
1.92665,0.307059,-0.187971,18,32765
2.0063,0.312722,-0.196382,18,32765
1.94832,0.296856,-0.190611,18,32765
1.94926,0.290102,-0.191384,19,32765
1.95022,0.283368,-0.191713,18,32765
1.94126,0.275305,-0.191314,18,32765
1.952,0.270119,-0.192713,18,32765
1.94299,0.262243,-0.192162,18,32765
1.91423,0.251763,-0.189564,18,32765
1.94465,0.249019,-0.192895,18,32765
1.95534,0.243536,-0.194272,18,32765
1.90671,0.230833,-0.189882,18,32765
1.92722,0.226712,-0.192118,18,32765
1.91806,0.219077,-0.191461,19,32765
1.92863,0.213755,-0.192909,19,32765
1.9293,0.207273,-0.193209,18,32765
1.91016,0.198704,-0.191597,18,32765
1.91079,0.192203,-0.19195,19,32765
1.9213,0.186653,-0.193342,18,32765
1.9318,0.181076,-0.194595,18,32765
1.90264,0.171876,-0.191872,18,32765
1.89327,0.164582,-0.191205,18,32765
1.87397,0.156626,-0.189239,18,32765
1.87445,0.150311,-0.189629,18,32765
1.90468,0.146337,-0.192802,18,32765
1.90513,0.139924,-0.193112,18,32765
1.8758,0.13148,-0.19022,19,32765
1.87622,0.125214,-0.190348,19,32765
1.87661,0.118887,-0.190544,18,32765
1.87699,0.112623,-0.190615,19,32765
1.89721,0.107452,-0.192744,18,32765
1.89753,0.101111,-0.193025,18,32765
1.91775,0.0957923,-0.194873,18,32765
1.91803,0.08936,-0.195086,16,32765
1.94815,0.0842489,-0.198008,15,32765
1.92853,0.0769482,-0.196056,16,32765
1.85918,0.0679021,-0.189073,17,32765
1.83952,0.0610479,-0.186871,18,32765
1.87949,0.0561222,-0.190937,17,32765
1.88963,0.0502298,-0.191733,14,32765
1.82017,0.0423445,-0.184654,15,32765
0,0,-0,0,32765
0,0,-0,0,32765
1.56188,0.0206092,-0.158147,14,32765
1.50227,0.0148771,-0.151911,16,32765
1.47247,0.00978038,-0.148734,15,32765
1.46257,0.00489863,-0.147485,14,32765
1.40291,4.36178e-05,-0.141189,13,32765
1.33328,-0.0044386,-0.13394,14,32765
1.30345,-0.00862203,-0.130503,15,32765
1.26367,-0.0125318,-0.126037,15,32765
1.28357,-0.0169395,-0.127545,15,32765
2.18276,0.730984,-0.193228,17,32765
2.1661,0.717502,-0.19312,17,32765
2.1778,0.71341,-0.195553,18,32765
2.20844,0.715464,-0.199531,18,32765
2.15375,0.689886,-0.195695,17,32765
2.17494,0.688632,-0.198753,18,32765
2.16761,0.678389,-0.199115,17,32765
2.16023,0.668243,-0.199405,18,32765
2.16232,0.661103,-0.200538,17,32765
2.16436,0.654004,-0.201783,18,32765
2.14731,0.641185,-0.201065,18,32765
2.10158,0.619974,-0.197469,18,32765
2.11309,0.615737,-0.199568,17,32765
2.14378,0.6169,-0.203043,17,32765
2.10741,0.598811,-0.200598,17,32765
2.11894,0.59425,-0.202664,18,32765
2.08249,0.576424,-0.199695,18,32765
2.14198,0.585092,-0.206144,18,32765
2.115,0.570122,-0.204307,18,32765
2.08793,0.555418,-0.202382,18,32765
2.09933,0.55096,-0.204099,18,32765
2.09144,0.541426,-0.204025,17,32765
2.08353,0.531889,-0.203905,17,32765
2.09492,0.527199,-0.205637,18,32765
2.07728,0.515302,-0.204588,18,32765
2.07898,0.508115,-0.2053,17,32765
2.07094,0.498726,-0.20516,18,32765
2.05318,0.48708,-0.203933,18,32765
2.08383,0.486936,-0.207514,18,32765
2.07566,0.477768,-0.207302,18,32765
2.07718,0.470823,-0.207997,18,32765
2.06894,0.461738,-0.207777,17,32765
2.05102,0.450416,-0.206286,18,32765
2.03304,0.439155,-0.204883,17,32765
2.07343,0.440403,-0.209406,17,32765
2.05539,0.429204,-0.207952,17,32765
2.06651,0.424282,-0.209613,17,32765
2.02884,0.409474,-0.206253,17,32765
2.07896,0.412235,-0.211893,17,32765
2.06076,0.401413,-0.210334,17,32765
2.02298,0.386866,-0.206847,17,32765
2.02423,0.379925,-0.207478,18,32765
2.04506,0.376578,-0.209812,17,32765
2.04627,0.36955,-0.210524,18,32765
2.04747,0.362635,-0.210873,17,32765
1.99962,0.347113,-0.206465,17,32765
2.00074,0.340391,-0.206776,18,32765
2.02146,0.336878,-0.20927,18,32765
2.04217,0.333207,-0.211953,18,32765
2.01379,0.321541,-0.209172,18,32765
1.99518,0.311517,-0.207658,18,32765
1.99619,0.304611,-0.208193,18,32765
1.9972,0.297697,-0.208523,17,32765
2.02769,0.295081,-0.212165,17,32765
1.9991,0.283989,-0.209413,17,32765
2.00002,0.277103,-0.209837,17,32765
2.04032,0.275655,-0.21454,19,32765
2.00179,0.263528,-0.210426,17,32765
2.00261,0.256669,-0.211112,17,32765
2.02316,0.252393,-0.213571,17,32765
2.00423,0.243094,-0.211809,17,32765
2.0445,0.241015,-0.216419,17,32765
1.99585,0.228498,-0.211637,17,32765
1.95702,0.217305,-0.207931,17,32765
1.99727,0.214914,-0.212423,16,32765
1.97816,0.205985,-0.210804,16,32765
1.98869,0.200301,-0.212307,17,32765
1.99922,0.194528,-0.213719,17,32765
1.99983,0.187743,-0.214084,17,32765
2.00041,0.181049,-0.214474,17,32765
1.97122,0.171609,-0.211957,18,32765
1.98167,0.165742,-0.21332,18,32765
1.95244,0.156615,-0.210571,17,32765
1.95292,0.149967,-0.210958,18,32765
1.98313,0.145537,-0.214488,18,32765
1.96374,0.137407,-0.212707,17,32765
1.99391,0.132805,-0.216319,17,32765
1.96452,0.124211,-0.213629,17,32765
1.99467,0.119366,-0.217138,17,32765
1.92552,0.108822,-0.21005,17,32765
1.97548,0.104928,-0.215801,18,32765
1.98571,0.0988352,-0.21726,17,32765
1.9959,0.0926894,-0.218884,18,32765
1.93656,0.0834153,-0.212779,17,32765
1.96656,0.0781473,-0.216622,18,32765
1.95684,0.0711684,-0.215896,18,32765
1.94709,0.0642489,-0.215235,17,32765
1.93731,0.0575346,-0.214521,16,32765
1.96724,0.0518172,-0.218329,14,32765
1.99715,0.0459677,-0.222224,13,32765
1.92768,0.0379232,-0.214944,13,32765
0,0,-0,0,32765
0,0,-0,0,32765
0,0,-0,0,32765
1.62969,0.0104172,-0.183334,14,32765
1.60978,0.00495062,-0.181585,15,32765
1.62958,-0.000341569,-0.184549,15,32765
1.50037,-0.00522807,-0.170165,14,32765
1.46054,-0.00989075,-0.166199,14,32765
1.43063,-0.0143513,-0.163418,14,32765
1.39078,-0.01857,-0.159299,15,32765
2.10474,0.70709,-0.207384,18,32765
2.09747,0.696972,-0.207971,18,32765
2.08071,0.683769,-0.207619,19,32765
2.05441,0.66768,-0.206118,19,32765
2.0565,0.660828,-0.207363,18,32765
2.07757,0.659894,-0.21055,18,32765
2.08915,0.655912,-0.212699,19,32765
2.07219,0.643051,-0.211883,19,32765
2.03614,0.624509,-0.209065,19,32765
2.06664,0.626465,-0.213186,20,32765
2.04952,0.613936,-0.212235,19,32765
2.0133,0.595825,-0.209124,19,32765
2.05336,0.600244,-0.214257,19,32765
2.03618,0.587806,-0.212994,20,32765
2.00932,0.572764,-0.211121,20,32765
2.0399,0.573915,-0.21525,19,32765
2.0226,0.561639,-0.21391,20,32765
2.02441,0.554748,-0.214788,20,32765
1.99736,0.540137,-0.212621,19,32765
2.00867,0.536049,-0.214472,20,32765
2.00076,0.526776,-0.214195,19,32765
2.00243,0.520049,-0.215023,19,32765
2.00409,0.513256,-0.215814,19,32765
2.03469,0.513692,-0.219693,20,32765
2.01703,0.501969,-0.218434,19,32765
2.00903,0.492602,-0.218079,19,32765
1.99127,0.481091,-0.216767,18,32765
1.97348,0.469687,-0.215327,19,32765
1.97499,0.462999,-0.215988,18,32765
1.95707,0.451932,-0.214581,18,32765
2.01667,0.458594,-0.221632,18,32765
1.95019,0.436652,-0.214883,18,32765
1.96134,0.432125,-0.216393,18,32765
2.00162,0.433778,-0.221223,19,32765
1.95443,0.416484,-0.216423,19,32765
1.98499,0.415859,-0.220149,18,32765
1.9571,0.403137,-0.217553,18,32765
1.9389,0.392607,-0.215957,18,32765
1.96941,0.391797,-0.219861,19,32765
1.94141,0.379411,-0.217003,19,32765
1.93288,0.370858,-0.216391,18,32765
1.92431,0.362368,-0.215899,19,32765
1.90596,0.352129,-0.214016,18,32765
1.93643,0.350877,-0.217983,19,32765
1.92779,0.342577,-0.217212,19,32765
1.91909,0.334248,-0.216721,19,32765
1.93977,0.331123,-0.219236,19,32765
1.93103,0.322889,-0.218575,19,32765
1.89282,0.30988,-0.214742,19,32765
1.90365,0.304982,-0.216116,19,32765
1.89482,0.296852,-0.215503,20,32765
1.93507,0.29629,-0.22049,19,32765
1.90657,0.28516,-0.217448,19,32765
1.90749,0.278542,-0.217977,19,32765
1.88871,0.269232,-0.216049,19,32765
1.93879,0.269549,-0.222088,18,32765
1.90025,0.257624,-0.218108,19,32765
1.88141,0.248546,-0.215879,19,32765
1.88218,0.242081,-0.216524,19,32765
1.91252,0.239432,-0.220284,18,32765
1.9133,0.232888,-0.220592,19,32765
1.88442,0.222937,-0.217584,17,32765
1.90485,0.218864,-0.220288,18,32765
1.91541,0.213453,-0.221904,19,32765
1.89634,0.204796,-0.219895,18,32765
1.8871,0.197223,-0.219212,19,32765
1.89759,0.191831,-0.220789,18,32765
1.84876,0.180559,-0.215369,19,32765
1.87899,0.177062,-0.219168,19,32765
1.85975,0.168958,-0.217224,19,32765
1.88993,0.165163,-0.221331,18,32765
1.88055,0.157894,-0.220456,19,32765
1.88103,0.151479,-0.220891,19,32765
1.85178,0.142766,-0.217771,18,32765
1.87203,0.137937,-0.2204,18,32765
1.87245,0.131555,-0.220747,18,32765
1.86293,0.124597,-0.219944,18,32765
1.86328,0.118308,-0.220455,18,32765
1.85372,0.11141,-0.219535,19,32765
1.84412,0.104681,-0.218816,18,32765
1.84442,0.098409,-0.219132,19,32765
1.82487,0.0912497,-0.21712,18,32765
1.8251,0.0851612,-0.217612,18,32765
1.85509,0.0802989,-0.221571,18,32765
1.83544,0.0733086,-0.219734,18,32765
1.85548,0.0678406,-0.222459,18,32765
1.84573,0.0612438,-0.221681,19,32765
1.83595,0.0548454,-0.220854,18,32765
1.82614,0.0484029,-0.220131,18,32765
1.84608,0.0427794,-0.223067,18,32765
1.84616,0.0365912,-0.223507,19,32765
0,0,-0,0,32765
0,0,-0,0,32765
0,0,-0,0,32765
1.62788,0.0105858,-0.198698,13,32765
1.55837,0.00495079,-0.190689,15,32765
1.58807,-0.000185691,-0.195037,15,32765
1.5781,-0.00536702,-0.194075,16,32765
1.54823,-0.0103691,-0.190987,16,32765
1.45879,-0.0145379,-0.180592,15,32765
1.32968,-0.0176789,-0.165023,16,32765
2.11988,0.714482,-0.241065,18,32765
2.15057,0.71684,-0.244103,18,32765
2.1057,0.694127,-0.238973,17,32765
2.10797,0.687171,-0.2391,17,32765
2.12913,0.686274,-0.241488,18,32765
2.12195,0.676025,-0.240678,18,32765
2.1147,0.665884,-0.239885,18,32765
2.07892,0.646875,-0.236084,18,32765
2.10959,0.648588,-0.239493,18,32765
2.09269,0.63573,-0.237706,17,32765
2.11381,0.634389,-0.240349,18,32765
2.11586,0.627265,-0.240956,17,32765
2.06069,0.603327,-0.234851,17,32765
2.11995,0.612902,-0.241961,17,32765
2.05505,0.586655,-0.234713,18,32765
2.09526,0.590441,-0.239533,18,32765
2.08762,0.580672,-0.238917,18,32765
2.06072,0.565799,-0.236208,18,32765
2.05295,0.55623,-0.235785,17,32765
2.06436,0.551917,-0.237293,18,32765
2.09503,0.552422,-0.240999,17,32765
2.05836,0.535248,-0.237237,17,32765
2.05047,0.525753,-0.236734,18,32765
2.01367,0.508989,-0.232771,18,32765
2.08282,0.519075,-0.240847,18,32765
2.02659,0.497747,-0.234874,18,32765
2.05716,0.497974,-0.238798,18,32765
2.04908,0.488738,-0.238339,17,32765
2.02168,0.474921,-0.235298,17,32765
2.04262,0.472358,-0.238089,18,32765
2.05389,0.467323,-0.239909,17,32765
2.03603,0.455866,-0.238241,18,32765
2.04722,0.45098,-0.239995,17,32765
2.0487,0.443977,-0.240472,18,32765
2.01127,0.428737,-0.23641,18,32765
1.99321,0.417777,-0.234698,17,32765
2.03349,0.418982,-0.239733,18,32765
1.99588,0.404135,-0.235902,18,32765
2.02643,0.403169,-0.239681,18,32765
2.01798,0.39432,-0.239109,18,32765
1.99,0.381725,-0.236209,18,32765
2.001,0.376754,-0.237808,18,32765
2.00219,0.369915,-0.238535,18,32765
2.01316,0.364873,-0.240113,18,32765
1.97523,0.35108,-0.235823,18,32765
2.00572,0.34935,-0.239848,18,32765
1.98727,0.339145,-0.238007,18,32765
2.01774,0.337228,-0.242065,19,32765
1.96983,0.322255,-0.236681,18,32765
2.0003,0.320233,-0.240539,17,32765
1.96209,0.307161,-0.236364,18,32765
1.95325,0.298995,-0.235616,18,32765
1.96405,0.29368,-0.237172,18,32765
1.96499,0.286897,-0.237703,17,32765
1.98558,0.282948,-0.240458,17,32765
1.96681,0.273377,-0.238579,18,32765
1.98737,0.269414,-0.241196,17,32765
1.96853,0.260124,-0.239235,17,32765
1.98904,0.256012,-0.242,17,32765
1.9997,0.250558,-0.24358,18,32765
1.99066,0.242527,-0.242634,17,32765
1.95199,0.231059,-0.23818,17,32765
1.95274,0.224427,-0.238428,18,32765
1.98305,0.221119,-0.24229,18,32765
1.96403,0.212318,-0.240023,17,32765
1.98444,0.207654,-0.242876,18,32765
1.96538,0.198872,-0.240511,18,32765
1.95611,0.191175,-0.239723,18,32765
1.96665,0.185382,-0.240913,18,32765
1.93758,0.176043,-0.237485,17,32765
1.93815,0.169448,-0.237586,18,32765
1.95848,0.16453,-0.240204,17,32765
1.9689,0.158715,-0.241576,17,32765
1.94961,0.150525,-0.23927,17,32765
1.95998,0.144698,-0.240715,17,32765
1.94065,0.136683,-0.238295,17,32765
1.91139,0.128137,-0.234653,17,32765
1.91182,0.121727,-0.23461,17,32765
1.96174,0.118266,-0.240804,17,32765
1.9522,0.111249,-0.239691,17,32765
1.91292,0.102614,-0.234746,17,32765
1.92315,0.0967603,-0.236064,16,32765
1.9334,0.0908003,-0.237108,17,32765
1.9436,0.0847561,-0.238368,17,32765
1.86456,0.075036,-0.228449,16,32765
1.92431,0.0709583,-0.235772,17,32765
1.95432,0.0654902,-0.239252,17,32765
1.92479,0.057979,-0.235454,18,32765
1.90513,0.0509347,-0.233,17,32765
1.93512,0.0453238,-0.236141,17,32765
1.87572,0.0376293,-0.228847,17,32765
1.91555,0.0320825,-0.233496,16,32765
1.88589,0.0253852,-0.229695,12,32765
1.72717,0.0175568,-0.210207,12,32765
0,0,-0,0,32765
0,0,-0,0,32765
1.66783,0.000320203,-0.201866,14,32765
1.67778,-0.0052087,-0.202836,14,32765
1.58846,-0.0102442,-0.19151,14,32765
1.48918,-0.0146107,-0.179209,15,32765
1.4197,-0.0187251,-0.170286,14,32765
1.97579,0.668151,-0.244567,19,32765
2.00629,0.67099,-0.247899,19,32765
1.9802,0.654943,-0.244619,19,32765
2.02011,0.660733,-0.249403,20,32765
2.00337,0.647895,-0.247303,19,32765
2.03391,0.650143,-0.251057,19,32765
2.02659,0.640272,-0.250161,19,32765
2.00974,0.627438,-0.248311,19,32765
2.03082,0.626456,-0.250824,19,32765
2.02337,0.616727,-0.250013,19,32765
1.96834,0.592703,-0.24342,19,32765
1.99881,0.594544,-0.247524,19,32765
1.99125,0.584943,-0.24674,18,32765
1.98362,0.575403,-0.246111,19,32765
1.99505,0.57143,-0.247666,19,32765
1.96827,0.556511,-0.244539,18,32765
1.99879,0.557824,-0.248559,19,32765
1.98143,0.545849,-0.246739,19,32765
2.00235,0.544336,-0.249784,19,32765
2.00412,0.537606,-0.25018,18,32765
1.98672,0.525617,-0.248162,19,32765
1.95,0.508773,-0.243994,18,32765
1.9805,0.509518,-0.248186,18,32765
1.95332,0.495394,-0.245042,18,32765
1.93567,0.484024,-0.242889,18,32765
1.95651,0.48215,-0.246,19,32765
1.95805,0.475579,-0.246543,19,32765
1.94991,0.466653,-0.24596,19,32765
1.95145,0.459972,-0.246282,19,32765
1.94331,0.450913,-0.245577,18,32765
1.89644,0.43296,-0.240108,19,32765
1.94628,0.437248,-0.246804,19,32765
1.89925,0.419805,-0.241241,19,32765
1.91032,0.415398,-0.242919,20,32765
1.93107,0.413045,-0.245863,19,32765
1.91299,0.402331,-0.243942,19,32765
1.89487,0.391755,-0.241892,19,32765
1.88638,0.383273,-0.241368,19,32765
1.9071,0.380731,-0.244165,19,32765
1.88885,0.370358,-0.242218,19,32765
1.89006,0.363804,-0.242756,19,32765
1.89124,0.357319,-0.243175,20,32765
1.89236,0.350837,-0.243864,20,32765
1.8935,0.344378,-0.244255,19,32765
1.89462,0.337925,-0.244613,19,32765
1.88594,0.329635,-0.243844,19,32765
1.89678,0.324837,-0.245585,19,32765
1.86847,0.313379,-0.242289,19,32765
1.87927,0.308525,-0.244028,19,32765
1.88028,0.302085,-0.244335,19,32765
1.88125,0.295553,-0.244855,20,32765
1.9116,0.293662,-0.249107,19,32765
1.86352,0.279645,-0.243074,19,32765
1.88404,0.276067,-0.246142,19,32765
1.85548,0.265364,-0.242651,19,32765
1.88579,0.263066,-0.246984,19,32765
1.87681,0.255354,-0.245917,19,32765
1.84812,0.245108,-0.242456,19,32765
1.88823,0.243931,-0.24797,19,32765
1.85948,0.233852,-0.244451,19,32765
1.87008,0.228685,-0.245984,18,32765
1.85111,0.21994,-0.243728,18,32765
1.89122,0.218177,-0.249154,19,32765
1.89192,0.211759,-0.249393,18,32765
1.85318,0.201101,-0.244335,18,32765
1.86366,0.195768,-0.246048,19,32765
1.87418,0.190381,-0.2474,19,32765
1.84517,0.18104,-0.243892,19,32765
1.85565,0.175612,-0.245177,18,32765
1.84634,0.168424,-0.244068,18,32765
1.85677,0.162988,-0.24547,19,32765
1.83753,0.155,-0.243042,19,32765
1.8479,0.149578,-0.244498,19,32765
1.80885,0.140242,-0.239382,19,32765
1.84883,0.137072,-0.244832,19,32765
1.83939,0.13011,-0.243534,19,32765
1.82993,0.123214,-0.24223,18,32765
1.85013,0.118325,-0.244808,18,32765
1.84061,0.111468,-0.243609,18,32765
1.83105,0.104831,-0.242396,19,32765
1.8314,0.0987081,-0.242322,18,32765
1.82181,0.0921084,-0.241108,18,32765
1.85184,0.087406,-0.244875,19,32765
1.80259,0.0790141,-0.238368,19,32765
1.80287,0.072943,-0.238185,19,32765
1.83283,0.067963,-0.242143,19,32765
1.82316,0.0614532,-0.240679,18,32765
1.8531,0.0561658,-0.244454,19,32765
1.82355,0.0490765,-0.240508,18,32765
1.81386,0.042787,-0.238733,18,32765
1.80408,0.0364765,-0.237401,19,32765
1.78439,0.0301498,-0.234612,18,32765
1.81424,0.024672,-0.238357,19,32765
1.78459,0.0183707,-0.2343,16,32765
0,0,-0,0,32765
0,0,-0,0,32765
1.55678,0.000454452,-0.203342,15,32765
1.61629,-0.00487169,-0.21089,15,32765
1.53701,-0.00978846,-0.200033,16,32765
1.57667,-0.0153573,-0.204844,16,32765
1.54695,-0.0203091,-0.20037,15,32765
2.09012,0.704821,-0.25107,17,32765
2.07333,0.691709,-0.250675,17,32765
2.11312,0.697419,-0.256738,18,32765
2.11522,0.690385,-0.258515,18,32765
2.07947,0.671208,-0.255484,18,32765
2.10989,0.673352,-0.260475,18,32765
2.11193,0.666394,-0.261879,17,32765
2.11395,0.659395,-0.263249,17,32765
2.04005,0.62895,-0.255192,16,32765
2.10847,0.642454,-0.264599,17,32765
2.04393,0.61528,-0.257452,17,32765
2.06488,0.614009,-0.261083,17,32765
2.04779,0.601296,-0.259802,17,32765
2.08785,0.605248,-0.265795,17,32765
2.04206,0.584482,-0.260691,17,32765
2.02478,0.572097,-0.259567,18,32765
2.06483,0.575876,-0.265444,17,32765
2.0092,0.553117,-0.259151,17,32765
2.03969,0.554138,-0.263638,18,32765
2.04139,0.547327,-0.26465,18,32765
2.01436,0.53277,-0.261738,17,32765
2.0352,0.531037,-0.265288,18,32765
2.03684,0.524307,-0.266044,17,32765
2.01928,0.512547,-0.26424,17,32765
2.01124,0.503361,-0.263913,18,32765
2.02248,0.498738,-0.266145,17,32765
1.98553,0.482379,-0.261884,17,32765
2.02569,0.484779,-0.267537,17,32765
2.01759,0.475535,-0.266991,17,32765
1.99977,0.464199,-0.265216,18,32765
2.00127,0.457318,-0.265824,18,32765
2.01239,0.452659,-0.267923,18,32765
1.98481,0.439376,-0.264543,17,32765
1.95716,0.426191,-0.261302,18,32765
1.97791,0.42364,-0.264569,18,32765
1.989,0.418731,-0.266558,18,32765
1.99037,0.411838,-0.267037,18,32765
1.97226,0.401034,-0.26508,18,32765
1.99301,0.398107,-0.268218,17,32765
1.98457,0.389359,-0.267327,19,32765
1.98583,0.382558,-0.267858,19,32765
1.95781,0.370269,-0.264551,18,32765
1.959,0.363626,-0.264912,17,32765
1.96994,0.358689,-0.266641,19,32765
1.94182,0.346663,-0.263197,18,32765
1.982,0.346791,-0.268893,18,32765
1.95382,0.334928,-0.265365,18,32765
1.96466,0.329966,-0.267065,18,32765
1.96575,0.323247,-0.267304,18,32765
1.92766,0.3102,-0.262298,18,32765
1.95807,0.30801,-0.266611,18,32765
1.95909,0.301144,-0.266995,17,32765
1.96008,0.294379,-0.267279,18,32765
1.92179,0.281972,-0.262299,17,32765
1.93251,0.276854,-0.263931,18,32765
1.97268,0.275691,-0.269494,18,32765
1.94412,0.264801,-0.265862,17,32765
1.93518,0.256721,-0.264735,17,32765
1.88686,0.243682,-0.258441,17,32765
1.91714,0.240964,-0.262716,17,32765
1.89824,0.232059,-0.260276,17,32765
1.92851,0.22911,-0.264525,18,32765
1.90953,0.220321,-0.262228,17,32765
1.93979,0.217071,-0.266484,18,32765
1.91092,0.207223,-0.262779,17,32765
1.94114,0.203728,-0.267187,17,32765
1.92209,0.195036,-0.264659,18,32765
1.93258,0.189453,-0.26613,17,32765
1.91343,0.180993,-0.263867,17,32765
1.92386,0.175451,-0.265499,17,32765
1.92437,0.168929,-0.265988,18,32765
1.89526,0.159906,-0.262333,17,32765
1.86616,0.151143,-0.258274,17,32765
1.94563,0.150924,-0.269563,17,32765
1.8868,0.139933,-0.26172,17,32765
1.91688,0.135621,-0.26605,17,32765
1.89751,0.127771,-0.263709,17,32765
1.91767,0.122674,-0.266658,17,32765
1.90812,0.115655,-0.265714,17,32765
1.8689,0.107026,-0.260495,17,32765
1.84941,0.0997034,-0.258174,17,32765
1.87934,0.0949344,-0.262783,17,32765
1.8994,0.0895312,-0.26581,17,32765
1.87985,0.0822214,-0.263454,17,32765
1.87016,0.075486,-0.262529,17,32765
1.90991,0.0706561,-0.26858,18,32765
1.88037,0.0632221,-0.26495,17,32765
1.82112,0.055177,-0.257037,17,32765
1.86084,0.0501697,-0.262971,17,32765
1.87084,0.0442449,-0.264758,16,32765
1.87088,0.037879,-0.265482,17,32765
1.86104,0.0313774,-0.26444,17,32765
1.86108,0.0251163,-0.264884,17,32765
1.86105,0.0189136,-0.265576,16,32765
1.79172,0.0123532,-0.256297,17,32765
1.88077,0.00677985,-0.26955,16,32765
1.87077,0.000585017,-0.268888,16,32765
1.82118,-0.00549161,-0.262446,16,32765
1.82104,-0.0116138,-0.263189,15,32765
1.83077,-0.0177996,-0.265471,16,32765
1.83059,-0.0238405,-0.266241,16,32765
2.01186,0.680738,-0.261951,19,32765
1.98561,0.664697,-0.26007,19,32765
1.997,0.661339,-0.262727,20,32765
2.0084,0.657758,-0.265656,20,32765
2.01036,0.651116,-0.267191,19,32765
1.99344,0.638359,-0.266109,19,32765
1.97644,0.625777,-0.264902,19,32765
1.97834,0.619206,-0.266186,18,32765
1.98022,0.612595,-0.267535,19,32765
1.95365,0.597321,-0.264714,19,32765
1.99348,0.602153,-0.271023,20,32765
1.96685,0.586868,-0.268331,19,32765
1.93067,0.568856,-0.264209,18,32765
1.98961,0.578754,-0.273125,18,32765
1.9438,0.558274,-0.267511,18,32765
1.97414,0.559714,-0.272727,19,32765
1.995,0.558324,-0.27631,18,32765
1.95851,0.541026,-0.272077,18,32765
1.93154,0.526573,-0.268841,18,32765
1.94273,0.522678,-0.271136,18,32765
1.8965,0.503337,-0.265227,19,32765
1.91721,0.501989,-0.268904,19,32765
1.90917,0.493152,-0.26827,19,32765
1.90113,0.48424,-0.267589,19,32765
1.90263,0.477839,-0.268471,19,32765
1.933,0.478338,-0.273467,19,32765
1.92492,0.469288,-0.272892,18,32765
1.90718,0.458017,-0.270699,18,32765
1.88937,0.446876,-0.268649,18,32765
1.90042,0.442688,-0.270762,18,32765
1.91151,0.438343,-0.272719,18,32765
1.89357,0.427434,-0.270733,19,32765
1.92396,0.427408,-0.275347,19,32765
1.90599,0.416515,-0.273196,19,32765
1.89763,0.407885,-0.272463,19,32765
1.88927,0.399149,-0.271731,19,32765
1.91967,0.398622,-0.276375,19,32765
1.91124,0.390012,-0.275609,19,32765
1.87367,0.375607,-0.27051,19,32765
1.86518,0.367246,-0.269501,20,32765
1.8858,0.364594,-0.272815,20,32765
1.86749,0.35446,-0.270606,20,32765
1.83944,0.342666,-0.266718,20,32765
1.86003,0.339903,-0.269929,20,32765
1.85138,0.331717,-0.26901,20,32765
1.84271,0.323593,-0.267972,20,32765
1.82425,0.313859,-0.265554,20,32765
1.84477,0.310965,-0.268746,19,32765
1.83603,0.303026,-0.267548,19,32765
1.86633,0.301439,-0.272122,20,32765
1.84779,0.291739,-0.269575,20,32765
1.84875,0.28524,-0.269938,19,32765
1.83011,0.275887,-0.267348,20,32765
1.83099,0.269657,-0.267697,20,32765
1.84165,0.264832,-0.269409,19,32765
1.85233,0.259851,-0.271035,19,32765
1.83356,0.250693,-0.268537,19,32765
1.82459,0.242976,-0.267305,19,32765
1.83517,0.237919,-0.269156,19,32765
1.84576,0.23289,-0.270825,19,32765
1.82686,0.224202,-0.26819,18,32765
1.84723,0.220315,-0.271269,19,32765
1.83808,0.212915,-0.270214,19,32765
1.84861,0.207691,-0.271852,18,32765
1.83943,0.20027,-0.270747,19,32765
1.82038,0.191827,-0.268174,19,32765
1.80132,0.183527,-0.265449,19,32765
1.81177,0.17834,-0.267006,19,32765
1.832,0.174011,-0.270343,19,32765
1.84239,0.168728,-0.272058,20,32765
1.80347,0.158988,-0.266697,19,32765
1.84337,0.156196,-0.272952,19,32765
1.82416,0.148385,-0.270073,18,32765
