x, y, z, intensity, ring
6.83206,2.65926,0.929174,15,32765
6.8593,2.64423,0.930698,15,32765
6.88669,2.62876,0.931638,15,32765
6.85815,2.59245,0.925832,15,32765
6.90392,2.58377,0.930034,15,32765
6.91237,2.56145,0.928951,15,32765
6.92069,2.53919,0.928146,15,32765
6.92912,2.51655,0.926945,15,32765
6.91877,2.48728,0.923135,15,32765
6.9737,2.48119,0.92885,16,32765
6.96305,2.45193,0.926061,16,32765
6.98947,2.43659,0.928432,15,32765
6.99718,2.41445,0.928174,15,32765
7.00474,2.39241,0.928215,16,32765
7.02189,2.37299,0.9289,16,32765
7.03898,2.35321,0.930331,15,32765
7.09376,2.34601,0.935785,16,32765
7.05401,2.30777,0.930357,15,32765
7.11779,2.30388,0.938536,15,32765
7.11546,2.27831,0.938307,15,32765
7.13186,2.259,0.940838,15,32765
5.83562,4.29386,1.11228,37,32765
5.8505,4.27504,1.10658,36,32765
5.86538,4.25596,1.10136,37,32765
5.8804,4.23646,1.09641,38,32765
5.89514,4.21722,1.09144,38,32765
5.91802,4.20352,1.08766,39,32765
5.92419,4.17864,1.08252,37,32765
5.93845,4.15949,1.07814,38,32765
5.95246,4.14044,1.07419,38,32765
5.95036,4.10965,1.06775,38,32765
5.9729,4.09553,1.06466,38,32765
6.00353,4.08677,1.06374,39,32765
6.0011,4.05618,1.05669,39,32765
6.01524,4.03627,1.05254,39,32765
6.02893,4.01678,1.04874,39,32765
6.04267,3.99703,1.04513,40,32765
6.05631,3.97735,1.04124,39,32765
6.06981,3.9576,1.03789,40,32765
6.08327,3.93782,1.0343,39,32765
6.0883,3.91261,1.02968,39,32765
6.11003,3.89804,1.02721,39,32765
6.1151,3.8726,1.02209,39,32765
6.12824,3.85249,1.01938,40,32765
6.14141,3.83231,1.01619,39,32765
6.15425,3.81226,1.01387,39,32765
6.18405,3.80261,1.01318,40,32765
6.18862,3.77721,1.00804,40,32765
6.20123,3.75713,1.00555,40,32765
6.21383,3.73699,1.00282,39,32765
6.22636,3.71691,0.99973,40,32765
6.24759,3.70138,0.998159,40,32765
6.26038,3.68046,0.995344,40,32765
6.27322,3.65941,0.992172,41,32765
6.28598,3.63817,0.989524,41,32765
6.29819,3.61771,0.986866,40,32765
6.3102,3.59746,0.984177,41,32765
6.32211,3.57709,0.98196,41,32765
6.33397,3.55668,0.979659,42,32765
6.34603,3.53587,0.976951,42,32765
6.37526,3.52461,0.977576,41,32765
6.37871,3.49862,0.973331,39,32765
6.37315,3.46816,0.968117,40,32765
6.40229,3.45662,0.968511,42,32765
6.41416,3.43519,0.966233,42,32765
6.42579,3.41423,0.963281,43,32765
6.43734,3.39297,0.961223,42,32765
6.44003,3.36723,0.957441,42,32765
6.4513,3.34615,0.955454,42,32765
6.48023,3.33407,0.955574,40,32765
6.51794,3.32619,0.957771,34,32765
6.4851,3.28207,0.948887,25,32765
6.46989,3.24689,0.942436,15,32765
6.49,3.2296,0.941121,13,32765
6.43886,3.177,0.930214,13,32765
6.47645,3.16858,0.931999,13,32765
6.4694,3.13842,0.927168,13,32765
6.51599,3.13399,0.929587,13,32765
6.52655,3.11224,0.928566,13,32765
6.55509,3.09912,0.928632,13,32765
6.56561,3.0776,0.925865,13,32765
6.55792,3.04774,0.921446,13,32765
6.60428,3.04268,0.924371,13,32765
6.59652,3.01262,0.919828,13,32765
6.60681,2.99072,0.917488,13,32765
6.61701,2.96877,0.915248,13,32765
6.64531,2.95494,0.914937,14,32765
6.63735,2.92456,0.910282,13,32765
6.66542,2.91052,0.911011,13,32765
6.65723,2.88035,0.906088,13,32765
6.68537,2.86591,0.906217,13,32765
6.67689,2.83613,0.900902,13,32765
6.7321,2.83347,0.905478,13,32765
6.67753,2.78476,0.894307,13,32765
6.75115,2.78944,0.900305,13,32765
6.73294,2.75622,0.894248,13,32765
6.74242,2.73373,0.891844,13,32765
6.79788,2.72981,0.895147,13,32765
6.7888,2.69998,0.889919,13,32765
6.77948,2.67034,0.88513,13,32765
6.86238,2.67731,0.89224,13,32765
6.8157,2.63366,0.882998,13,32765
6.79676,2.60111,0.875871,13,32765
6.83322,2.58982,0.877203,13,32765
6.84189,2.56774,0.874538,13,32765
6.8691,2.55265,0.874013,13,32765
6.91495,2.54404,0.876174,13,32765
6.88633,2.50766,0.868647,13,32765
6.89477,2.48531,0.865894,13,32765
6.97802,2.4897,0.871922,13,32765
6.91147,2.4407,0.859616,14,32765
6.95718,2.43151,0.861307,14,32765
7.03112,2.43155,0.866623,13,32765
7.01103,2.3994,0.860173,14,32765
6.98142,2.36436,0.852008,14,32765
7.02689,2.35519,0.852965,14,32765
7.03453,2.33337,0.849951,13,32765
7.00454,2.29876,0.841722,14,32765
7.04994,2.28898,0.842954,13,32765
7.05763,2.26672,0.838662,13,32765
7.15027,2.27203,0.844964,13,32765
7.11984,2.23853,0.834844,14,32765
5.9046,4.35085,1.05546,46,32765
5.88768,4.30838,1.04401,46,32765
5.90264,4.28914,1.03876,46,32765
5.91775,4.26947,1.03378,47,32765
5.94062,4.25584,1.03017,47,32765
5.94748,4.23047,1.02348,46,32765
5.9618,4.21116,1.01979,47,32765
5.98425,4.19754,1.01675,47,32765
5.974,4.16131,1.00865,47,32765
5.99638,4.14729,1.00648,48,32765
6.0272,4.1386,1.00463,47,32765
6.02523,4.10732,0.998061,47,32765
6.03925,4.0877,0.993878,47,32765
6.05347,4.06763,0.989692,47,32765
6.06726,4.04797,0.985873,48,32765
6.08109,4.02805,0.982228,47,32765
6.09482,4.00821,0.978317,47,32765
6.10011,3.98287,0.973617,48,32765
6.12196,3.96834,0.971321,48,32765
6.1354,3.94832,0.968088,48,32765
6.1489,3.92823,0.964185,48,32765
6.16241,3.90792,0.960437,48,32765
6.17567,3.88761,0.957704,48,32765
6.18895,3.86724,0.954487,48,32765
6.20191,3.847,0.952141,48,32765
6.21494,3.82677,0.948658,48,32765
6.22802,3.80639,0.944869,50,32765
6.24921,3.79128,0.943641,49,32765
6.25341,3.76584,0.93961,48,32765
6.27454,3.75068,0.937773,49,32765
6.28736,3.7299,0.934815,49,32765
6.30024,3.7088,0.931979,49,32765
6.31317,3.68757,0.928784,50,32765
6.32602,3.66616,0.926116,49,32765
6.33832,3.64553,0.923438,50,32765
6.35041,3.62511,0.920729,50,32765
6.36242,3.60457,0.918496,49,32765
6.38301,3.58885,0.917421,50,32765
6.39517,3.56785,0.914689,50,32765
6.39848,3.54198,0.911399,50,32765
6.41067,3.52064,0.908466,49,32765
6.42259,3.49951,0.905882,49,32765
6.41693,3.46892,0.901165,43,32765
6.41135,3.43801,0.896433,40,32765
6.43173,3.42169,0.894699,32,32765
6.42576,3.3911,0.890204,25,32765
6.41083,3.35614,0.884093,20,32765
6.42207,3.33511,0.882112,16,32765
6.43332,3.31402,0.879641,16,32765
6.40027,3.27015,0.871933,16,32765
6.46461,3.27569,0.876768,16,32765
6.47596,3.25389,0.874197,16,32765
6.4872,3.23212,0.871589,15,32765
6.49833,3.2102,0.869675,16,32765
6.52713,3.1972,0.86997,16,32765
6.5023,3.15814,0.862935,15,32765
6.53108,3.14497,0.862601,15,32765
6.55065,3.12741,0.862755,15,32765
6.54335,3.0972,0.857915,16,32765
6.54486,3.07146,0.853978,15,32765
6.58216,3.06256,0.855603,15,32765
6.5835,3.03662,0.852306,16,32765
6.59377,3.01483,0.850284,15,32765
6.6312,3.0052,0.851428,15,32765
6.62332,2.97499,0.846861,16,32765
6.66072,2.96515,0.847512,16,32765
6.68004,2.94669,0.846493,15,32765
6.6809,2.92054,0.843574,16,32765
6.69095,2.89816,0.841122,16,32765
6.70091,2.87575,0.838764,16,32765
6.71071,2.85364,0.835906,16,32765
6.71109,2.82772,0.833184,15,32765
6.72061,2.80577,0.830606,16,32765
6.77599,2.80273,0.833672,16,32765
6.76698,2.77314,0.829012,16,32765
6.76731,2.74675,0.825471,15,32765
6.78597,2.72793,0.823816,16,32765
6.79531,2.70543,0.821009,16,32765
6.85995,2.70488,0.825302,16,32765
6.85045,2.67546,0.820544,16,32765
6.82224,2.63893,0.814078,16,32765
6.86824,2.63119,0.814935,16,32765
6.91411,2.62318,0.81706,16,32765
6.88566,2.58682,0.809983,16,32765
6.93156,2.57849,0.811432,16,32765
6.89358,2.53875,0.80341,15,32765
6.90224,2.51599,0.800598,15,32765
6.92005,2.49692,0.798916,16,32765
6.9753,2.49121,0.800956,15,32765
6.99304,2.47195,0.799039,15,32765
7.00133,2.44935,0.796051,15,32765
6.99081,2.41998,0.791122,16,32765
6.99887,2.39756,0.788147,16,32765
7.05395,2.39124,0.789852,16,32765
7.03352,2.35968,0.783048,16,32765
7.02227,2.33154,0.777939,15,32765
7.04892,2.31553,0.776334,15,32765
7.07546,2.29944,0.775097,15,32765
7.06423,2.27099,0.768727,15,32765
7.13797,2.27026,0.77213,16,32765
7.09796,2.23375,0.761376,15,32765
5.84534,4.30041,0.959615,40,32765
5.85992,4.28064,0.959065,40,32765
5.88212,4.26714,0.959724,38,32765
5.8878,4.24261,0.957319,39,32765
5.90936,4.22991,0.9572,38,32765
5.90724,4.19916,0.952744,37,32765
5.92122,4.1797,0.951497,39,32765
5.93525,4.16013,0.949831,39,32765
5.95729,4.14633,0.949248,38,32765
5.96281,4.12135,0.946276,39,32765
5.9765,4.10187,0.944578,39,32765
5.97366,4.07136,0.939947,39,32765
5.99555,4.0573,0.938979,38,32765
6.02572,4.04851,0.939511,40,32765
6.02287,4.01755,0.935063,41,32765
6.02843,3.99187,0.93121,40,32765
6.05843,3.98287,0.931835,40,32765
6.0633,3.95778,0.928635,41,32765
6.09307,3.94884,0.929289,40,32765
6.08103,3.91311,0.923451,39,32765
6.09415,3.89319,0.921176,40,32765
6.11559,3.87856,0.91998,40,32765
6.13698,3.86383,0.918888,39,32765
6.14994,3.84377,0.916358,39,32765
6.16272,3.82372,0.914384,39,32765
6.15888,3.7928,0.909368,40,32765
6.19732,3.78774,0.910331,41,32765
6.19337,3.7566,0.90563,40,32765
6.23166,3.7515,0.906411,41,32765
6.23568,3.72599,0.90317,41,32765
6.24804,3.70571,0.901159,40,32765
6.26042,3.6855,0.898153,40,32765
6.27288,3.66482,0.89583,40,32765
6.28549,3.64385,0.892924,42,32765
6.29805,3.62266,0.890662,41,32765
6.31046,3.60162,0.888188,42,32765
6.32269,3.58088,0.884998,42,32765
6.34335,3.565,0.88409,43,32765
6.35528,3.54434,0.881449,43,32765
6.36737,3.52346,0.877927,43,32765
6.37055,3.49756,0.87499,40,32765
6.36509,3.4668,0.870018,35,32765
6.40311,3.45985,0.870913,26,32765
6.37987,3.41978,0.863981,17,32765
6.39147,3.39877,0.86118,13,32765
6.36793,3.35909,0.853484,13,32765
6.32645,3.31058,0.843885,14,32765
6.39061,3.317,0.848604,13,32765
6.36666,3.27742,0.841607,13,32765
6.43101,3.28318,0.846057,14,32765
6.37147,3.2257,0.8339,13,32765
6.48908,3.25794,0.844831,13,32765
6.46459,3.21883,0.837321,13,32765
6.47539,3.19752,0.835465,13,32765
6.522,3.19347,0.837514,14,32765
6.5151,3.16302,0.832394,14,32765
6.45436,3.10664,0.821052,14,32765
6.51877,3.11089,0.82515,14,32765
6.5113,3.08105,0.820142,14,32765
6.55753,3.07672,0.822625,14,32765
6.58585,3.06367,0.822547,14,32765
6.54204,3.01701,0.813516,14,32765
6.58847,3.01186,0.81536,14,32765
6.59862,2.99009,0.813452,13,32765
6.60893,2.96787,0.811141,14,32765
6.63728,2.95372,0.811295,14,32765
6.67454,2.94371,0.812841,14,32765
6.6571,2.91003,0.806708,14,32765
6.64851,2.88049,0.802603,14,32765
6.65822,2.85853,0.800655,14,32765
6.66794,2.83626,0.798894,14,32765
6.71428,2.82941,0.801113,13,32765
6.72387,2.80695,0.79971,14,32765
6.76076,2.79643,0.801043,14,32765
6.72405,2.7556,0.793622,13,32765
6.71465,2.72637,0.790253,14,32765
6.78829,2.73042,0.795899,14,32765
6.7696,2.69739,0.790871,13,32765
6.75994,2.66814,0.787574,14,32765
6.8151,2.66421,0.791228,14,32765
6.84241,2.64915,0.792394,14,32765
6.83251,2.61999,0.788685,13,32765
6.82262,2.59056,0.785133,14,32765
6.86829,2.58247,0.788516,14,32765
6.83956,2.5462,0.78285,13,32765
6.92264,2.55119,0.790526,13,32765
6.89364,2.51514,0.784964,14,32765
6.93934,2.50622,0.787944,13,32765
6.94741,2.48382,0.787705,14,32765
6.95549,2.46119,0.787505,13,32765
6.96358,2.43857,0.786288,13,32765
6.97148,2.41607,0.785816,14,32765
7.01686,2.40664,0.789536,14,32765
6.98684,2.3716,0.78486,14,32765
6.95663,2.3366,0.780989,14,32765
7.03963,2.33944,0.788837,13,32765
7.07542,2.3264,0.791467,13,32765
7.05415,2.29512,0.789271,14,32765
7.0612,2.27327,0.789521,13,32765
7.09667,2.2599,0.793837,13,32765
7.10395,2.23669,0.79451,13,32765
5.87283,4.32797,0.895018,47,32765
5.88753,4.30807,0.894462,46,32765
5.90181,4.28861,0.893804,47,32765
5.92367,4.27559,0.893913,47,32765
5.92922,4.25118,0.891263,47,32765
5.94334,4.23181,0.889403,47,32765
5.96555,4.21792,0.889353,47,32765
5.97159,4.19246,0.886464,47,32765
5.99375,4.17851,0.885773,47,32765
5.99939,4.15336,0.882879,48,32765
6.01318,4.13372,0.881168,48,32765
6.02685,4.11422,0.879099,48,32765
6.04888,4.09996,0.878013,48,32765
6.06274,4.07988,0.875956,48,32765
6.05999,4.04873,0.87168,49,32765
6.09048,4.03934,0.871452,49,32765
6.08748,4.00828,0.867141,49,32765
6.11737,3.99934,0.867558,48,32765
6.13063,3.97939,0.865652,48,32765
6.12702,3.94885,0.861251,48,32765
6.15699,3.93944,0.861296,49,32765
6.17022,3.91925,0.858811,49,32765
6.18335,3.89901,0.856437,49,32765
6.19642,3.87877,0.853885,49,32765
6.20089,3.85327,0.850735,48,32765
6.2225,3.8378,0.849348,49,32765
6.23568,3.81697,0.846548,49,32765
6.2488,3.79595,0.844311,49,32765
6.26172,3.77527,0.841353,49,32765
6.25729,3.74451,0.837052,49,32765
6.2868,3.73426,0.837306,50,32765
6.29926,3.71388,0.834278,50,32765
6.29466,3.683,0.829676,49,32765
6.33311,3.67688,0.830136,50,32765
6.33717,3.65053,0.82673,48,32765
6.33242,3.61945,0.821998,44,32765
6.31877,3.58389,0.815447,37,32765
6.29614,3.54362,0.808881,30,32765
6.308,3.52307,0.806256,23,32765
6.3113,3.49749,0.801653,18,32765
6.33181,3.4813,0.801026,17,32765
6.32628,3.4506,0.796253,16,32765
6.33803,3.42959,0.793597,16,32765
6.35845,3.41315,0.792517,16,32765
6.38757,3.40151,0.791897,16,32765
6.39037,3.3757,0.787826,16,32765
6.39293,3.35009,0.784177,15,32765
6.4308,3.34254,0.785077,16,32765
6.41574,3.30731,0.77951,16,32765
6.44482,3.29481,0.779095,16,32765
6.46507,3.27763,0.777274,16,32765
6.47633,3.25604,0.774291,16,32765
6.49629,3.23907,0.772448,16,32765
6.50716,3.21762,0.770581,16,32765
6.51813,3.19595,0.768032,16,32765
6.53805,3.17849,0.766243,16,32765
6.53106,3.14783,0.761911,16,32765
6.54181,3.1261,0.759163,17,32765
6.55234,3.10465,0.756406,16,32765
6.58066,3.09173,0.756429,16,32765
6.59102,3.07017,0.75409,16,32765
6.60137,3.04842,0.751788,16,32765
6.62079,3.03065,0.750156,16,32765
6.62193,3.00462,0.747214,16,32765
6.64136,2.98636,0.745912,16,32765
6.66979,2.97207,0.745866,16,32765
6.67983,2.94988,0.744079,16,32765
6.6715,2.92011,0.739232,16,32765
6.69943,2.9063,0.739336,17,32765
6.69094,2.87628,0.735363,17,32765
6.70073,2.85385,0.733591,16,32765
6.72881,2.83915,0.733423,16,32765
6.7568,2.82427,0.73401,16,32765
6.76619,2.8022,0.732066,17,32765
6.77549,2.78016,0.73007,17,32765
6.78459,2.7582,0.728857,16,32765
6.81224,2.74345,0.728887,16,32765
6.80281,2.71396,0.725118,16,32765
6.7932,2.68455,0.722,16,32765
6.83917,2.67688,0.724194,16,32765
6.82943,2.64732,0.721247,16,32765
6.87526,2.63955,0.723593,16,32765
6.88403,2.61699,0.72217,16,32765
6.85531,2.58065,0.717371,16,32765
6.8825,2.5652,0.717918,16,32765
6.90968,2.54939,0.719006,16,32765
6.90869,2.52356,0.716729,15,32765
6.95445,2.51457,0.71933,15,32765
6.93445,2.48202,0.716186,16,32765
7.0082,2.48266,0.722757,16,32765
6.96002,2.44007,0.715734,15,32765
7.01494,2.43385,0.720087,16,32765
7.00394,2.40487,0.717639,16,32765
7.01159,2.38261,0.717194,16,32765
7.03801,2.3665,0.719484,15,32765
7.04562,2.34395,0.718864,15,32765
7.02473,2.31219,0.715433,15,32765
7.06967,2.30259,0.72026,16,32765
7.08623,2.2837,0.721473,15,32765
7.14075,2.27627,0.727442,16,32765
7.10063,2.23792,0.723284,15,32765
5.85298,4.2984,0.921262,40,32765
5.86036,4.27282,0.913929,39,32765
5.8756,4.25301,0.908481,39,32765
5.89021,4.2338,0.903606,39,32765
5.90448,4.21486,0.899021,39,32765
5.90264,4.1844,0.890935,39,32765
5.9332,4.17648,0.888968,39,32765
5.9393,4.1514,0.883487,40,32765
5.94517,4.12646,0.878303,39,32765
5.97565,4.11833,0.875839,40,32765
5.97319,4.08754,0.870152,40,32765
5.99539,4.07359,0.866684,40,32765
6.00937,4.05384,0.86249,40,32765
6.02335,4.03394,0.858258,41,32765
6.02898,4.00839,0.853431,40,32765
6.05107,3.99381,0.850864,40,32765
6.04809,3.96285,0.845462,41,32765
6.06984,3.94861,0.842403,40,32765
6.09139,3.93434,0.840183,40,32765
6.10455,3.91481,0.835864,41,32765
6.11754,3.89511,0.832942,41,32765
6.13063,3.87523,0.829441,41,32765
6.12688,3.8447,0.823428,41,32765
6.15666,3.83529,0.822247,41,32765
6.16967,3.81505,0.818847,40,32765
6.1826,3.79457,0.816565,40,32765
6.19555,3.77406,0.81342,42,32765
6.20841,3.75363,0.809889,41,32765
6.22102,3.73327,0.807241,41,32765
6.23371,3.71269,0.80423,42,32765
6.25496,3.69721,0.801403,42,32765
6.25896,3.67152,0.797119,42,32765
6.2715,3.65076,0.793923,41,32765
6.28364,3.63034,0.791514,38,32765
6.29594,3.60963,0.788463,30,32765
6.25624,3.55948,0.7792,20,32765
6.22502,3.51446,0.770601,15,32765
6.23701,3.49382,0.767494,14,32765
6.30082,3.50228,0.772113,14,32765
6.2779,3.46238,0.764209,14,32765
6.28943,3.44178,0.762454,14,32765
6.30091,3.42126,0.760056,14,32765
6.29496,3.391,0.755444,13,32765
6.30645,3.37021,0.752656,14,32765
6.29155,3.33514,0.747539,13,32765
6.38214,3.35593,0.754027,14,32765
6.41117,3.34381,0.754171,14,32765
6.44037,3.33144,0.753173,13,32765
6.38096,3.27342,0.743042,14,32765
6.44536,3.27911,0.746737,14,32765
6.43883,3.2486,0.742023,14,32765
6.41446,3.20903,0.735475,13,32765
6.4609,3.2055,0.73758,14,32765
6.50742,3.20165,0.739624,13,32765
6.44673,3.14519,0.729123,14,32765
6.529,3.15865,0.734242,14,32765
6.52193,3.12812,0.729501,14,32765
6.55042,3.11511,0.729533,14,32765
6.579,3.10177,0.729308,14,32765
6.53544,3.05465,0.720821,14,32765
6.56379,3.04136,0.720843,14,32765
6.55603,3.01143,0.715688,14,32765
6.6024,3.00621,0.717677,14,32765
6.63069,2.99263,0.717124,14,32765
6.64096,2.97052,0.71398,14,32765
6.63278,2.94045,0.710029,14,32765
6.6611,2.92618,0.709461,14,32765
6.65276,2.89606,0.705466,14,32765
6.66261,2.87402,0.702629,14,32765
6.67239,2.85178,0.700481,13,32765
6.74633,2.85669,0.704213,14,32765
6.69183,2.80716,0.695273,14,32765
6.71988,2.79246,0.693918,14,32765
6.74761,2.77798,0.69393,14,32765
6.73849,2.74842,0.689269,14,32765
6.76617,2.73391,0.688198,14,32765
6.77518,2.71193,0.686463,14,32765
6.79353,2.69343,0.684852,14,32765
6.77475,2.6603,0.679464,14,32765
6.78368,2.63828,0.67624,14,32765
6.8204,2.62684,0.676333,14,32765
6.84777,2.61173,0.675692,14,32765
6.8751,2.59659,0.674649,14,32765
6.88375,2.57426,0.672003,14,32765
6.84578,2.5343,0.664498,14,32765
6.90119,2.52875,0.665868,14,32765
6.87232,2.49245,0.659166,14,32765
6.95558,2.49727,0.663269,14,32765
6.92639,2.46128,0.656977,14,32765
6.93457,2.43911,0.653346,14,32765
6.9238,2.41027,0.649027,14,32765
6.93178,2.38807,0.645849,14,32765
6.95847,2.37261,0.644092,13,32765
7.00382,2.36386,0.644318,14,32765
7.01152,2.34179,0.641131,14,32765
7.01928,2.31927,0.638054,14,32765
6.97035,2.27785,0.628624,13,32765
7.03476,2.27415,0.62991,14,32765
6.98499,2.23474,0.620832,14,32765
6.99206,2.21362,0.616884,17,32765
7.10389,2.22474,0.621485,15,32765
5.88009,4.32591,0.856482,47,32765
5.89554,4.30604,0.850366,47,32765
5.91087,4.28606,0.84488,48,32765
5.92557,4.26669,0.839971,48,32765
5.93992,4.24759,0.835354,48,32765
5.95435,4.22845,0.829674,47,32765
5.96881,4.20889,0.82523,47,32765
5.96686,4.17794,0.818696,48,32765
6.00543,4.17555,0.818028,48,32765
5.99517,4.13897,0.8098,48,32765
6.01735,4.12491,0.807585,48,32765
6.03145,4.10519,0.80289,49,32765
6.04552,4.08527,0.798666,49,32765
6.05958,4.06521,0.794405,49,32765
6.07358,4.04499,0.790722,49,32765
6.0875,4.02475,0.786957,49,32765
6.10123,4.00451,0.783855,49,32765
6.11477,3.98464,0.779599,49,32765
6.11974,3.95939,0.775142,48,32765
6.1246,3.93436,0.769747,48,32765
6.15442,3.92524,0.768906,48,32765
6.1676,3.9052,0.76538,49,32765
6.17234,3.87977,0.760565,48,32765
6.1938,3.86493,0.758134,49,32765
6.2069,3.84453,0.75471,50,32765
6.21993,3.82387,0.752409,50,32765
6.23297,3.8032,0.749242,49,32765
6.23741,3.77745,0.74467,47,32765
6.23304,3.7467,0.739981,40,32765
6.2116,3.70564,0.732927,33,32765
6.20712,3.675,0.727009,27,32765
6.22819,3.65949,0.724835,21,32765
6.22348,3.62876,0.719664,19,32765
6.25278,3.61844,0.71925,18,32765
6.2564,3.59282,0.715224,17,32765
6.25119,3.56241,0.710468,17,32765
6.28058,3.55159,0.709183,17,32765
6.31005,3.54047,0.707992,16,32765
6.30449,3.50998,0.704254,17,32765
6.3164,3.48923,0.700583,16,32765
6.34548,3.47803,0.700742,16,32765
6.33959,3.44777,0.696398,16,32765
6.36876,3.43623,0.695783,16,32765
6.35407,3.40106,0.6901,16,32765
6.39201,3.39377,0.690947,16,32765
6.39476,3.36787,0.687079,16,32765
6.39737,3.34187,0.684198,16,32765
6.42657,3.32951,0.683015,16,32765
6.45567,3.31692,0.683004,16,32765
6.44928,3.28621,0.678637,17,32765
6.46052,3.2646,0.675965,16,32765
6.4896,3.25164,0.675338,16,32765
6.50053,3.23014,0.673347,17,32765
6.51143,3.20855,0.671318,17,32765
6.52228,3.18692,0.668903,17,32765
6.53304,3.16543,0.665926,17,32765
6.56188,3.15207,0.665007,16,32765
6.53652,3.11321,0.659394,17,32765
6.59211,3.11265,0.661695,17,32765
6.59366,3.0865,0.658265,16,32765
6.61309,3.0688,0.657182,16,32765
6.59635,3.03448,0.651295,16,32765
6.62469,3.02086,0.651111,16,32765
6.63488,2.99897,0.648586,17,32765
6.64516,2.9768,0.645437,17,32765
6.6643,2.95878,0.64431,17,32765
6.6471,2.92432,0.639156,17,32765
6.67527,2.91012,0.638846,17,32765
6.6943,2.89191,0.636866,17,32765
6.69498,2.86559,0.633839,17,32765
6.71396,2.84711,0.631723,17,32765
6.72368,2.8246,0.629467,17,32765
6.75178,2.80976,0.627907,16,32765
6.76116,2.78755,0.626014,17,32765
6.75205,2.75789,0.621532,17,32765
6.77976,2.74331,0.620265,17,32765
6.7888,2.72125,0.618525,17,32765
6.77939,2.69163,0.614294,16,32765
6.8255,2.68401,0.615041,17,32765
6.83449,2.66178,0.61179,17,32765
6.82481,2.63222,0.607442,17,32765
6.87081,2.62419,0.608257,16,32765
6.8609,2.59483,0.603734,16,32765
6.8882,2.5795,0.602724,17,32765
6.89693,2.55677,0.599748,16,32765
6.92436,2.54074,0.598197,17,32765
6.91423,2.5111,0.593467,16,32765
6.9413,2.49557,0.591999,17,32765
6.94964,2.47292,0.589271,16,32765
6.97664,2.45726,0.587208,16,32765
7.00355,2.44135,0.586212,16,32765
6.97393,2.40585,0.57986,16,32765
7.01953,2.39667,0.57945,16,32765
7.00829,2.36856,0.574623,19,32765
6.97817,2.33378,0.568351,24,32765
7.00482,2.31759,0.566819,32,32765
7.02216,2.29785,0.563282,37,32765
7.05818,2.28477,0.561709,41,32765
7.05586,2.26043,0.556927,43,32765
7.07249,2.24207,0.553682,42,32765
7.07025,2.21715,0.548339,37,32765
5.84966,4.29867,0.769992,42,32765
5.86412,4.27909,0.76903,40,32765
5.87834,4.25982,0.767498,40,32765
5.88452,4.23453,0.764987,39,32765
5.89854,4.21517,0.763986,39,32765
5.91274,4.19555,0.762253,40,32765
5.92668,4.17624,0.76001,39,32765
5.94022,4.15731,0.75807,40,32765
5.95399,4.1379,0.756196,39,32765
5.97596,4.12402,0.755218,40,32765
5.97345,4.09283,0.751681,40,32765
5.97913,4.06741,0.747728,40,32765
6.00089,4.05336,0.747016,40,32765
5.99798,4.02249,0.742571,40,32765
6.0278,4.01418,0.741879,41,32765
6.05766,4.00541,0.74259,41,32765
6.03784,3.96368,0.735739,41,32765
6.06801,3.95441,0.735032,41,32765
6.08153,3.93403,0.732686,41,32765
6.09495,3.91371,0.729979,42,32765
6.10805,3.89362,0.727885,41,32765
6.12107,3.87364,0.725115,41,32765
6.1507,3.86449,0.724298,42,32765
6.14654,3.83409,0.719843,41,32765
6.1592,3.81429,0.716839,41,32765
6.17214,3.79367,0.714939,40,32765
6.1935,3.77823,0.713863,39,32765
6.18925,3.74743,0.709166,31,32765
6.15933,3.70114,0.701867,21,32765
6.12905,3.65534,0.694319,15,32765
6.13278,3.63014,0.690441,15,32765
6.15375,3.61477,0.688313,15,32765
6.20874,3.61967,0.691355,15,32765
6.1693,3.56925,0.682459,14,32765
6.22437,3.57376,0.685197,14,32765
6.19332,3.52833,0.677677,14,32765
6.24878,3.53207,0.679201,14,32765
6.26098,3.51103,0.675922,13,32765
6.25558,3.48038,0.671422,13,32765
6.33705,3.49814,0.676546,13,32765
6.29643,3.44858,0.668106,14,32765
6.26435,3.40409,0.660045,14,32765
6.37214,3.43562,0.667287,14,32765
6.36619,3.40516,0.662622,14,32765
6.34249,3.36541,0.656415,14,32765
6.33629,3.33501,0.652146,14,32765
6.41823,3.35083,0.656583,14,32765
6.41196,3.32021,0.652333,14,32765
6.44111,3.30778,0.650854,14,32765
6.39901,3.25924,0.643527,13,32765
6.4458,3.25559,0.644444,14,32765
6.47471,3.2429,0.64394,15,32765
6.48578,3.22134,0.64076,14,32765
6.49675,3.19974,0.637821,14,32765
6.52529,3.18734,0.63688,14,32765
6.46455,3.13054,0.627251,14,32765
6.51128,3.1259,0.628093,14,32765
6.53985,3.1128,0.627477,14,32765
6.55037,3.0911,0.625027,14,32765
6.54248,3.06151,0.620968,14,32765
6.5528,3.03992,0.61825,14,32765
6.58112,3.02657,0.617733,14,32765
6.59127,3.00495,0.615136,14,32765
6.61967,2.99109,0.614432,14,32765
6.62965,2.96935,0.612195,14,32765
6.63973,2.94716,0.610191,14,32765
6.64984,2.9249,0.607242,14,32765
6.62311,2.88695,0.602025,14,32765
6.65109,2.87298,0.601567,14,32765
6.69725,2.86697,0.602798,14,32765
6.6886,2.83695,0.598687,14,32765
6.67978,2.80705,0.594831,15,32765
6.70739,2.793,0.595103,14,32765
6.71675,2.77091,0.592874,14,32765
6.76274,2.76418,0.594616,14,32765
6.75357,2.73433,0.59063,14,32765
6.80897,2.7306,0.592793,14,32765
6.77169,2.68997,0.586843,14,32765
6.76209,2.66043,0.583466,14,32765
6.80794,2.65293,0.58556,14,32765
6.80743,2.62695,0.583445,15,32765
6.85347,2.61873,0.584634,14,32765
6.8621,2.59625,0.583731,14,32765
6.82398,2.55639,0.578184,14,32765
6.8603,2.54495,0.578946,14,32765
6.90602,2.53637,0.581517,14,32765
6.89563,2.50714,0.578057,14,32765
6.88496,2.47807,0.576228,14,32765
6.91199,2.46199,0.576676,14,32765
6.94811,2.44974,0.578439,14,32765
6.92788,2.41733,0.574994,14,32765
6.9547,2.40109,0.575617,14,32765
7.00019,2.39161,0.577896,14,32765
6.94169,2.34686,0.5724,15,32765
6.9585,2.32816,0.573152,17,32765
6.95655,2.30268,0.571513,21,32765
6.98284,2.28655,0.573164,26,32765
6.99954,2.26745,0.57405,31,32765
7.00659,2.24546,0.57444,34,32765
7.02296,2.22674,0.576003,33,32765
6.99173,2.19278,0.574424,18,32765
5.87513,4.32609,0.704716,48,32765
5.88971,4.30639,0.703744,48,32765
5.92014,4.29868,0.704116,47,32765
5.91839,4.26738,0.700726,47,32765
5.93254,4.24786,0.699714,48,32765
5.94686,4.22808,0.697966,48,32765
5.96091,4.20862,0.695705,48,32765
5.97456,4.18954,0.693749,48,32765
5.99662,4.17566,0.692802,49,32765
6.01054,4.15595,0.69077,49,32765
6.00814,4.12457,0.687406,49,32765
6.02215,4.10458,0.684459,49,32765
6.0358,4.08478,0.682704,49,32765
6.04126,4.05928,0.679356,48,32765
6.06293,4.04528,0.677527,49,32765
6.07631,4.02538,0.67619,49,32765
6.08982,4.00538,0.67338,49,32765
6.10346,3.98503,0.670624,50,32765
6.11708,3.96448,0.66826,49,32765
6.13061,3.94399,0.665533,49,32765
6.14382,3.92374,0.663422,46,32765
6.1317,3.8876,0.657922,41,32765
6.12767,3.85717,0.653315,34,32765
6.11503,3.82151,0.648157,27,32765
6.09378,3.78076,0.641598,22,32765
6.1151,3.76554,0.640603,20,32765
6.11938,3.73986,0.637676,19,32765
6.13201,3.71957,0.634958,19,32765
6.14466,3.69907,0.632538,18,32765
6.14856,3.67365,0.628959,17,32765
6.16091,3.65341,0.626032,17,32765
6.20771,3.65307,0.626391,17,32765
6.21984,3.63268,0.624625,16,32765
6.24937,3.62208,0.623158,16,32765
6.26146,3.6015,0.621113,16,32765
6.25644,3.57067,0.616599,16,32765
6.28604,3.55948,0.615073,16,32765
6.29833,3.53826,0.61177,17,32765
6.31041,3.51712,0.609119,17,32765
6.32228,3.49616,0.606772,16,32765
6.35151,3.48489,0.605561,17,32765
6.34578,3.45442,0.60042,17,32765
6.37485,3.44313,0.599171,17,32765
6.36891,3.41259,0.594689,17,32765
6.39803,3.40082,0.593752,17,32765
6.39193,3.37016,0.589645,17,32765
6.40337,3.34888,0.586829,17,32765
6.43247,3.3366,0.585992,17,32765
6.44394,3.31496,0.582709,16,32765
6.45512,3.29349,0.580732,17,32765
6.46646,3.27164,0.578067,16,32765
6.47761,3.24991,0.57578,17,32765
6.48869,3.2283,0.572595,17,32765
6.4818,3.19783,0.568084,17,32765
6.51033,3.18545,0.566958,17,32765
6.52131,3.16338,0.564292,17,32765
6.53223,3.14126,0.561642,17,32765
6.56085,3.12806,0.560827,17,32765
6.57142,3.10625,0.558366,17,32765
6.56357,3.07653,0.554483,17,32765
6.60105,3.06743,0.55403,17,32765
6.61137,3.04555,0.551793,17,32765
6.63064,3.02792,0.549934,17,32765
6.62278,2.99746,0.546029,17,32765
6.66008,2.98791,0.546026,17,32765
6.62466,2.94532,0.540293,17,32765
6.653,2.9311,0.538825,17,32765
6.68112,2.917,0.538399,17,32765
6.67259,2.88698,0.534797,17,32765
6.71882,2.88089,0.535643,18,32765
6.71937,2.85463,0.532436,17,32765
6.7198,2.82844,0.529479,17,32765
6.73828,2.81039,0.52883,17,32765
6.76613,2.79577,0.528026,17,32765
6.75684,2.76619,0.525074,17,32765
6.76615,2.74379,0.522704,17,32765
6.80309,2.73258,0.522968,17,32765
6.80286,2.70664,0.520322,17,32765
6.81187,2.68425,0.518535,17,32765
6.80207,2.65481,0.516013,17,32765
6.84809,2.64678,0.517506,17,32765
6.83831,2.61701,0.514102,17,32765
6.84694,2.59454,0.513198,17,32765
6.87417,2.57918,0.513001,16,32765
6.92928,2.5745,0.514857,17,32765
6.90959,2.54157,0.512185,16,32765
6.91796,2.5191,0.510292,16,32765
6.96364,2.5102,0.512795,16,32765
6.95321,2.48042,0.510281,16,32765
6.98001,2.46469,0.511068,17,32765
6.97865,2.43869,0.509272,18,32765
6.95841,2.40596,0.506267,26,32765
6.97563,2.38675,0.506113,36,32765
7.00214,2.37078,0.507436,39,32765
6.99067,2.34234,0.506037,33,32765
6.97929,2.31357,0.503802,26,32765
6.98669,2.29112,0.503896,25,32765
6.97495,2.26273,0.502635,21,32765
7.039,2.25906,0.507127,36,32765
7.08396,2.24927,0.510654,43,32765
7.07185,2.22102,0.510838,40,32765
5.84851,4.29019,0.73024,40,32765
5.86357,4.2706,0.724294,40,32765
5.86224,4.23954,0.716468,40,32765
5.87655,4.22049,0.711759,40,32765
5.91533,4.2186,0.708747,40,32765
5.90547,4.18168,0.701351,40,32765
5.92794,4.16795,0.697179,40,32765
5.94215,4.14842,0.692718,40,32765
5.95606,4.12924,0.687826,41,32765
5.95369,4.09838,0.681541,40,32765
5.96765,4.07878,0.67699,41,32765
5.99804,4.07018,0.674954,41,32765
5.99537,4.03929,0.668772,41,32765
6.00893,4.0198,0.664471,40,32765
6.02245,4.00023,0.660201,41,32765
6.05243,3.99169,0.657974,41,32765
6.06596,3.97174,0.654069,41,32765
6.06278,3.94086,0.64806,42,32765
6.07608,3.92089,0.644595,41,32765
6.09794,3.90596,0.641473,40,32765
6.10261,3.88073,0.636979,32,32765
6.06506,3.82886,0.62841,21,32765
6.05266,3.79311,0.621735,16,32765
6.03135,3.75253,0.615022,16,32765
6.07787,3.75372,0.614815,15,32765
6.13288,3.75999,0.61537,15,32765
6.12,3.72417,0.610139,15,32765
6.14115,3.70901,0.60786,15,32765
6.14505,3.68379,0.603423,14,32765
6.17468,3.6736,0.601739,14,32765
6.14413,3.62797,0.5942,14,32765
6.19943,3.63278,0.59507,14,32765
6.21182,3.61203,0.592176,14,32765
6.20672,3.58159,0.587349,14,32765
6.21893,3.56086,0.584192,14,32765
6.23094,3.54029,0.581241,14,32765
6.24287,3.51967,0.578451,14,32765
6.22874,3.48419,0.573466,14,32765
6.28398,3.48791,0.574666,14,32765
6.27831,3.45746,0.569986,14,32765
6.26372,3.4223,0.56508,14,32765
6.27517,3.40169,0.562459,14,32765
6.3307,3.40425,0.563346,15,32765
6.34208,3.38348,0.560534,14,32765
6.33594,3.35299,0.556271,14,32765
6.32071,3.3182,0.551146,15,32765
6.37608,3.32044,0.551641,14,32765
6.34305,3.27627,0.545232,14,32765
6.39832,3.27813,0.54727,14,32765
6.39167,3.24764,0.543514,14,32765
6.45625,3.2531,0.544726,14,32765
6.41393,3.20438,0.538038,14,32765
6.4251,3.18233,0.535704,14,32765
6.48957,3.18724,0.538076,14,32765
6.50045,3.16546,0.535278,14,32765
6.51114,3.14389,0.532506,14,32765
6.52161,3.12248,0.530234,14,32765
6.53217,3.10066,0.528329,14,32765
6.50644,3.06226,0.522427,15,32765
6.57108,3.06579,0.524151,14,32765
6.59945,3.05238,0.523764,14,32765
6.60976,3.03048,0.520918,14,32765
6.58378,2.99177,0.515378,15,32765
6.63923,2.99062,0.516603,15,32765
6.64035,2.96423,0.513021,14,32765
6.61388,2.926,0.507581,14,32765
6.64214,2.91175,0.506558,15,32765
6.65219,2.88921,0.503763,14,32765
6.68028,2.87495,0.502672,14,32765
6.69929,2.85637,0.50068,15,32765
6.69039,2.82677,0.496529,15,32765
6.67213,2.79332,0.492427,14,32765
6.71842,2.78661,0.491735,14,32765
6.6907,2.7495,0.487133,14,32765
6.7739,2.75748,0.489359,14,32765
6.79233,2.73908,0.487181,15,32765
6.783,2.70916,0.483453,15,32765
6.76437,2.67554,0.478472,14,32765
6.79191,2.6605,0.477307,14,32765
6.78224,2.63096,0.472569,14,32765
6.83762,2.62658,0.472862,15,32765
6.83693,2.60093,0.469557,14,32765
6.84562,2.57852,0.466471,14,32765
6.85399,2.55661,0.464167,14,32765
6.84381,2.52727,0.459616,14,32765
6.89907,2.52208,0.459895,14,32765
6.88871,2.49277,0.45542,14,32765
6.91591,2.47683,0.452851,14,32765
6.92399,2.45457,0.450593,14,32765
6.95097,2.43872,0.448419,14,32765
6.94942,2.4134,0.444968,16,32765
6.95728,2.3913,0.441443,19,32765
6.94625,2.36251,0.436622,29,32765
6.94447,2.33726,0.432622,32,32765
6.94262,2.31188,0.429135,26,32765
6.94068,2.28676,0.424408,36,32765
7.02395,2.28976,0.425557,43,32765
7.0314,2.26759,0.421289,40,32765
7.01962,2.23969,0.416092,38,32765
7.03651,2.22027,0.412365,34,32765
7.05308,2.20162,0.408557,35,32765
5.88162,4.32345,0.665793,48,32765
5.89676,4.30369,0.659807,48,32765
5.91164,4.28414,0.653912,48,32765
5.92607,4.26488,0.649157,48,32765
5.92445,4.23386,0.641422,48,32765
5.93899,4.21412,0.636907,48,32765
5.95341,4.19451,0.631742,48,32765
5.99218,4.19198,0.629831,49,32765
5.98985,4.16122,0.623188,49,32765
6.00397,4.14149,0.61875,49,32765
6.01805,4.12168,0.614155,49,32765
6.01562,4.09048,0.608558,49,32765
6.04604,4.08176,0.605856,49,32765
6.05973,4.06206,0.601513,49,32765
6.05677,4.03123,0.595569,46,32765
6.04526,3.99508,0.589075,39,32765
6.04213,3.96417,0.583559,32,32765
6.02219,3.92242,0.576151,25,32765
6.02705,3.89713,0.571909,21,32765
6.03204,3.87156,0.567142,20,32765
6.04499,3.85184,0.56356,19,32765
6.04945,3.82668,0.559475,19,32765
6.07924,3.81742,0.556953,18,32765
6.06645,3.78194,0.551364,17,32765
6.13002,3.79351,0.552284,17,32765
6.14268,3.77352,0.548541,16,32765
6.15538,3.75316,0.545846,16,32765
6.11691,3.70171,0.538196,16,32765
6.18061,3.71246,0.539081,16,32765
6.21033,3.70212,0.537185,16,32765
6.17128,3.65119,0.529354,16,32765
6.21805,3.65088,0.529004,17,32765
6.2305,3.63001,0.526097,17,32765
6.25999,3.61941,0.524336,17,32765
6.27232,3.59846,0.521147,16,32765
6.28445,3.57767,0.518165,16,32765
6.27913,3.54701,0.513925,16,32765
6.29119,3.52596,0.511324,17,32765
6.32042,3.51494,0.509912,17,32765
6.31484,3.4843,0.505397,17,32765
6.32657,3.46331,0.50284,17,32765
6.33816,3.44245,0.500187,17,32765
6.34993,3.42114,0.497132,17,32765
6.36135,3.40026,0.494308,17,32765
6.39933,3.39301,0.493619,18,32765
6.39306,3.36257,0.489419,18,32765
6.3955,3.33689,0.485374,17,32765
6.4334,3.32925,0.484764,18,32765
6.44448,3.30802,0.482977,18,32765
6.45572,3.28637,0.480713,18,32765
6.44916,3.25565,0.476065,18,32765
6.47823,3.24259,0.475173,17,32765
6.5074,3.22913,0.474114,18,32765
6.47356,3.18531,0.468761,17,32765
6.51133,3.17667,0.467899,18,32765
6.52205,3.15501,0.465118,18,32765
6.54156,3.13784,0.463476,17,32765
6.56119,3.12019,0.462196,17,32765
6.56258,3.09438,0.458545,17,32765
6.58213,3.0766,0.456544,18,32765
6.57433,3.04634,0.453464,18,32765
6.60275,3.03281,0.451866,18,32765
6.62218,3.01471,0.449785,17,32765
6.62312,2.9888,0.446841,18,32765
6.63334,2.96649,0.443966,18,32765
6.66161,2.95246,0.442538,18,32765
6.67169,2.93,0.440101,18,32765
6.68179,2.90731,0.437289,17,32765
6.68244,2.88107,0.434209,17,32765
6.71065,2.86636,0.43271,17,32765
6.72934,2.84833,0.430504,18,32765
6.72036,2.81855,0.427253,18,32765
6.72985,2.79634,0.423835,18,32765
6.72984,2.77052,0.421336,17,32765
6.76691,2.75954,0.41992,17,32765
6.77607,2.73738,0.417079,17,32765
6.78527,2.71487,0.414674,17,32765
6.80376,2.69588,0.41222,18,32765
6.83137,2.68068,0.41085,17,32765
6.83106,2.65457,0.40683,17,32765
6.83993,2.63209,0.403878,17,32765
6.87656,2.62061,0.40285,17,32765
6.87596,2.59449,0.399201,17,32765
6.87502,2.56895,0.396344,17,32765
6.87423,2.54294,0.392503,17,32765
6.90141,2.52734,0.390703,17,32765
6.90982,2.50477,0.387466,17,32765
6.91825,2.48198,0.383651,17,32765
6.96398,2.47303,0.383462,17,32765
6.95332,2.44377,0.379024,17,32765
6.94234,2.41512,0.375153,17,32765
6.98796,2.406,0.373649,17,32765
7.01477,2.38994,0.370998,23,32765
6.99412,2.35803,0.366065,33,32765
7.03022,2.34508,0.364614,48,32765
7.03784,2.32277,0.360412,48,32765
7.04528,2.30066,0.356909,47,32765
7.05273,2.27839,0.352626,45,32765
7.05998,2.25644,0.348541,42,32765
7.0769,2.23686,0.344693,40,32765
7.07443,2.21209,0.339849,40,32765
5.85747,4.3009,0.580004,43,32765
5.84735,4.26424,0.576522,42,32765
5.86145,4.24505,0.574951,41,32765
5.89174,4.2374,0.574676,41,32765
5.88974,4.20613,0.571942,40,32765
5.9201,4.19811,0.571504,40,32765
5.91778,4.16715,0.56783,41,32765
5.93142,4.14802,0.565525,41,32765
5.92877,4.11718,0.562256,41,32765
5.94224,4.09802,0.559984,41,32765
5.95609,4.07816,0.557884,41,32765
5.9863,4.06956,0.557175,41,32765
5.99995,4.04981,0.554316,37,32765
5.99682,4.01905,0.550469,29,32765
5.96871,3.97172,0.544081,20,32765
5.98202,3.95197,0.541757,17,32765
5.9787,3.92111,0.537536,16,32765
5.99184,3.90133,0.535194,16,32765
6.00489,3.88153,0.5328,16,32765
5.98421,3.84033,0.527216,16,32765
6.03057,3.84229,0.527203,15,32765
6.03481,3.81728,0.524443,14,32765
6.07277,3.81353,0.524001,14,32765
6.08548,3.79366,0.520754,14,32765
6.07276,3.75774,0.516356,14,32765
6.12789,3.76376,0.516892,14,32765
6.09817,3.71724,0.509968,14,32765
6.11072,3.69692,0.507468,14,32765
6.12345,3.67621,0.504336,13,32765
6.16154,3.67111,0.504405,14,32765
6.24271,3.69118,0.506535,14,32765
6.16054,3.61488,0.495913,14,32765
6.1728,3.59427,0.493359,14,32765
6.18498,3.57357,0.491102,14,32765
6.19694,3.55312,0.488761,15,32765
6.20901,3.53243,0.485555,14,32765
6.221,3.51172,0.482214,14,32765
6.2764,3.51541,0.48252,14,32765
6.24468,3.47021,0.476585,14,32765
6.28235,3.46434,0.475967,14,32765
6.26776,3.42909,0.471247,15,32765
6.30569,3.42253,0.469763,14,32765
6.31746,3.40127,0.466014,14,32765
6.26737,3.34718,0.459227,15,32765
6.34915,3.36373,0.462166,15,32765
6.36053,3.3425,0.45979,15,32765
6.38074,3.32585,0.457176,15,32765
6.34768,3.28169,0.450676,15,32765
6.40343,3.28279,0.451119,15,32765
6.36986,3.23911,0.445701,14,32765
6.42527,3.24054,0.445973,15,32765
6.44518,3.22361,0.443229,15,32765
6.44707,3.19788,0.439232,14,32765
6.50281,3.19814,0.439292,15,32765
6.47774,3.15886,0.434616,15,32765
6.47065,3.12821,0.43005,15,32765
6.48122,3.10657,0.427746,15,32765
6.53666,3.10667,0.427893,15,32765
6.55614,3.08932,0.425174,15,32765
6.52117,3.04663,0.420163,15,32765
6.57678,3.04575,0.420642,15,32765
6.57821,3.01924,0.416979,15,32765
6.59736,3.0017,0.415002,15,32765
6.56201,2.95913,0.409537,15,32765
6.65387,2.97427,0.412001,15,32765
6.61812,2.93215,0.406789,15,32765
6.65541,2.92213,0.406339,15,32765
6.65596,2.89623,0.403673,14,32765
6.68405,2.88197,0.402261,15,32765
6.68439,2.85618,0.399419,15,32765
6.68475,2.83015,0.396597,14,32765
6.72184,2.81952,0.396415,15,32765
6.69443,2.7818,0.392219,15,32765
6.75912,2.7825,0.392877,15,32765
6.74988,2.75262,0.390151,15,32765
6.77746,2.73804,0.389324,15,32765
6.80513,2.72301,0.388585,15,32765
6.77697,2.68606,0.384436,15,32765
6.78589,2.66375,0.382225,15,32765
6.79454,2.64174,0.381399,15,32765
6.82194,2.62645,0.381124,15,32765
6.8306,2.60421,0.378769,15,32765
6.82036,2.57506,0.376555,15,32765
6.86626,2.5668,0.376289,14,32765
6.84647,2.53419,0.373893,14,32765
6.85489,2.51151,0.372693,14,32765
6.89145,2.49894,0.372513,15,32765
6.92775,2.48667,0.373641,15,32765
6.90769,2.45396,0.370705,14,32765
6.90612,2.42859,0.369297,14,32765
6.95164,2.41963,0.370113,14,32765
6.95956,2.39679,0.369933,16,32765
6.9673,2.37433,0.36896,21,32765
6.97494,2.35193,0.368261,34,32765
6.9634,2.32359,0.366772,42,32765
6.97072,2.3016,0.366297,41,32765
7.00653,2.28855,0.368156,46,32765
7.0043,2.26314,0.367218,45,32765
7.04001,2.24985,0.369332,40,32765
7.03756,2.22458,0.368857,33,32765
7.04441,2.20252,0.370571,33,32765
5.8809,4.32818,0.51401,48,32765
5.887,4.30314,0.512198,48,32765
5.90932,4.28963,0.511308,48,32765
5.9074,4.25847,0.508041,49,32765
5.92171,4.23868,0.506873,49,32765
5.9522,4.23054,0.50623,49,32765
5.93369,4.18789,0.501347,45,32765
5.93924,4.16294,0.498344,41,32765
5.92846,4.1263,0.49457,34,32765
5.91735,4.09008,0.490252,28,32765
5.91472,4.05897,0.4868,24,32765
5.9119,4.02801,0.483218,22,32765
5.95846,4.03082,0.483068,22,32765
5.95528,4.00012,0.479418,22,32765
5.97692,3.98603,0.477488,21,32765
5.9986,3.97172,0.475815,19,32765
6.00368,3.94622,0.472424,18,32765
6.01691,3.9263,0.470065,18,32765
6.02168,3.90095,0.467006,17,32765
6.01785,3.8704,0.463074,16,32765
6.08112,3.88298,0.463948,16,32765
6.06022,3.84172,0.459342,16,32765
6.07292,3.82193,0.456697,17,32765
6.11951,3.82317,0.455967,17,32765
6.13234,3.80283,0.453714,16,32765
6.11112,3.76158,0.448136,16,32765
6.11545,3.73582,0.444158,15,32765
6.111,3.70504,0.440415,15,32765
6.08955,3.66371,0.434834,14,32765
6.11046,3.64847,0.433413,15,32765
6.17437,3.65858,0.433609,16,32765
6.19534,3.64305,0.431233,18,32765
6.24218,3.6424,0.43104,18,32765
6.25453,3.62142,0.428752,18,32765
6.22337,3.57582,0.423435,17,32765
6.24418,3.55994,0.420794,18,32765
6.25626,3.53906,0.41743,18,32765
6.26822,3.51821,0.414367,18,32765
6.26267,3.48751,0.410614,18,32765
6.32661,3.49605,0.411407,18,32765
6.30337,3.45577,0.406379,19,32765
6.31507,3.43476,0.402911,19,32765
6.36201,3.43239,0.401369,18,32765
6.37365,3.41101,0.399075,18,32765
6.3851,3.38978,0.396837,19,32765
6.39656,3.36838,0.394442,19,32765
6.408,3.34695,0.391171,19,32765
6.41933,3.32557,0.387798,19,32765
6.43082,3.30361,0.385078,19,32765
6.4685,3.29601,0.384344,19,32765
6.4528,3.26108,0.379901,19,32765
6.48169,3.24849,0.377564,18,32765
6.51049,3.23592,0.375183,18,32765
6.48573,3.19623,0.370139,19,32765
6.53243,3.192,0.369904,18,32765
6.52545,3.1611,0.365493,19,32765
6.53613,3.13922,0.363164,18,32765
6.56463,3.12626,0.361325,18,32765
6.55706,3.09598,0.357018,18,32765
6.56733,3.07437,0.354917,18,32765
6.59587,3.06072,0.353448,18,32765
6.60641,3.03826,0.350347,18,32765
6.59836,3.00816,0.346827,18,32765
6.62673,2.99429,0.345146,18,32765
6.63667,2.97249,0.342501,18,32765
6.64655,2.9506,0.340096,18,32765
6.67476,2.93644,0.338886,18,32765
6.68452,2.91441,0.336766,18,32765
6.67599,2.88418,0.33332,18,32765
6.70388,2.87016,0.331934,18,32765
6.71347,2.84791,0.329648,18,32765
6.72301,2.82555,0.327824,18,32765
6.7325,2.8031,0.325785,19,32765
6.76033,2.78843,0.32409,18,32765
6.77885,2.76982,0.322869,18,32765
6.77871,2.74387,0.320529,18,32765
6.78785,2.72137,0.318727,18,32765
6.77825,2.69177,0.315821,17,32765
6.81508,2.68038,0.314895,17,32765
6.81448,2.6546,0.313633,17,32765
6.84194,2.63921,0.313163,17,32765
6.83196,2.60972,0.30995,18,32765
6.86847,2.59818,0.31003,18,32765
6.87702,2.57573,0.307693,17,32765
6.90411,2.56038,0.307662,18,32765
6.91262,2.53746,0.306448,17,32765
6.91171,2.51102,0.304315,17,32765
6.93867,2.49528,0.304742,17,32765
6.93746,2.46917,0.302905,18,32765
6.94536,2.44697,0.301994,17,32765
6.97209,2.43128,0.301608,17,32765
6.98951,2.41158,0.301832,17,32765
7.00676,2.39221,0.301258,17,32765
6.99553,2.36323,0.299741,24,32765
7.02194,2.34744,0.300055,36,32765
7.02935,2.32522,0.299574,43,32765
7.03676,2.30263,0.299936,42,32765
7.0441,2.28014,0.299492,42,32765
7.07038,2.26365,0.300919,42,32765
7.06798,2.23823,0.300535,40,32765
7.06537,2.21303,0.301846,40,32765
5.85439,4.29333,0.540258,42,32765
5.85279,4.26245,0.532836,41,32765
5.8515,4.231,0.525571,41,32765
5.88236,4.22295,0.521634,41,32765
5.90466,4.20956,0.517235,43,32765
5.91049,4.18478,0.511154,40,32765
5.90819,4.15403,0.504919,40,32765
5.93853,4.1461,0.501373,37,32765
5.92803,4.10934,0.494663,27,32765
5.9091,4.06714,0.486885,19,32765
5.91452,4.04214,0.481645,17,32765
5.89514,4.00011,0.475465,17,32765
5.90876,3.98053,0.470718,17,32765
5.92224,3.96091,0.466695,17,32765
5.92736,3.93574,0.461711,16,32765
5.93228,3.91076,0.456525,14,32765
6.02044,3.94059,0.458375,14,32765
5.99186,3.89351,0.451398,14,32765
6.00482,3.87397,0.447298,14,32765
6.01796,3.85399,0.443355,14,32765
5.99712,3.81289,0.436812,14,32765
6.06894,3.83051,0.437254,14,32765
6.05628,3.79475,0.432432,14,32765
6.06876,3.77523,0.428262,14,32765
6.08147,3.75512,0.424682,14,32765
6.06008,3.71411,0.418581,13,32765
5.99591,3.64721,0.409702,13,32765
6.02531,3.63763,0.407142,12,32765
6.02036,3.60749,0.402722,12,32765
6.10107,3.62847,0.404023,12,32765
6.15614,3.63383,0.403567,14,32765
6.16834,3.61341,0.4006,14,32765
6.21515,3.61284,0.399132,15,32765
6.19275,3.57213,0.394163,15,32765
6.23948,3.57132,0.393114,15,32765
6.24282,3.54571,0.388819,15,32765
6.20239,3.49576,0.3832,15,32765
6.24918,3.49438,0.382012,15,32765
6.26109,3.47335,0.378862,15,32765
6.29925,3.4666,0.376939,15,32765
6.3284,3.45527,0.37527,15,32765
6.29592,3.41083,0.369531,15,32765
6.33364,3.40424,0.368974,15,32765
6.30984,3.36447,0.363071,15,32765
6.33002,3.34804,0.36112,16,32765
6.36798,3.34058,0.359618,15,32765
6.35257,3.30553,0.356745,16,32765
6.39031,3.29827,0.354092,15,32765
6.37477,3.26326,0.349775,15,32765
6.40353,3.25106,0.348679,15,32765
6.44135,3.24296,0.347383,15,32765
6.48806,3.23926,0.34628,15,32765
6.46311,3.19991,0.342317,15,32765
6.45606,3.16934,0.338389,15,32765
6.46687,3.14755,0.335506,15,32765
6.46861,3.1214,0.331821,15,32765
6.54218,3.13,0.332462,16,32765
6.47147,3.06961,0.326321,15,32765
6.56319,3.08626,0.327416,15,32765
6.51917,3.03922,0.321885,15,32765
6.54749,3.0259,0.320526,16,32765
6.55758,3.00418,0.318568,15,32765
6.54941,2.97423,0.314861,15,32765
6.61411,2.97696,0.314483,15,32765
6.58764,2.93865,0.309447,16,32765
6.63392,2.93312,0.309173,16,32765
6.64384,2.91093,0.305856,16,32765
6.65358,2.8888,0.303762,15,32765
6.66346,2.86626,0.300799,15,32765
6.67325,2.84369,0.297849,15,32765
6.71972,2.83674,0.297235,15,32765
6.71082,2.80669,0.292933,15,32765
6.73864,2.79212,0.291185,15,32765
6.74788,2.76998,0.288645,15,32765
6.75714,2.74765,0.285519,15,32765
6.72921,2.71044,0.280902,15,32765
6.77533,2.70308,0.279832,15,32765
6.79368,2.68424,0.277338,14,32765
6.77463,2.65102,0.273573,15,32765
6.78339,2.62882,0.270722,15,32765
6.80142,2.61015,0.267974,14,32765
6.81939,2.59142,0.265354,15,32765
6.84672,2.57596,0.263262,15,32765
6.85523,2.55358,0.259666,15,32765
6.84486,2.52437,0.255841,15,32765
6.84368,2.49886,0.252727,14,32765
6.87061,2.48359,0.250313,14,32765
6.89758,2.46794,0.248076,14,32765
6.91527,2.44845,0.244443,15,32765
6.91404,2.42218,0.240726,14,32765
6.97856,2.41958,0.239601,14,32765
6.92954,2.37808,0.234734,14,32765
7.01281,2.38208,0.233074,14,32765
6.96363,2.34061,0.227838,17,32765
6.99979,2.32737,0.225104,22,32765
6.97888,2.29545,0.22059,33,32765
6.97656,2.2707,0.21701,39,32765
7.03132,2.26418,0.214761,41,32765
7.01945,2.23613,0.209462,38,32765
7.03642,2.21617,0.204362,31,32765
7.03388,2.19117,0.200474,21,32765
5.88546,4.32647,0.474846,49,32765
5.88395,4.29541,0.467571,49,32765
5.89082,4.26963,0.461086,47,32765
5.88939,4.23811,0.454418,40,32765
5.8711,4.19564,0.446822,32,32765
5.85245,4.15357,0.439026,25,32765
5.8745,4.14019,0.43483,23,32765
5.86388,4.10372,0.428133,22,32765
5.89421,4.09561,0.424708,22,32765
5.88343,4.05909,0.417909,20,32765
5.92176,4.05667,0.415085,19,32765
5.91893,4.02575,0.410412,17,32765
5.93262,4.00604,0.405638,16,32765
5.94618,3.9863,0.401592,16,32765
5.97631,3.97759,0.39834,16,32765
6.02299,3.97991,0.395941,17,32765
5.98614,3.92733,0.38875,17,32765
6.01608,3.91841,0.386014,17,32765
6.02911,3.89874,0.38189,17,32765
6.0255,3.86784,0.376873,16,32765
6.02155,3.83735,0.371734,15,32765
5.98372,3.78552,0.364809,14,32765
6.00473,3.77119,0.362345,14,32765
5.96627,3.72009,0.355177,14,32765
5.9703,3.69501,0.351152,13,32765
6.08486,3.73793,0.353396,14,32765
6.10605,3.72279,0.350229,15,32765
6.1186,3.70247,0.34644,16,32765
6.15668,3.69767,0.344546,17,32765
6.17762,3.68243,0.341696,18,32765
6.17267,3.65194,0.337435,18,32765
6.20216,3.64153,0.335386,18,32765
6.19726,3.61067,0.330753,18,32765
6.22674,3.59993,0.328901,18,32765
6.2389,3.57911,0.325644,19,32765
6.23358,3.54851,0.32099,19,32765
6.26275,3.53778,0.319482,19,32765
6.27481,3.51665,0.316123,18,32765
6.29551,3.50034,0.31339,19,32765
6.29002,3.46933,0.309011,19,32765
6.30165,3.44841,0.306301,19,32765
6.32182,3.43256,0.303569,19,32765
6.34203,3.41638,0.301879,20,32765
6.34469,3.39063,0.297579,19,32765
6.33847,3.36,0.294286,18,32765
6.403,3.36644,0.29371,18,32765
6.41426,3.34505,0.292317,19,32765
6.39886,3.31003,0.286949,20,32765
6.38336,3.27491,0.282904,19,32765
6.41216,3.26265,0.281612,19,32765
6.46786,3.2635,0.280801,19,32765
6.47889,3.24182,0.277772,19,32765
6.48976,3.22018,0.275703,19,32765
6.45588,3.17621,0.270817,18,32765
6.5116,3.17628,0.26979,19,32765
6.52243,3.15427,0.266538,19,32765
6.56908,3.14974,0.265404,19,32765
6.55259,3.11487,0.262262,19,32765
6.54501,3.08442,0.258541,18,32765
6.5553,3.06272,0.255696,18,32765
6.5837,3.04924,0.254131,19,32765
6.59387,3.02735,0.252158,19,32765
6.60397,3.0055,0.249305,18,32765
6.64143,2.99571,0.247316,19,32765
6.64239,2.96947,0.243642,19,32765
6.65222,2.94754,0.241643,19,32765
6.62557,2.90917,0.237003,19,32765
6.67197,2.90301,0.236207,19,32765
6.66353,2.87244,0.232591,18,32765
6.69172,2.85767,0.230269,18,32765
6.683,2.82727,0.22739,19,32765
6.71093,2.81273,0.224524,18,32765
6.73876,2.79813,0.222583,19,32765
6.74802,2.77593,0.220039,19,32765
6.77579,2.7611,0.217503,18,32765
6.76644,2.73123,0.213835,19,32765
6.7755,2.70888,0.211213,19,32765
6.80315,2.69368,0.208906,18,32765
6.81205,2.6713,0.206261,18,32765
6.82086,2.64893,0.20339,19,32765
6.83895,2.63011,0.200527,18,32765
6.83829,2.60409,0.197253,19,32765
6.84694,2.58148,0.19443,19,32765
6.86482,2.56255,0.191091,18,32765
6.90135,2.55057,0.188728,19,32765
6.90024,2.52482,0.185682,18,32765
6.92724,2.50933,0.18305,18,32765
6.91665,2.47997,0.17962,18,32765
6.92493,2.45703,0.175639,18,32765
6.95201,2.44061,0.172711,17,32765
6.95992,2.41819,0.16962,18,32765
6.9676,2.39617,0.166679,18,32765
