x, y, z, intensity, ring
6.00472,1.53146,0.535154,13,32765
6.02915,1.51677,0.535077,13,32765
5.99556,1.48762,0.529382,13,32765
6.07799,1.48697,0.534154,13,32765
6.08294,1.46722,0.532464,13,32765
6.08799,1.44705,0.529962,13,32765
6.09277,1.42718,0.528856,13,32765
6.09759,1.40704,0.527282,13,32765
6.14128,1.39567,0.528332,13,32765
6.14594,1.37542,0.527279,13,32765
6.1799,1.36136,0.527329,13,32765
6.20398,1.34512,0.527395,13,32765
6.18907,1.32038,0.523938,13,32765
6.19352,1.29963,0.523178,13,32765
6.25652,1.29124,0.526123,13,32765
6.22184,1.26225,0.521837,13,32765
6.26522,1.24943,0.523489,13,32765
6.24008,1.22301,0.519676,14,32765
6.32252,1.21726,0.525011,14,32765
6.28742,1.18893,0.520771,14,32765
6.32089,1.17333,0.52168,13,32765
6.31498,1.15076,0.520032,14,32765
6.35807,1.13671,0.522738,14,32765
6.33253,1.11041,0.518248,13,32765
6.36572,1.09454,0.519611,14,32765
6.39892,1.0782,0.520939,13,32765
6.36325,1.05068,0.515732,13,32765
6.42584,1.03907,0.519372,14,32765
6.42929,1.01777,0.518941,13,32765
6.49179,1.00559,0.52297,13,32765
6.45586,0.977561,0.518375,14,32765
6.53811,0.967265,0.523846,14,32765
6.54143,0.945186,0.522736,13,32765
6.56433,0.925802,0.5244,13,32765
6.59708,0.908114,0.525608,13,32765
6.6002,0.88607,0.5241,13,32765
6.64265,0.869435,0.526939,13,32765
6.64554,0.847626,0.52604,14,32765
6.68794,0.83061,0.528396,13,32765
6.61161,0.798914,0.5204,14,32765
6.67369,0.783814,0.524503,13,32765
6.69615,0.763845,0.525144,14,32765
6.65904,0.737441,0.521269,14,32765
6.48307,0.696118,0.506779,13,32765
6.3069,0.656101,0.492061,18,32765
6.44803,0.649051,0.501645,16,32765
6.49991,0.63224,0.503885,14,32765
6.79985,0.638388,0.526289,13,32765
6.80206,0.61547,0.524999,13,32765
6.21808,0.541941,0.478932,18,32765
6.21991,0.521382,0.47799,22,32765
6.28134,0.505796,0.480938,29,32765
6.41222,0.495419,0.490413,15,32765
6.79175,0.502339,0.518364,13,32765
6.34584,0.44857,0.483251,24,32765
6.3574,0.428197,0.481911,24,32765
6.41857,0.410993,0.485316,32,32765
6.5195,0.395855,0.491808,14,32765
6.49099,0.372413,0.488616,13,32765
6.46241,0.349589,0.484864,23,32765
6.44369,0.32742,0.482194,20,32765
6.45478,0.306812,0.481699,20,32765
6.44586,0.285417,0.479986,18,32765
6.5963,0.270761,0.489837,13,32765
7.10549,0.268609,0.526031,13,32765
7.12636,0.245922,0.526308,13,32765
7.11734,0.222111,0.523156,13,32765
7.14804,0.199558,0.523992,15,32765
7.1189,0.175457,0.519645,13,32765
7.08959,0.151866,0.516485,13,32765
7.08021,0.128794,0.513864,13,32765
7.04082,0.105385,0.509233,12,32765
7.02135,0.0823893,0.50544,13,32765
7.0017,0.0595665,0.503022,13,32765
7.0419,0.0372967,0.503793,13,32765
7.13195,0.0148446,0.50754,13,32765
7.37149,-0.00830056,0.522709,13,32765
7.3417,-0.0316555,0.517696,12,32765
7.39161,-0.0555312,0.518733,13,32765
7.42155,-0.0798533,0.517474,12,32765
7.42146,-0.103745,0.514578,14,32765
5.72033,1.86814,0.519065,16,32765
5.71729,1.84637,0.514181,15,32765
5.74261,1.83398,0.511282,14,32765
5.72972,1.80959,0.506516,14,32765
5.79285,1.80901,0.508371,16,32765
0,0,0,0,32765
5.75748,1.75653,0.497635,16,32765
5.79207,1.74644,0.496721,15,32765
5.81702,1.73341,0.495679,14,32765
5.8037,1.7089,0.491556,14,32765
5.80958,1.68968,0.488568,14,32765
5.83445,1.67612,0.487747,14,32765
5.82093,1.6516,0.483662,14,32765
5.86486,1.64344,0.484405,14,32765
5.87032,1.62446,0.482281,14,32765
5.88552,1.60778,0.479667,14,32765
5.91012,1.59376,0.47963,14,32765
5.91553,1.5743,0.477177,14,32765
5.94016,1.55973,0.476802,14,32765
5.9841,1.55012,0.477165,14,32765
5.97005,1.52529,0.473664,14,32765
5.99447,1.51068,0.473407,14,32765
5.99953,1.4912,0.47114,14,32765
6.05296,1.48343,0.472887,14,32765
6.07727,1.4684,0.47271,14,32765
6.05321,1.44128,0.467959,14,32765
6.0871,1.42832,0.469102,15,32765
6.15993,1.42388,0.472748,15,32765
6.1259,1.39457,0.467461,15,32765
6.16948,1.38306,0.46937,14,32765
6.13529,1.35385,0.463972,14,32765
6.17885,1.34196,0.465327,15,32765
6.18341,1.32142,0.463526,15,32765
6.22691,1.30886,0.465685,15,32765
6.23136,1.28822,0.463693,15,32765
6.25529,1.27118,0.464137,15,32765
6.28894,1.25627,0.46468,15,32765
6.28337,1.23356,0.462584,15,32765
6.29734,1.21444,0.462126,15,32765
6.3014,1.19356,0.461134,15,32765
6.3349,1.17788,0.461756,15,32765
6.33881,1.15701,0.460912,16,32765
6.34268,1.13582,0.460388,15,32765
6.33675,1.11297,0.457603,15,32765
6.38963,1.10044,0.460097,15,32765
6.40319,1.08067,0.459725,15,32765
6.43639,1.06448,0.459814,15,32765
6.41044,1.03825,0.456563,15,32765
6.45329,1.02321,0.458935,15,32765
6.46656,1.00328,0.458899,15,32765
6.47004,0.981261,0.457473,15,32765
6.50301,0.963589,0.458709,15,32765
6.55568,0.948728,0.461076,15,32765
6.57861,0.929259,0.46255,14,32765
6.58174,0.907402,0.461395,15,32765
6.58485,0.885366,0.45989,15,32765
6.62733,0.86875,0.462352,15,32765
6.65001,0.849477,0.462832,14,32765
6.65283,0.827488,0.46206,14,32765
6.64575,0.804234,0.459619,16,32765
6.66826,0.784329,0.460418,15,32765
6.68082,0.763207,0.460187,15,32765
6.68335,0.741199,0.459416,15,32765
6.45767,0.694378,0.443213,14,32765
6.27145,0.653331,0.429511,21,32765
6.35309,0.640384,0.433718,20,32765
6.49434,0.632565,0.441588,16,32765
6.76468,0.635943,0.459146,14,32765
6.64763,0.602296,0.449795,15,32765
6.262,0.546481,0.422719,26,32765
6.27378,0.526571,0.422439,30,32765
6.33526,0.510777,0.424808,35,32765
6.3966,0.494818,0.428393,18,32765
6.65697,0.492958,0.444792,15,32765
6.29035,0.445163,0.41924,26,32765
6.33175,0.426949,0.419804,27,32765
6.40291,0.410433,0.423307,33,32765
6.5039,0.395316,0.42886,17,32765
6.43551,0.369593,0.423331,16,32765
6.377,0.345288,0.417914,32,32765
6.41804,0.326397,0.419355,27,32765
6.48893,0.308678,0.422667,45,32765
0,0,0,0,32765
6.9795,0.286665,0.45208,14,32765
7.0503,0.266655,0.455069,14,32765
7.10108,0.245138,0.457093,15,32765
7.11198,0.221988,0.455321,16,32765
7.16264,0.199965,0.457149,18,32765
7.12349,0.175525,0.452446,14,32765
7.1141,0.152302,0.450833,14,32765
7.09472,0.128925,0.447669,14,32765
7.03534,0.105128,0.442157,14,32765
6.96593,0.0815233,0.435435,14,32765
7.00614,0.0593435,0.436948,14,32765
7.03636,0.0369625,0.436722,14,32765
7.22625,0.014684,0.445781,13,32765
7.36611,-0.00870363,0.452536,14,32765
7.38618,-0.0323018,0.450854,14,32765
7.35625,-0.0557631,0.446558,14,32765
7.44606,-0.080666,0.448641,14,32765
7.38605,-0.103839,0.442151,15,32765
5.49814,1.79968,0.414261,13,32765
5.67459,1.83748,0.427936,14,32765
5.7659,1.84676,0.434465,14,32765
5.75275,1.82219,0.433591,13,32765
5.74916,1.80044,0.432662,13,32765
5.83131,1.80505,0.438245,13,32765
5.88495,1.80054,0.440868,13,32765
5.8429,1.76738,0.4374,13,32765
5.85817,1.75138,0.437563,13,32765
5.83508,1.72405,0.43532,13,32765
5.90786,1.72433,0.439135,13,32765
5.88485,1.69643,0.436188,13,32765
5.92883,1.68803,0.438053,13,32765
5.89588,1.65798,0.435107,13,32765
5.93015,1.6466,0.436992,13,32765
5.93561,1.62696,0.43635,13,32765
5.96033,1.61247,0.436407,13,32765
5.97535,1.59527,0.436181,13,32765
5.97097,1.57315,0.43454,13,32765
6.02434,1.56628,0.437849,13,32765
6.01026,1.54148,0.434732,13,32765
6.03467,1.52676,0.435176,13,32765
6.03967,1.50711,0.434256,13,32765
6.06401,1.49211,0.434735,13,32765
6.08835,1.47682,0.435209,13,32765
6.07394,1.45176,0.432802,13,32765
6.07891,1.43129,0.431164,14,32765
6.14204,1.42447,0.4343,14,32765
6.04959,1.3816,0.426688,14,32765
6.15158,1.38336,0.432143,13,32765
6.15628,1.36266,0.430932,14,32765
6.12188,1.33361,0.427159,14,32765
6.22397,1.334,0.432504,14,32765
6.21873,1.3111,0.430457,14,32765
6.22309,1.29044,0.429955,13,32765
6.23727,1.27152,0.429053,14,32765
6.28072,1.25845,0.430449,14,32765
6.24581,1.22983,0.426326,14,32765
6.28912,1.21673,0.427725,14,32765
6.32255,1.20165,0.428838,13,32765
6.33649,1.18218,0.427703,14,32765
6.36013,1.16468,0.427459,14,32765
6.34446,1.1397,0.424934,14,32765
6.36793,1.12201,0.425325,14,32765
6.37175,1.10074,0.4238,14,32765
6.39515,1.08262,0.424327,14,32765
6.42837,1.06611,0.424693,14,32765
6.43196,1.0447,0.423491,13,32765
6.49466,1.03241,0.426219,13,32765
6.4981,1.01097,0.425113,13,32765
6.46204,0.983252,0.421558,14,32765
6.50483,0.967874,0.422564,14,32765
6.50811,0.946115,0.421245,14,32765
6.51135,0.924309,0.419533,14,32765
6.5837,0.911909,0.422969,14,32765
6.6462,0.897658,0.425037,14,32765
6.58984,0.867769,0.420274,14,32765
6.59275,0.845973,0.419007,14,32765
6.61536,0.826991,0.418865,14,32765
6.61806,0.805226,0.4187,14,32765
6.66048,0.78761,0.419598,14,32765
6.68297,0.767635,0.41982,14,32765
6.70544,0.747516,0.419457,14,32765
6.42014,0.694286,0.400832,13,32765
6.41246,0.672227,0.400067,15,32765
0,0,0,0,32765
6.30762,0.619172,0.391211,16,32765
6.38917,0.605906,0.395382,16,32765
6.33152,0.579365,0.39121,16,32765
6.26382,0.552554,0.386261,16,32765
6.30545,0.535033,0.388184,26,32765
6.29724,0.513389,0.387434,20,32765
6.28897,0.491826,0.386492,21,32765
6.40014,0.479001,0.391964,15,32765
6.30208,0.451159,0.386207,19,32765
6.35341,0.433639,0.38805,26,32765
6.45437,0.419313,0.394621,22,32765
6.38601,0.393935,0.389654,23,32765
6.44705,0.376463,0.393347,15,32765
6.41836,0.353688,0.391398,21,32765
6.36965,0.330035,0.388279,25,32765
6.40059,0.310758,0.390236,45,32765
6.41155,0.290429,0.390613,24,32765
6.83133,0.287102,0.415982,13,32765
7.1314,0.276646,0.43494,13,32765
7.09239,0.251377,0.432363,14,32765
7.15308,0.229702,0.435437,15,32765
7.15368,0.20628,0.437204,15,32765
7.18427,0.183765,0.438824,13,32765
7.09494,0.158526,0.434431,13,32765
7.06545,0.134789,0.433172,12,32765
7.02588,0.110962,0.431628,12,32765
6.96629,0.0871229,0.428504,13,32765
7.00639,0.0649062,0.432088,13,32765
7.04643,0.0428283,0.435458,13,32765
7.21612,0.0208335,0.447347,13,32765
7.36584,-0.00271252,0.456912,12,32765
7.39555,-0.0268012,0.461711,13,32765
7.42526,-0.0510757,0.465295,13,32765
7.44483,-0.0753776,0.469443,13,32765
7.4045,-0.0990679,0.46901,13,32765
5.69022,1.86624,0.37218,16,32765
5.73406,1.86041,0.375486,15,32765
5.77799,1.85428,0.378059,15,32765
5.73633,1.82056,0.375503,14,32765
5.76131,1.80778,0.376534,14,32765
5.79586,1.79758,0.378252,15,32765
5.76362,1.76686,0.374822,16,32765
5.79787,1.75717,0.376786,14,32765
5.80355,1.73842,0.376237,15,32765
5.80913,1.71971,0.376133,14,32765
5.86277,1.71447,0.378058,15,32765
5.86849,1.69497,0.377247,14,32765
5.8645,1.67292,0.375662,14,32765
5.87952,1.65655,0.376164,14,32765
5.88496,1.63717,0.375923,14,32765
5.8904,1.61765,0.375283,15,32765
5.88619,1.59545,0.373327,14,32765
5.92045,1.58362,0.374236,14,32765
5.99323,1.58201,0.377559,15,32765
5.97905,1.55744,0.376142,15,32765
5.99393,1.5402,0.375039,14,32765
6.00867,1.52304,0.374691,15,32765
6.03302,1.50828,0.374977,14,32765
6.04769,1.49088,0.374667,14,32765
6.02353,1.46383,0.371958,15,32765
6.07702,1.4552,0.37393,14,32765
6.07228,1.43239,0.371695,15,32765
6.10628,1.41881,0.372486,15,32765
6.11107,1.39823,0.371736,15,32765
6.17421,1.39102,0.373876,15,32765
6.19843,1.37452,0.373834,15,32765
6.18355,1.34952,0.371601,15,32765
6.18813,1.32875,0.37015,15,32765
6.21217,1.31211,0.369949,15,32765
6.23608,1.29549,0.370608,15,32765
6.26007,1.27849,0.370184,15,32765
6.27419,1.25942,0.369469,15,32765
6.26864,1.23656,0.367444,15,32765
6.27279,1.21576,0.366172,15,32765
6.30623,1.20071,0.367004,15,32765
6.31035,1.17942,0.365209,15,32765
6.32416,1.16017,0.364218,15,32765
6.34776,1.14233,0.36414,15,32765
6.37126,1.12459,0.364341,15,32765
6.37507,1.10327,0.362814,16,32765
6.41818,1.08844,0.364269,16,32765
6.42188,1.06691,0.362677,15,32765
6.41562,1.04387,0.36092,15,32765
6.46847,1.03005,0.362532,15,32765
6.45218,1.00557,0.360327,15,32765
6.4753,0.98698,0.360452,15,32765
6.49836,0.968584,0.359983,15,32765
6.53128,0.951119,0.360299,15,32765
6.51476,0.926379,0.357495,15,32765
6.51791,0.904338,0.356483,15,32765
6.6002,0.89296,0.359079,16,32765
6.61308,0.872302,0.358645,15,32765
6.62591,0.851659,0.357908,15,32765
6.62873,0.830048,0.356503,15,32765
6.63144,0.808195,0.356337,15,32765
6.6838,0.791674,0.357384,15,32765
6.68646,0.769297,0.356356,15,32765
6.70894,0.749126,0.355803,15,32765
6.49299,0.7033,0.343585,13,32765
6.20725,0.651758,0.328208,19,32765
6.27902,0.638184,0.330206,20,32765
6.4103,0.630243,0.336633,19,32765
6.64105,0.630775,0.347849,15,32765
6.63318,0.607904,0.346822,15,32765
6.27705,0.554564,0.32745,20,32765
6.25899,0.53189,0.325887,32,32765
6.26073,0.511168,0.325749,27,32765
6.37192,0.499039,0.331111,20,32765
6.67238,0.500092,0.345322,15,32765
6.37511,0.457029,0.330202,22,32765
6.31688,0.431739,0.325906,31,32765
6.25844,0.407129,0.323295,18,32765
0,0,0,0,32765
6.42053,0.375388,0.330869,16,32765
6.45165,0.355955,0.332285,28,32765
6.4129,0.332662,0.330149,26,32765
6.50372,0.316113,0.334906,34,32765
6.44486,0.29224,0.331592,17,32765
7.01454,0.295085,0.3607,14,32765
7.09525,0.275483,0.365541,14,32765
7.14604,0.25347,0.367967,15,32765
7.14688,0.229646,0.367392,17,32765
7.15749,0.206483,0.369673,17,32765
7.10821,0.181866,0.366889,14,32765
7.09873,0.15861,0.367465,14,32765
7.09918,0.135384,0.368043,13,32765
7.03963,0.111084,0.365842,14,32765
6.98999,0.0872772,0.363804,14,32765
7.02014,0.0648437,0.366494,14,32765
7.01028,0.042373,0.366875,14,32765
7.24998,0.0206397,0.380829,14,32765
7.32988,-0.00304264,0.385308,14,32765
7.36962,-0.0271033,0.390339,14,32765
7.40935,-0.0514145,0.394166,14,32765
7.40898,-0.0755137,0.39705,14,32765
7.42856,-0.0999405,0.400211,15,32765
5.70969,1.86646,0.395138,13,32765
0,0,0,0,32765
5.57964,1.78382,0.377512,14,32765
0,0,0,0,32765
5.78204,1.80715,0.383519,13,32765
5.75944,1.77979,0.377928,13,32765
5.74628,1.75533,0.373395,14,32765
5.83808,1.76278,0.376288,13,32765
5.8536,1.74643,0.373855,13,32765
5.85939,1.72746,0.371304,13,32765
5.89397,1.71649,0.370508,13,32765
5.89977,1.69708,0.367547,13,32765
5.88622,1.67232,0.364245,13,32765
5.88228,1.65012,0.361032,13,32765
5.93596,1.64407,0.360929,13,32765
5.94149,1.62448,0.358616,13,32765
5.94691,1.60505,0.356383,13,32765
5.95225,1.58558,0.354345,14,32765
5.95756,1.56608,0.351831,14,32765
5.99179,1.55396,0.351637,13,32765
6.0164,1.53904,0.350336,14,32765
6.00218,1.51442,0.346893,14,32765
6.0459,1.5047,0.347258,13,32765
6.05092,1.4849,0.345038,13,32765
6.03647,1.4604,0.341595,13,32765
6.06086,1.44482,0.34074,13,32765
6.06574,1.4246,0.338934,14,32765
6.10946,1.41341,0.339413,14,32765
6.11422,1.39318,0.337309,14,32765
6.06039,1.35997,0.33254,14,32765
6.12346,1.35278,0.334019,13,32765
6.12802,1.33244,0.332334,13,32765
0,0,0,0,32765
6.17603,1.2996,0.331842,14,32765
0,0,0,0,32765
6.28258,1.27838,0.333771,14,32765
6.28691,1.25736,0.331994,14,32765
6.25195,1.22867,0.328427,14,32765
6.32477,1.22084,0.330723,13,32765
6.28968,1.19199,0.327465,13,32765
6.34278,1.18008,0.328858,14,32765
6.36631,1.16287,0.328889,14,32765
6.3702,1.1419,0.327061,14,32765
6.36415,1.11911,0.325658,13,32765
6.39749,1.10284,0.325465,14,32765
6.41106,1.08298,0.324973,14,32765
6.41464,1.06154,0.324923,14,32765
6.41828,1.04001,0.32272,13,32765
6.46121,1.02495,0.323577,14,32765
6.46462,1.00354,0.322654,13,32765
6.46798,0.981825,0.322112,13,32765
6.5503,0.972008,0.325066,14,32765
6.51407,0.944009,0.322173,14,32765
6.55682,0.927777,0.322809,14,32765
6.52037,0.900269,0.319923,14,32765
6.56302,0.883746,0.32046,14,32765
6.61549,0.868434,0.321831,14,32765
6.67786,0.853825,0.323764,13,32765
6.62121,0.824211,0.320468,14,32765
6.70331,0.811937,0.322502,14,32765
6.68616,0.787412,0.320609,13,32765
6.68878,0.765177,0.319944,13,32765
6.73097,0.747629,0.321768,14,32765
6.67394,0.718579,0.317087,13,32765
6.16967,0.643814,0.291193,15,32765
6.27117,0.633406,0.29559,17,32765
6.35278,0.620429,0.298871,16,32765
6.77255,0.638714,0.317346,14,32765
6.7648,0.614809,0.315361,13,32765
6.23945,0.546111,0.289639,17,32765
6.26123,0.526536,0.28967,25,32765
6.30281,0.509003,0.290594,20,32765
6.41403,0.4968,0.295006,16,32765
6.90385,0.511928,0.315692,13,32765
6.28773,0.445547,0.28647,20,32765
6.31911,0.426675,0.286981,27,32765
6.3704,0.408906,0.287972,16,32765
6.94012,0.422651,0.312604,13,32765
6.5027,0.374462,0.291783,13,32765
6.38422,0.346873,0.285329,27,32765
6.39538,0.326204,0.28422,18,32765
6.44637,0.307409,0.285314,24,32765
6.43742,0.286006,0.283353,16,32765
6.87759,0.282861,0.301321,13,32765
7.08818,0.268505,0.309109,13,32765
7.12904,0.246722,0.309139,13,32765
7.12986,0.223771,0.307625,15,32765
7.1406,0.20082,0.306671,15,32765
7.13134,0.176602,0.303958,14,32765
7.092,0.152172,0.300543,13,32765
7.09254,0.129008,0.298832,13,32765
7.03305,0.105444,0.294381,13,32765
6.97348,0.0825876,0.290017,13,32765
7.01375,0.0603167,0.289889,13,32765
7.014,0.0373618,0.287773,13,32765
7.18403,0.0145669,0.292537,13,32765
7.34401,-0.0083579,0.296617,13,32765
7.36403,-0.0314106,0.294865,13,32765
7.41397,-0.0555676,0.293842,13,32765
7.43383,-0.080603,0.291984,13,32765
7.45367,-0.105006,0.288653,14,32765
5.72135,1.87406,0.33913,15,32765
5.73709,1.85873,0.335501,15,32765
5.68633,1.82161,0.328383,15,32765
5.74015,1.81786,0.327078,15,32765
5.70796,1.78761,0.32216,15,32765
5.79018,1.79291,0.322744,14,32765
5.83434,1.78583,0.321537,16,32765
5.81155,1.75832,0.317278,15,32765
5.8079,1.7363,0.313729,15,32765
5.8328,1.72309,0.312221,14,32765
5.81943,1.6982,0.30861,14,32765
5.86354,1.69006,0.307698,14,32765
5.86916,1.67083,0.305595,14,32765
5.87481,1.65133,0.302976,14,32765
5.88038,1.63195,0.29995,14,32765
5.88586,1.6125,0.297656,14,32765
5.92015,1.60104,0.296893,14,32765
5.91582,1.57904,0.294381,15,32765
5.95973,1.56978,0.293785,15,32765
5.95531,1.54758,0.291414,14,32765
5.98956,1.53523,0.290406,15,32765
5.99468,1.51555,0.28809,15,32765
5.98026,1.49132,0.285304,15,32765
6.06282,1.49078,0.286777,15,32765
6.06779,1.47089,0.284425,15,32765
6.07278,1.45053,0.282466,15,32765
6.09713,1.43481,0.281553,15,32765
6.10195,1.41447,0.279859,15,32765
6.11645,1.39644,0.278198,15,32765
6.09184,1.36973,0.275314,15,32765
6.19398,1.37106,0.277968,16,32765
6.14002,1.33767,0.273651,20,32765
6.09565,1.30676,0.270266,23,32765
6.06099,1.2779,0.267171,23,32765
6.14354,1.27395,0.268972,23,32765
6.16742,1.25739,0.268217,17,32765
6.29902,1.26224,0.271969,15,32765
6.29347,1.23924,0.270035,15,32765
6.29768,1.21797,0.268732,15,32765
6.31164,1.19847,0.267938,15,32765
6.31567,1.17731,0.26678,15,32765
6.35886,1.16375,0.267451,15,32765
6.3529,1.14099,0.265214,16,32765
6.37637,1.12341,0.265133,15,32765
6.38018,1.10196,0.263433,16,32765
6.4233,1.08713,0.264062,15,32765
6.44663,1.06886,0.264821,15,32765
6.44041,1.04558,0.262204,15,32765
6.43403,1.02257,0.260679,15,32765
6.43743,1.00121,0.25976,15,32765
6.50006,0.988556,0.261603,15,32765
6.51324,0.968328,0.261025,15,32765
6.53632,0.949009,0.260881,16,32765
6.59888,0.935474,0.26192,15,32765
6.60203,0.913242,0.260969,15,32765
6.5457,0.883051,0.257218,16,32765
6.60809,0.869069,0.258508,16,32765
6.63083,0.849377,0.25833,15,32765
6.6733,0.832222,0.259457,15,32765
6.67609,0.81012,0.25766,16,32765
6.67878,0.787975,0.25672,16,32765
6.64168,0.761168,0.254533,15,32765
6.68388,0.743737,0.25598,15,32765
6.63674,0.715856,0.252253,15,32765
6.28133,0.656639,0.236796,20,32765
6.25366,0.63276,0.235379,20,32765
6.42482,0.628572,0.241268,18,32765
6.77512,0.640077,0.253171,15,32765
6.76737,0.616113,0.251278,15,32765
6.24181,0.547263,0.230549,24,32765
6.28351,0.529316,0.231124,30,32765
6.61397,0.535039,0.242247,14,32765
6.83492,0.530291,0.249593,15,32765
6.85662,0.509273,0.248571,14,32765
6.33993,0.449986,0.228797,23,32765
6.37134,0.4309,0.229018,33,32765
6.42265,0.412921,0.229527,17,32765
6.96266,0.424693,0.247714,14,32765
6.45523,0.372305,0.228562,15,32765
6.42651,0.349701,0.226412,35,32765
6.42769,0.328339,0.224848,20,32765
6.44875,0.307966,0.224423,27,32765
6.43979,0.286511,0.222555,17,32765
6.84017,0.281701,0.235003,14,32765
7.13072,0.270463,0.243547,15,32765
7.11165,0.246419,0.241157,15,32765
7.1624,0.225046,0.24133,16,32765
7.14317,0.201098,0.239271,16,32765
7.15387,0.177317,0.237314,15,32765
7.1145,0.152762,0.234271,14,32765
7.04507,0.128204,0.230268,14,32765
7.02552,0.105345,0.227692,14,32765
6.95592,0.0823481,0.223573,14,32765
7.00618,0.0601733,0.223391,14,32765
7.04639,0.0374085,0.22254,14,32765
7.23645,0.0144953,0.226318,14,32765
7.32649,-0.00856522,0.226707,13,32765
7.37648,-0.0317394,0.22569,14,32765
7.41641,-0.0559115,0.223889,14,32765
7.41626,-0.0807887,0.221245,14,32765
7.41608,-0.104901,0.217151,15,32765
5.74309,1.8856,0.252838,14,32765
5.74906,1.86718,0.253929,14,32765
5.72644,1.83964,0.252923,13,32765
5.78,1.83618,0.254723,14,32765
5.73833,1.80223,0.252748,14,32765
5.7633,1.78944,0.252813,14,32765
5.85507,1.79705,0.256296,13,32765
5.86084,1.77815,0.256109,13,32765
5.86668,1.75881,0.255957,13,32765
5.85326,1.73397,0.25461,13,32765
5.91656,1.73138,0.255915,13,32765
5.92225,1.71198,0.254994,13,32765
5.94708,1.69798,0.255427,13,32765
5.88527,1.65967,0.252074,13,32765
5.93883,1.65383,0.25317,13,32765
5.95396,1.63685,0.251951,13,32765
5.96898,1.61981,0.252212,14,32765
5.9357,1.58983,0.249826,13,32765
5.97961,1.58038,0.250444,14,32765
5.98486,1.56057,0.249305,14,32765
6.01916,1.54793,0.24909,14,32765
6.04371,1.53269,0.249157,14,32765
6.01003,1.50294,0.246491,14,32765
5.96654,1.47097,0.243073,13,32765
6.05876,1.47259,0.245955,13,32765
6.10255,1.46175,0.246002,13,32765
0,0,0,0,32765
6.11219,1.4213,0.24378,14,32765
6.1072,1.39863,0.242538,14,32765
0,0,0,0,32765
6.1361,1.36187,0.240078,15,32765
6.11139,1.3349,0.237929,18,32765
6.12562,1.31663,0.237049,26,32765
6.04201,1.27773,0.232254,26,32765
6.09516,1.26784,0.233401,26,32765
6.07984,1.24355,0.230714,21,32765
6.28973,1.26471,0.237164,14,32765
6.31363,1.24736,0.236277,14,32765
6.28841,1.22027,0.234473,13,32765
6.36126,1.21222,0.235177,13,32765
6.34573,1.18689,0.233667,13,32765
6.34971,1.16575,0.232126,14,32765
6.35355,1.14471,0.231587,14,32765
6.37702,1.12734,0.23035,14,32765
6.43002,1.11462,0.231017,14,32765
6.40423,1.08789,0.228847,14,32765
6.41777,1.06783,0.228049,14,32765
6.41161,1.04439,0.224834,14,32765
6.4447,1.02763,0.225245,14,32765
6.46785,1.00944,0.2247,14,32765
6.49101,0.99072,0.223862,14,32765
6.51415,0.971585,0.223603,14,32765
6.55707,0.955185,0.222246,14,32765
6.58994,0.937415,0.222444,14,32765
6.56339,0.911219,0.22023,14,32765
6.57629,0.890879,0.219825,14,32765
6.5892,0.870175,0.21853,14,32765
6.60206,0.849222,0.21717,15,32765
6.61482,0.828471,0.215976,16,32765
6.57785,0.801483,0.215329,17,32765
6.60039,0.781995,0.214104,16,32765
6.62286,0.762285,0.213483,15,32765
6.59559,0.737045,0.211137,15,32765
6.45891,0.700166,0.205638,13,32765
6.33199,0.665168,0.200874,13,32765
6.23469,0.634343,0.197755,17,32765
6.2766,0.617432,0.197879,17,32765
6.4876,0.616583,0.203298,15,32765
6.48961,0.595205,0.202675,15,32765
6.34223,0.56046,0.197291,17,32765
6.25443,0.531588,0.194676,24,32765
6.2961,0.513546,0.194554,16,32765
6.86578,0.537018,0.211615,13,32765
6.73793,0.504541,0.208156,13,32765
6.37067,0.45634,0.195982,15,32765
6.30233,0.430838,0.193444,27,32765
6.34361,0.412766,0.19448,18,32765
6.96346,0.43034,0.213178,13,32765
6.46594,0.378238,0.197491,14,32765
6.35735,0.351079,0.194232,22,32765
6.40839,0.332716,0.195663,24,32765
6.45938,0.31385,0.19705,18,32765
6.53026,0.295851,0.199475,19,32765
6.80087,0.285404,0.207035,13,32765
7.12135,0.275498,0.217529,13,32765
7.10223,0.251199,0.217477,14,32765
7.15296,0.229576,0.219115,14,32765
7.18364,0.207247,0.220251,15,32765
7.15426,0.183101,0.220482,14,32765
7.14482,0.159455,0.220569,13,32765
7.10531,0.13522,0.219946,13,32765
7.03574,0.110416,0.218429,13,32765
7.01604,0.0872824,0.218893,13,32765
7.01626,0.0644976,0.219785,13,32765
7.07637,0.0422311,0.222826,13,32765
7.18639,0.0192582,0.227056,13,32765
7.32629,-0.00440611,0.233073,13,32765
7.40614,-0.0283927,0.23751,13,32765
7.43594,-0.0522901,0.240207,13,32765
7.45565,-0.0763171,0.243103,13,32765
7.49524,-0.101251,0.247284,14,32765
5.6869,1.87128,0.193998,14,32765
5.73086,1.86537,0.196379,14,32765
5.73679,1.84702,0.196629,15,32765
5.7523,1.83139,0.196653,16,32765
5.74875,1.80946,0.196449,14,32765
5.78329,1.79958,0.196646,15,32765
5.82735,1.79245,0.197658,15,32765
5.78531,1.75906,0.195851,14,32765
5.82939,1.75143,0.196992,14,32765
5.86385,1.74087,0.197446,15,32765
5.84088,1.71293,0.195295,14,32765
5.8465,1.69373,0.194383,14,32765
5.87128,1.67996,0.194631,14,32765
5.88636,1.66355,0.194482,14,32765
5.8918,1.64426,0.193523,15,32765
5.89727,1.62474,0.191907,16,32765
5.91226,1.60786,0.192073,15,32765
5.95617,1.59872,0.192565,15,32765
5.94215,1.57383,0.190938,15,32765
5.96671,1.55915,0.19042,15,32765
6.01069,1.54904,0.190231,15,32765
5.97712,1.51903,0.188277,15,32765
6.03065,1.5113,0.188729,16,32765
6.026,1.48878,0.186978,15,32765
6.03089,1.46892,0.186303,15,32765
5.9872,1.43715,0.1833,16,32765
5.98226,1.41494,0.181722,15,32765
6.09403,1.42006,0.184056,16,32765
6.11826,1.40411,0.183787,16,32765
6.00596,1.35719,0.178967,17,32765
6.12768,1.36286,0.180553,18,32765
6.12249,1.34012,0.179258,22,32765
6.0781,1.30915,0.176576,32,32765
6.08245,1.28898,0.175172,33,32765
6.11609,1.27485,0.17528,33,32765
6.12036,1.25445,0.173327,30,32765
6.23233,1.25578,0.175037,15,32765
6.27581,1.24247,0.174519,15,32765
6.28001,1.22117,0.173815,15,32765
6.30378,1.20376,0.172517,15,32765
6.31769,1.18409,0.172003,15,32765
6.32165,1.163,0.170467,15,32765
6.355,1.14734,0.170721,16,32765
6.34895,1.12469,0.168509,15,32765
6.38225,1.10862,0.168189,15,32765
6.4057,1.09038,0.167597,16,32765
6.42911,1.07191,0.166959,15,32765
6.43281,1.04999,0.164083,16,32765
6.4758,1.0347,0.164459,15,32765
6.50885,1.01791,0.163967,15,32765
6.51227,0.995993,0.162436,15,32765
6.53543,0.976743,0.161984,15,32765
6.5289,0.953016,0.159034,15,32765
6.51229,0.928249,0.157753,15,32765
6.61441,0.920163,0.158928,15,32765
6.62735,0.89961,0.158421,15,32765
6.64027,0.878691,0.157018,15,32765
6.60359,0.851129,0.15439,15,32765
6.63618,0.832817,0.15356,15,32765
6.65877,0.812968,0.154673,15,32765
6.66148,0.790812,0.152781,15,32765
6.68398,0.770855,0.151959,15,32765
6.68653,0.748695,0.150552,15,32765
6.61942,0.718991,0.147912,14,32765
6.28374,0.661405,0.139713,17,32765
6.24609,0.636755,0.138862,19,32765
6.28801,0.619769,0.138607,17,32765
6.82749,0.650157,0.149221,15,32765
6.74997,0.620291,0.146832,15,32765
6.31383,0.559034,0.136584,19,32765
6.29574,0.536132,0.136325,34,32765
6.36732,0.520353,0.136458,19,32765
6.71788,0.526453,0.143456,15,32765
6.54012,0.490658,0.140141,15,32765
6.37217,0.457307,0.135729,18,32765
6.34371,0.434478,0.134697,33,32765
6.3052,0.411028,0.133662,20,32765
6.95513,0.430615,0.147148,15,32765
6.44751,0.377847,0.135965,16,32765
6.45869,0.357316,0.136271,31,32765
6.37996,0.331828,0.134492,25,32765
6.45093,0.313987,0.135828,16,32765
6.48189,0.294163,0.136749,26,32765
6.60272,0.277554,0.138622,15,32765
7.11308,0.275627,0.150081,15,32765
7.15391,0.253427,0.151486,15,32765
7.17468,0.230623,0.152018,15,32765
7.17539,0.207308,0.152236,17,32765
7.11604,0.182368,0.152107,15,32765
7.12659,0.159243,0.152714,14,32765
7.10707,0.135396,0.152897,14,32765
6.9975,0.109906,0.151176,14,32765
7.0078,0.0872196,0.152476,15,32765
7.02802,0.0645954,0.153804,15,32765
7.00817,0.0417641,0.154518,15,32765
7.16822,0.0190966,0.158811,16,32765
7.1882,-0.00448841,0.16082,16,32765
7.13812,-0.0275806,0.161526,17,32765
7.11796,-0.0503192,0.162735,18,32765
7.13771,-0.0733794,0.165347,18,32765
7.11737,-0.0965141,0.167616,21,32765
5.67848,1.86254,0.214929,14,32765
0,0,0,0,32765
5.91918,1.89879,0.215192,13,32765
0,0,0,0,32765
5.76942,1.80989,0.201428,14,32765
5.77531,1.79133,0.198656,13,32765
5.8385,1.79026,0.197333,13,32765
5.84438,1.77135,0.194051,14,32765
5.81214,1.74019,0.188873,14,32765
5.87556,1.73761,0.188263,14,32765
5.88142,1.71799,0.185292,14,32765
5.88702,1.69898,0.182618,14,32765
5.88289,1.67746,0.179073,14,32765
0,0,0,0,32765
5.88423,1.6364,0.17366,14,32765
0,0,0,0,32765
5.95307,1.61275,0.16999,14,32765
5.9584,1.59318,0.167865,14,32765
5.99267,1.58118,0.166726,14,32765
5.93018,1.54394,0.161734,14,32765
5.99338,1.53925,0.161706,14,32765
5.95974,1.50961,0.158281,14,32765
5.99379,1.4974,0.157243,14,32765
6.06669,1.4944,0.156762,14,32765
6.04247,1.46736,0.154222,14,32765
6.08623,1.45666,0.153306,14,32765
6.09111,1.43636,0.15128,14,32765
6.11535,1.42072,0.149742,13,32765
6.12989,1.40235,0.148366,14,32765
6.12484,1.37963,0.146104,14,32765
6.09042,1.35047,0.143626,14,32765
6.03628,1.31756,0.140751,19,32765
6.15792,1.32287,0.14156,27,32765
6.10366,1.28987,0.138477,27,32765
6.05905,1.25906,0.136869,28,32765
6.09268,1.24466,0.135927,22,32765
6.22431,1.24979,0.136098,14,32765
6.29714,1.2425,0.136535,14,32765
6.30131,1.22133,0.134815,14,32765
6.29552,1.19861,0.133497,13,32765
6.36834,1.19031,0.133283,14,32765
6.37229,1.16913,0.13218,14,32765
6.37622,1.14771,0.130316,14,32765
6.38005,1.12632,0.129617,14,32765
6.40353,1.10826,0.128888,13,32765
6.41707,1.08846,0.128574,14,32765
6.44041,1.07048,0.126941,14,32765
6.46379,1.0519,0.124324,14,32765
6.46732,1.03008,0.12333,14,32765
6.4708,1.00817,0.121812,13,32765
6.45441,0.983285,0.120924,14,32765
6.51706,0.970247,0.120908,13,32765
6.5599,0.95396,0.120562,14,32765
6.52343,0.926615,0.119662,14,32765
6.52651,0.904852,0.118572,13,32765
6.56917,0.888195,0.118117,14,32765
6.57213,0.866105,0.11795,14,32765
6.60481,0.847334,0.118555,14,32765
6.66715,0.832601,0.119434,14,32765
6.68979,0.812759,0.117348,14,32765
6.71232,0.792929,0.116757,14,32765
6.73481,0.772765,0.116411,14,32765
6.73735,0.750464,0.115208,14,32765
6.71994,0.725927,0.114214,14,32765
6.33451,0.662895,0.107033,13,32765
6.26707,0.634707,0.104911,16,32765
6.39857,0.626123,0.105732,15,32765
6.7988,0.642494,0.111285,14,32765
6.77104,0.617182,0.109958,13,32765
6.33481,0.556174,0.102215,16,32765
6.27687,0.529997,0.0999073,30,32765
6.34839,0.514663,0.0995791,16,32765
6.63916,0.516181,0.103652,13,32765
6.57106,0.488876,0.101044,14,32765
6.57267,0.467025,0.0999278,14,32765
6.31482,0.42775,0.0944559,27,32765
6.25636,0.402811,0.092452,17,32765
6.87645,0.42003,0.100487,13,32765
6.76801,0.390981,0.0981636,13,32765
6.42982,0.350061,0.0917805,26,32765
6.45093,0.329922,0.0906538,20,32765
6.56188,0.313744,0.0906418,14,32765
6.40305,0.28531,0.0871786,18,32765
6.51385,0.269237,0.0877245,17,32765
6.72454,0.25622,0.0886086,15,32765
6.81529,0.237542,0.0886681,16,32765
6.81606,0.215111,0.0866539,19,32765
6.86672,0.19409,0.0862593,19,32765
6.84736,0.170561,0.0839069,19,32765
6.8779,0.148506,0.0829113,20,32765
6.88836,0.12613,0.081464,19,32765
6.89876,0.103801,0.0797291,20,32765
6.91908,0.0817048,0.0774049,20,32765
6.94933,0.0595751,0.0762596,20,32765
6.95951,0.037068,0.0740669,18,32765
6.97961,0.0145711,0.0720208,16,32765
7.08964,-0.00830071,0.0711384,15,32765
7.1396,-0.031445,0.069217,14,32765
7.20948,-0.0547864,0.0675947,15,32765
7.20929,-0.0777937,0.0643958,15,32765
7.33902,-0.10262,0.0616345,15,32765
5.67891,1.86687,0.158686,15,32765
5.68509,1.84832,0.154535,17,32765
5.62457,1.80835,0.148874,15,32765
0,0,0,0,32765
5.75073,1.8081,0.144034,15,32765
5.71841,1.77768,0.140331,15,32765
5.76244,1.77092,0.138015,14,32765
5.8065,1.76383,0.135666,14,32765
5.81251,1.74422,0.131755,14,32765
5.81842,1.72459,0.129299,15,32765
5.80503,1.69949,0.125938,15,32765
5.87779,1.70013,0.124722,15,32765
5.88326,1.68134,0.121471,15,32765
5.83101,1.64592,0.117669,17,32765
5.90385,1.64555,0.116527,15,32765
0,0,0,0,32765
5.93414,1.61123,0.111543,15,32765
5.95877,1.59685,0.109778,15,32765
5.96405,1.57716,0.107829,15,32765
5.92087,1.54498,0.103848,14,32765
6.01313,1.54778,0.103756,15,32765
6.04734,1.53523,0.10184,16,32765
6.00387,1.50327,0.099208,15,32765
5.97,1.47388,0.0963383,15,32765
5.99429,1.45891,0.0948751,15,32765
6.07691,1.45768,0.094198,15,32765
6.10124,1.44196,0.0924679,15,32765
6.11575,1.42399,0.0905912,15,32765
6.10106,1.39887,0.0886938,16,32765
6.18377,1.39601,0.087779,15,32765
6.20796,1.3796,0.0864756,15,32765
5.96832,1.30563,0.0815977,14,32765
6.14857,1.3238,0.0820774,16,32765
6.11387,1.2949,0.0798158,19,32765
6.14759,1.28029,0.0796911,18,32765
6.23027,1.27559,0.0790624,15,32765
6.26396,1.26054,0.076746,15,32765
6.27798,1.24146,0.0758034,15,32765
6.29196,1.22222,0.0742031,15,32765
6.29599,1.20135,0.0730929,15,32765
6.33933,1.18751,0.0718818,15,32765
6.3531,1.16819,0.0708921,15,32765
6.3767,1.15033,0.0692449,16,32765
6.38054,1.12889,0.0685438,15,32765
6.42373,1.11421,0.0678326,15,32765
6.41759,1.09094,0.0672147,15,32765
6.43106,1.07128,0.0652909,15,32765
6.46429,1.0543,0.0625836,15,32765
6.4777,1.034,0.0616811,15,32765
6.46143,1.00893,0.0599757,15,32765
6.48459,0.990049,0.0596389,15,32765
6.5077,0.970978,0.0586936,15,32765
6.54065,0.953244,0.0578827,15,32765
6.58338,0.937175,0.0580576,15,32765
6.60629,0.917915,0.0571267,15,32765
6.60937,0.89558,0.0559439,15,32765
6.61235,0.873305,0.0557735,15,32765
6.63515,0.853077,0.056011,15,32765
6.65783,0.833243,0.0559883,15,32765
6.64074,0.808553,0.0533965,15,32765
6.69305,0.792368,0.0528575,15,32765
6.70561,0.771081,0.0522462,15,32765
6.71808,0.749937,0.0511233,15,32765
6.68078,0.723257,0.0501694,14,32765
6.31519,0.6623,0.046816,14,32765
6.29748,0.639162,0.0457171,19,32765
6.4091,0.628504,0.0451638,19,32765
6.80937,0.644877,0.0469421,15,32765
6.8314,0.624022,0.0462328,15,32765
6.27562,0.552158,0.0418352,17,32765
6.26747,0.530336,0.0404266,34,32765
6.37886,0.518239,0.0396875,20,32765
6.74942,0.525873,0.0415126,14,32765
6.70128,0.499627,0.0396572,14,32765
6.50343,0.463088,0.0373713,16,32765
6.37523,0.432759,0.0350815,32,32765
6.43653,0.415289,0.0342697,21,32765
6.72732,0.41179,0.0347268,16,32765
6.65877,0.385482,0.033658,15,32765
6.45033,0.351917,0.0311325,29,32765
6.48142,0.332178,0.0298582,26,32765
6.67228,0.319691,0.02915,17,32765
6.70326,0.29931,0.0279657,19,32765
6.59429,0.273128,0.0265449,20,32765
6.69508,0.255626,0.0250138,17,32765
6.78582,0.237001,0.0242288,16,32765
6.86653,0.217147,0.0224848,16,32765
6.96717,0.197328,0.0217668,16,32765
7.00779,0.174907,0.019741,16,32765
6.98834,0.151189,0.0182994,15,32765
6.9888,0.128217,0.0167085,15,32765
6.98919,0.10536,0.014831,15,32765
6.9895,0.082686,0.0122495,15,32765
7.02973,0.0603649,0.0108215,15,32765
7.02989,0.0374939,0.00849571,15,32765
7.15998,0.0149492,0.00633544,14,32765
7.33999,-0.00864439,0.00440615,15,32765
7.37993,-0.0326061,0.00192559,15,32765
7.41978,-0.0565394,-0.000431943,15,32765
7.45956,-0.0807012,-0.00374408,15,32765
7.46926,-0.104699,-0.00774097,16,32765
5.55551,1.83139,0.0694274,15,32765
0,0,0,0,32765
5.7291,1.84733,0.0719643,14,32765
0,0,0,0,32765
5.78875,1.82481,0.072855,14,32765
5.79464,1.80606,0.072474,13,32765
5.83869,1.79904,0.072166,13,32765
0,0,0,0,32765
5.81194,1.74963,0.0709057,14,32765
5.81773,1.7303,0.0703646,14,32765
5.90024,1.73339,0.0710033,13,32765
5.90601,1.71362,0.0705618,13,32765
5.8925,1.68841,0.0684314,13,32765
5.91729,1.67436,0.0685085,13,32765
5.94206,1.6602,0.0673521,13,32765
5.94744,1.64082,0.0673858,13,32765
5.93353,1.616,0.0657237,14,32765
5.95809,1.60184,0.0647789,13,32765
5.90532,1.56693,0.0631825,14,32765
6.01687,1.5753,0.0634887,14,32765
5.99303,1.54784,0.0623275,14,32765
6.00795,1.52997,0.0609812,13,32765
6.1586,1.54605,0.0620935,13,32765
6.05706,1.4987,0.0593558,14,32765
6.04262,1.47371,0.0579447,13,32765
6.18361,1.48635,0.0582309,14,32765
6.09128,1.4425,0.0560867,13,32765
6.09601,1.42242,0.0544589,14,32765
6.12022,1.40659,0.0531004,14,32765
6.1249,1.3861,0.052216,14,32765
6.17834,1.37636,0.0513998,14,32765
6.1732,1.35337,0.0493544,14,32765
6.20703,1.33899,0.0489085,14,32765
6.23111,1.32209,0.0478511,13,32765
6.2355,1.30126,0.0464015,14,32765
6.32805,1.29823,0.0447428,14,32765
6.29318,1.269,0.0436851,14,32765
6.29735,1.24818,0.0423606,14,32765
6.30148,1.22724,0.0410524,14,32765
6.34489,1.21339,0.0401941,14,32765
6.349,1.19175,0.0382962,14,32765
6.35304,1.17011,0.0369498,14,32765
6.3963,1.15591,0.0355862,14,32765
6.40007,1.13482,0.0349709,14,32765
6.40385,1.11338,0.0320702,14,32765
6.40751,1.09217,0.0307968,14,32765
6.42099,1.07239,0.0301173,14,32765
6.46409,1.05707,0.0264521,13,32765
6.46759,1.03547,0.0246933,14,32765
6.51055,1.01991,0.0247781,14,32765
6.51391,0.998291,0.0225664,14,32765
6.5172,0.976626,0.0210722,14,32765
6.48089,0.9488,0.0198118,14,32765
6.56328,0.938007,0.0184462,14,32765
6.56646,0.915506,0.0169078,14,32765
6.56952,0.893334,0.0163279,14,32765
6.57248,0.871302,0.0153713,14,32765
6.5952,0.851857,0.0140646,14,32765
6.66756,0.837725,0.0146213,14,32765
6.67031,0.815602,0.0130637,14,32765
6.69288,0.795526,0.0123106,14,32765
6.71537,0.775435,0.0110208,14,32765
6.73781,0.755093,0.00988929,14,32765
6.74029,0.732698,0.00859325,13,32765
6.24544,0.657904,0.00694134,13,32765
6.41669,0.654671,0.00623988,16,32765
0,0,0,0,32765
6.81911,0.649812,0.00490638,14,32765
6.80132,0.625283,0.00407021,14,32765
6.47464,0.5736,0.00293525,14,32765
6.26729,0.533981,0.00188157,21,32765
6.31888,0.517051,0.00166697,24,32765
6.78912,0.532804,0.00102681,14,32765
6.9205,0.519954,0.000466508,14,32765
6.51322,0.467777,7.17247e-05,14,32765
6.21544,0.425745,-0.000394878,21,32765
6.29663,0.410505,-0.000856477,23,32765
6.72713,0.416356,-0.00108501,14,32765
6.70848,0.393289,-0.000717553,13,32765
6.45013,0.356931,-0.000894496,19,32765
6.47124,0.336909,-0.000951053,28,32765
6.67209,0.325031,-0.00186158,14,32765
7.01277,0.318614,-0.00147991,13,32765
6.97381,0.293896,-0.00131964,14,32765
6.97474,0.270976,-0.00112115,13,32765
7.09552,0.2522,-0.000873529,13,32765
7.1363,0.229898,-0.000244302,14,32765
7.15701,0.206779,-0.000563866,15,32765
7.15766,0.183154,-5.84012e-05,14,32765
7.09823,0.158364,0.000498122,13,32765
7.10871,0.135612,0.00129389,13,32765
7.07911,0.111978,0.00204403,13,32765
6.97945,0.0877445,0.00263638,13,32765
7.02969,0.0655391,0.003991,13,32765
7.04987,0.0425443,0.00540491,14,32765
7.15997,0.0197712,0.00623761,13,32765
7.34999,-0.0040147,0.00810292,13,32765
7.36994,-0.028081,0.00998914,14,32765
7.4198,-0.0525282,0.0118962,14,32765
7.41959,-0.0763924,0.0143651,14,32765
7.4693,-0.100946,0.0171358,14,32765
5.81092,1.92025,0.0150709,15,32765
0,0,0,0,32765
5.6806,1.83614,0.0152095,15,32765
0,0,0,0,32765
5.79742,1.83197,0.0157762,15,32765
5.78425,1.80717,0.0153406,15,32765
5.82831,1.80017,0.0146542,15,32765
0,0,0,0,32765
5.80159,1.75072,0.0137651,15,32765
5.79781,1.72851,0.0131998,15,32765
5.85153,1.7232,0.0130192,15,32765
5.88609,1.71193,0.01264,15,32765
5.88217,1.68948,0.0107185,15,32765
5.89736,1.6727,0.0105871,15,32765
5.90286,1.65318,0.0092138,15,32765
5.8986,1.63122,0.00922915,15,32765
5.95218,1.62494,0.00785326,15,32765
5.93815,1.60028,0.0066701,15,32765
5.97236,1.58848,0.00572224,16,32765
5.96791,1.56619,0.00488547,15,32765
6.0118,1.55638,0.00405652,15,32765
5.99768,1.53098,0.00259592,15,32765
6.07075,1.5276,0.00226444,17,32765
6.0468,1.4997,0.00059136,15,32765
6.05179,1.47944,-0.000634174,15,32765
6.11501,1.47333,-0.00164988,17,32765
6.10049,1.44809,-0.00287793,15,32765
6.10524,1.42793,-0.00451085,15,32765
6.11971,1.40979,-0.00605319,15,32765
6.20242,1.40695,-0.00702859,15,32765
6.20713,1.38603,-0.00826889,15,32765
6.22154,1.36718,-0.0102642,16,32765
6.23588,1.34838,-0.0109662,15,32765
6.22086,1.32302,-0.0121439,15,32765
6.23504,1.30422,-0.013615,15,32765
6.24922,1.28507,-0.0159243,15,32765
6.25352,1.26396,-0.0167025,15,32765
6.2871,1.24907,-0.0181057,15,32765
6.31085,1.23195,-0.0194747,16,32765
6.28553,1.20485,-0.0204899,15,32765
6.32891,1.19077,-0.0225121,16,32765
6.33294,1.16915,-0.0238565,16,32765
6.35651,1.15141,-0.0255154,16,32765
6.36028,1.13041,-0.026129,15,32765
6.44283,1.12279,-0.029373,15,32765
6.4268,1.09803,-0.0305626,15,32765
6.39099,1.06988,-0.0311007,15,32765
6.43404,1.05463,-0.035127,16,32765
6.47702,1.03941,-0.0371059,16,32765
6.51013,1.02223,-0.0373436,15,32765
6.48383,0.996011,-0.039377,16,32765
6.51677,0.978853,-0.041053,15,32765
6.52004,0.956771,-0.0421942,16,32765
6.58265,0.942982,-0.0441926,16,32765
6.60565,0.923131,-0.0458748,15,32765
6.60873,0.900775,-0.04646,15,32765
6.65137,0.883828,-0.0477084,15,32765
6.67412,0.864073,-0.0492216,15,32765
6.67708,0.840888,-0.0488139,16,32765
6.65998,0.81625,-0.0502257,15,32765
6.68254,0.796162,-0.0511676,16,32765
6.6951,0.774909,-0.0525675,16,32765
6.71754,0.754589,-0.0538856,16,32765
6.71006,0.731126,-0.0550975,15,32765
6.3644,0.672011,-0.0532795,14,32765
6.36657,0.651085,-0.0541631,20,32765
6.309,0.623795,-0.0548931,19,32765
6.78884,0.648451,-0.059433,15,32765
6.83079,0.629472,-0.0606082,15,32765
6.55394,0.581994,-0.0590853,15,32765
6.23704,0.532657,-0.0571671,24,32765
6.27865,0.514972,-0.0577615,33,32765
6.66911,0.524622,-0.0620885,16,32765
6.95001,0.523407,-0.0652705,15,32765
6.5727,0.473166,-0.0620835,16,32765
6.35475,0.436319,-0.0604855,27,32765
6.35615,0.415368,-0.0609471,30,32765
6.93634,0.430324,-0.0666727,15,32765
6.68816,0.39303,-0.0639121,14,32765
6.40985,0.355547,-0.0614453,19,32765
6.41098,0.334567,-0.0614992,33,32765
6.77161,0.330668,-0.0658427,15,32765
7.07234,0.32209,-0.0682763,15,32765
7.07336,0.298807,-0.0681229,15,32765
7.15425,0.278619,-0.0686896,15,32765
7.15513,0.254933,-0.068421,15,32765
7.16594,0.231412,-0.0678802,16,32765
7.21665,0.20901,-0.0686756,17,32765
7.15733,0.183594,-0.0675998,15,32765
7.1579,0.160089,-0.0670394,14,32765
7.1084,0.135944,-0.0657765,14,32765
7.05882,0.111939,-0.0645608,14,32765
6.98916,0.0880928,-0.0632988,15,32765
7.00942,0.0655235,-0.0621482,14,32765
7.02961,0.0425416,-0.0609271,15,32765
7.24971,0.0200872,-0.0620761,15,32765
7.36974,-0.00401346,-0.0613992,15,32765
7.3897,-0.028201,-0.0596967,15,32765
7.42959,-0.0526995,-0.058178,15,32765
7.46939,-0.0770647,-0.0560056,15,32765
7.42913,-0.100618,-0.0530461,16,32765
5.61338,1.84846,0.0347546,13,32765
5.75247,1.87367,0.0313498,14,32765
5.75852,1.85506,0.0267392,14,32765
5.82164,1.85474,0.024082,14,32765
5.84675,1.84174,0.0201709,13,32765
5.74774,1.78986,0.0165831,14,32765
5.8396,1.7975,0.0128884,13,32765
5.84555,1.77809,0.00936921,14,32765
5.72682,1.7216,0.00694071,14,32765
0,0,0,0,32765
5.92018,1.73793,0.00128874,14,32765
5.85855,1.69924,-0.00231089,13,32765
5.97947,1.71299,-0.00367446,14,32765
0,0,-0,0,32765
5.84636,1.63245,-0.00937595,13,32765
0,0,-0,0,32765
5.83773,1.58845,-0.0141795,14,32765
0,0,-0,0,32765
6.00265,1.5912,-0.0194448,13,32765
0,0,-0,0,32765
6.03246,1.55621,-0.024074,15,32765
0,0,-0,0,32765
6.00392,1.50606,-0.0281398,13,32765
6.10594,1.5102,-0.0306823,14,32765
6.0526,1.47575,-0.0327268,14,32765
0,0,-0,0,32765
6.11089,1.44708,-0.0368885,14,32765
6.12541,1.42898,-0.0386285,14,32765
6.12038,1.4063,-0.0403719,14,32765
6.12512,1.38547,-0.042771,14,32765
6.12975,1.36476,-0.044471,14,32765
6.18315,1.35478,-0.046398,14,32765
6.17784,1.33205,-0.048038,14,32765
6.19198,1.31366,-0.0502011,14,32765
6.23548,1.30115,-0.0524558,14,32765
6.24959,1.28227,-0.0533406,14,32765
6.23427,1.25715,-0.0550048,14,32765
6.2581,1.23991,-0.0561481,14,32765
6.34076,1.23412,-0.0576246,14,32765
6.32523,1.20891,-0.059442,14,32765
6.32925,1.18766,-0.0601402,14,32765
6.35279,1.17033,-0.0628208,14,32765
6.37634,1.15265,-0.0642036,14,32765
6.36047,1.12772,-0.065795,14,32765
6.38395,1.10957,-0.066785,14,32765
6.41719,1.09317,-0.0686761,14,32765
6.44048,1.07525,-0.0701252,14,32765
6.46375,1.0569,-0.0734028,14,32765
6.52649,1.04471,-0.0745031,14,32765
6.47071,1.01325,-0.0759896,14,32765
6.53342,1.00018,-0.0781666,14,32765
6.55656,0.980927,-0.0785828,14,32765
6.55988,0.958439,-0.0792131,14,32765
6.54325,0.933532,-0.0808647,14,32765
6.56614,0.914272,-0.0826725,14,32765
6.59887,0.89625,-0.0850334,14,32765
6.62162,0.877001,-0.0862293,14,32765
6.62453,0.854619,-0.0872466,14,32765
6.66717,0.83657,-0.0861096,14,32765
6.6699,0.814479,-0.0863487,14,32765
6.71234,0.796516,-0.0878031,14,32765
6.74475,0.777476,-0.0891745,14,32765
6.73737,0.753749,-0.0900248,13,32765
6.73985,0.731085,-0.0912304,14,32765
6.54335,0.687647,-0.0898565,13,32765
6.24716,0.635523,-0.0865634,18,32765
6.35871,0.625206,-0.0893033,18,32765
6.70914,0.637099,-0.0955023,14,32765
6.82074,0.624781,-0.0980323,13,32765
6.82277,0.601933,-0.0997056,14,32765
6.17713,0.524225,-0.0910515,17,32765
6.26853,0.510869,-0.0930954,28,32765
6.40974,0.500775,-0.0967089,15,32765
6.93984,0.518725,-0.10585,14,32765
6.92158,0.493833,-0.106751,14,32765
6.30466,0.428924,-0.098628,19,32765
6.35592,0.411312,-0.1002,28,32765
6.47698,0.397552,-0.104071,15,32765
6.91742,0.402012,-0.112052,14,32765
6.47941,0.355024,-0.106263,15,32765
6.46055,0.332722,-0.107,29,32765
6.50153,0.313295,-0.109713,15,32765
7.06187,0.316849,-0.120297,14,32765
7.10281,0.295275,-0.122406,14,32765
7.15368,0.273564,-0.124857,14,32765
7.18449,0.251074,-0.127391,15,32765
7.16527,0.22666,-0.128453,15,32765
7.10597,0.201438,-0.129293,15,32765
7.15654,0.179305,-0.132033,14,32765
7.19703,0.156625,-0.134875,13,32765
7.10751,0.131522,-0.134355,13,32765
7.11787,0.108546,-0.136444,13,32765
7.06814,0.0848513,-0.13814,13,32765
7.04835,0.0618635,-0.139564,14,32765
7.01847,0.0386497,-0.1414,13,32765
7.1085,0.0160275,-0.145006,14,32765
7.32841,-0.00744565,-0.152375,14,32765
7.3483,-0.0309895,-0.155129,14,32765
7.24814,-0.053571,-0.155447,21,32765
7.24784,-0.0775659,-0.159007,31,32765
7.23749,-0.101129,-0.161632,33,32765
5.61208,1.85262,-0.0208267,16,32765
5.65606,1.84684,-0.0251288,15,32765
5.85232,1.88996,-0.0306631,15,32765
5.81074,1.85586,-0.0333345,16,32765
5.81675,1.83685,-0.0373078,15,32765
5.78455,1.8058,-0.0403135,15,32765
5.70443,1.76025,-0.0435698,15,32765
5.79632,1.76749,-0.0477199,16,32765
5.83076,1.75721,-0.0502294,16,32765
5.73105,1.70667,-0.0527078,17,32765
5.88998,1.73336,-0.0564915,17,32765
5.89554,1.71422,-0.0601027,17,32765
5.71855,1.64231,-0.0595068,16,32765
5.79134,1.64221,-0.0631496,18,32765
5.90274,1.65229,-0.06716,19,32765
5.92749,1.63783,-0.0697899,18,32765
5.90387,1.61043,-0.0719464,18,32765
5.74496,1.54682,-0.0723407,18,32765
5.85627,1.55625,-0.0760185,18,32765
0,0,-0,0,32765
5.91487,1.52966,-0.0811297,17,32765
0,0,-0,0,32765
5.99282,1.507,-0.0862781,16,32765
6.05598,1.50156,-0.0891898,16,32765
6.07062,1.48382,-0.0916799,15,32765
6.08519,1.46607,-0.0931165,16,32765
6.09975,1.44803,-0.0958712,15,32765
6.08505,1.42309,-0.0972387,15,32765
6.13847,1.41396,-0.0998297,15,32765
6.14321,1.39301,-0.102239,15,32765
6.14787,1.37219,-0.103947,15,32765
6.19151,1.35998,-0.106185,15,32765
6.24485,1.34985,-0.108757,16,32765
6.20036,1.3187,-0.109998,15,32765
6.25364,1.30819,-0.112812,16,32765
6.25798,1.28718,-0.113618,15,32765
6.25248,1.26395,-0.11528,15,32765
6.28614,1.24856,-0.116799,16,32765
6.33937,1.23691,-0.118485,16,32765
6.32385,1.21165,-0.120116,16,32765
6.32788,1.19035,-0.120817,16,32765
6.37107,1.17661,-0.124071,15,32765
6.35528,1.1517,-0.124874,16,32765
6.37878,1.13378,-0.127058,16,32765
6.39243,1.11381,-0.128044,15,32765
6.38625,1.0906,-0.129423,15,32765
6.40953,1.07274,-0.131057,15,32765
6.4525,1.05769,-0.134923,16,32765
6.456,1.036,-0.135349,15,32765
6.52859,1.02487,-0.138982,16,32765
6.51227,0.999429,-0.140039,15,32765
6.53541,0.980203,-0.140646,15,32765
6.57829,0.963529,-0.142131,16,32765
6.58146,0.941332,-0.144035,15,32765
6.53506,0.912222,-0.144509,15,32765
6.60739,0.899656,-0.148033,15,32765
6.64996,0.882964,-0.149867,16,32765
6.63306,0.857869,-0.150441,16,32765
6.65589,0.837251,-0.149236,15,32765
6.67847,0.817574,-0.149922,15,32765
6.6812,0.794815,-0.15086,15,32765
6.69374,0.773538,-0.15206,15,32765
6.69628,0.751041,-0.153037,15,32765
6.75838,0.734947,-0.15561,16,32765
6.5321,0.688201,-0.151663,14,32765
6.21607,0.633964,-0.145077,20,32765
6.39723,0.630592,-0.150488,19,32765
6.71775,0.639541,-0.159288,16,32765
6.81937,0.626251,-0.16262,17,32765
6.8214,0.603353,-0.164295,16,32765
6.24561,0.531399,-0.151201,20,32765
6.2872,0.513711,-0.152891,33,32765
6.27888,0.491821,-0.154159,18,32765
6.87862,0.515485,-0.170002,16,32765
6.87032,0.491455,-0.170953,16,32765
6.33329,0.432003,-0.158976,25,32765
6.37457,0.413607,-0.160772,29,32765
6.45569,0.397297,-0.164763,17,32765
6.93596,0.404166,-0.177915,15,32765
6.44812,0.35426,-0.166691,18,32765
6.52909,0.337164,-0.169832,35,32765
6.44026,0.311193,-0.169527,19,32765
7.0504,0.31721,-0.186706,15,32765
7.1113,0.296457,-0.189723,15,32765
7.1122,0.272752,-0.191305,15,32765
7.13299,0.249996,-0.19384,17,32765
7.20368,0.228548,-0.197164,31,32765
7.20434,0.204845,-0.199106,34,32765
7.19493,0.18083,-0.200672,24,32765
7.0855,0.154698,-0.199677,19,32765
7.08593,0.131569,-0.200841,16,32765
7.10626,0.108763,-0.203304,16,32765
7.02654,0.0846892,-0.203655,15,32765
7.03672,0.0620464,-0.205758,15,32765
7.03681,0.0389826,-0.208194,15,32765
7.17679,0.0163637,-0.214144,18,32765
7.31665,-0.00730287,-0.221198,26,32765
7.29653,-0.0306948,-0.222915,28,32765
7.28633,-0.0538305,-0.225051,37,32765
7.25601,-0.0776855,-0.227689,39,32765
7.22565,-0.10105,-0.229588,38,32765
