x, y, z, intensity, ring
2.03525,-0.902343,-0.128124,23,32765
2.00482,-0.897155,-0.125776,23,32765
1.9927,-0.899872,-0.124443,23,32765
1.98965,-0.906686,-0.12383,22,32765
1.96848,-0.905048,-0.121946,22,32765
1.95643,-0.907434,-0.120605,23,32765
1.96243,-0.918249,-0.120707,23,32765
1.96842,-0.929098,-0.120495,23,32765
1.96523,-0.93589,-0.119937,23,32765
1.93505,-0.929657,-0.117593,22,32765
1.95884,-0.949376,-0.118401,23,32765
1.93769,-0.947304,-0.116579,22,32765
1.95244,-0.962665,-0.116888,22,32765
1.9313,-0.960402,-0.115295,22,32765
1.93702,-0.971382,-0.115215,21,32765
1.907,-0.964494,-0.11273,22,32765
1.93929,-0.989213,-0.114139,22,32765
1.92706,-0.991261,-0.1128,22,32765
1.92373,-0.997804,-0.112058,22,32765
1.88503,-0.985703,-0.109291,22,32765
1.92594,-1.0153,-0.111007,22,32765
1.91369,-1.01716,-0.109849,22,32765
1.91909,-1.02834,-0.109547,22,32765
1.88053,-1.0158,-0.106675,21,32765
1.91226,-1.04116,-0.107989,22,32765
1.86512,-1.02338,-0.104523,21,32765
1.87051,-1.03438,-0.104158,22,32765
1.90199,-1.06006,-0.105335,24,32765
1.84615,-1.03722,-0.10162,22,32765
1.84266,-1.04349,-0.100618,22,32765
1.85656,-1.05956,-0.100523,21,32765
1.853,-1.06584,-0.0998165,22,32765
1.84086,-1.06699,-0.0984268,21,32765
1.82866,-1.06815,-0.0972085,20,32765
1.84233,-1.08444,-0.0970079,19,32765
1.8473,-1.09576,-0.0965229,20,32765
1.87794,-1.1225,-0.0971535,20,32765
1.85714,-1.11842,-0.0953351,20,32765
1.82785,-1.10899,-0.0932781,19,32765
1.84134,-1.12536,-0.0929988,20,32765
1.80363,-1.11048,-0.0902026,19,32765
1.86789,-1.15863,-0.0924051,20,32765
1.83019,-1.14365,-0.0898389,20,32765
1.83488,-1.15507,-0.0891254,20,32765
1.83959,-1.1664,-0.0883719,20,32765
1.84423,-1.17781,-0.0876969,20,32765
1.83198,-1.17849,-0.0859343,21,32765
1.77786,-1.15188,-0.0824111,19,32765
1.80756,-1.1796,-0.08298,20,32765
1.83713,-1.20749,-0.0832585,20,32765
1.79153,-1.18596,-0.080022,20,32765
1.77099,-1.18084,-0.0780732,20,32765
1.81692,-1.22011,-0.0789704,20,32765
1.77981,-1.20373,-0.0763452,20,32765
1.80897,-1.23201,-0.0765621,20,32765
1.79678,-1.23224,-0.0746415,21,32765
1.79275,-1.23817,-0.0734083,20,32765
1.78058,-1.23827,-0.0715234,20,32765
1.79297,-1.25553,-0.0708552,21,32765
1.76439,-1.24413,-0.0685035,20,32765
1.76849,-1.25572,-0.0672016,20,32765
1.75621,-1.25582,-0.0652397,19,32765
1.7683,-1.27334,-0.0642431,20,32765
1.78847,-1.29671,-0.0633952,22,32765
1.76828,-1.29056,-0.0610312,22,32765
2.19187,-0.671914,-0.185058,22,32765
2.17069,-0.673359,-0.181965,23,32765
2.18751,-0.686731,-0.182225,24,32765
2.20428,-0.700117,-0.182713,24,32765
2.16409,-0.695248,-0.178206,23,32765
2.18082,-0.70855,-0.17889,23,32765
2.15963,-0.709474,-0.176235,23,32765
2.15733,-0.716672,-0.175209,23,32765
2.17389,-0.730258,-0.175872,23,32765
2.17148,-0.737612,-0.174894,23,32765
2.21624,-0.761059,-0.177625,16,32765
2.04422,-0.709494,-0.163299,12,32765
2.08896,-0.73285,-0.166078,17,32765
2.13355,-0.756478,-0.169131,23,32765
2.12165,-0.760376,-0.167402,23,32765
2.1191,-0.76761,-0.166663,24,32765
2.07909,-0.761098,-0.162831,22,32765
2.1046,-0.778577,-0.164257,17,32765
2.22348,-0.831063,-0.172864,13,32765
2.14607,-0.810392,-0.16626,13,32765
2.17134,-0.828289,-0.167741,13,32765
2.01972,-0.778137,-0.155293,14,32765
2.07293,-0.806631,-0.158832,13,32765
2.02382,-0.795358,-0.154735,15,32765
2.10461,-0.835346,-0.160308,16,32765
2.12034,-0.849896,-0.161084,15,32765
1.99731,-0.808421,-0.151074,14,32765
2.09621,-0.856626,-0.158148,14,32765
2.04724,-0.844708,-0.153851,15,32765
2.01676,-0.840198,-0.151146,17,32765
2.00476,-0.843181,-0.149622,22,32765
2.02946,-0.861747,-0.150924,23,32765
2.03575,-0.872527,-0.151087,23,32765
2.03285,-0.879426,-0.15015,24,32765
2.04815,-0.894366,-0.150908,24,32765
2.02686,-0.893338,-0.149007,23,32765
2.01472,-0.896212,-0.147605,23,32765
2.00254,-0.89912,-0.146311,23,32765
1.99043,-0.901839,-0.144883,23,32765
2.00551,-0.916963,-0.145585,23,32765
2.00246,-0.923739,-0.144817,24,32765
1.98131,-0.922038,-0.142714,23,32765
1.99628,-0.937205,-0.14355,24,32765
1.96611,-0.931111,-0.140832,23,32765
1.97192,-0.942217,-0.140914,23,32765
1.96872,-0.948999,-0.140206,23,32765
1.96549,-0.955787,-0.139367,23,32765
1.97121,-0.966923,-0.139252,23,32765
1.95904,-0.969159,-0.137843,23,32765
1.94683,-0.971374,-0.136686,23,32765
1.97033,-0.991407,-0.137939,24,32765
1.95807,-0.993656,-0.136396,23,32765
1.95467,-1.00042,-0.13569,23,32765
1.91582,-0.988797,-0.132408,23,32765
1.9479,-1.01375,-0.134106,23,32765
1.89152,-0.992436,-0.129742,22,32765
1.89706,-1.00345,-0.129509,23,32765
1.86724,-0.995826,-0.127065,21,32765
1.89028,-1.01634,-0.128064,23,32765
1.86058,-1.00843,-0.125421,23,32765
1.88352,-1.029,-0.126524,22,32765
1.88021,-1.03516,-0.125523,22,32765
1.85936,-1.03171,-0.123501,21,32765
1.87338,-1.04767,-0.123899,23,32765
1.86112,-1.0492,-0.122497,22,32765
1.89232,-1.07528,-0.123755,23,32765
1.83678,-1.05185,-0.119312,21,32765
1.81595,-1.04811,-0.117491,21,32765
1.87292,-1.08929,-0.120465,22,32765
1.86066,-1.09057,-0.119137,22,32765
1.83984,-1.0867,-0.116914,22,32765
1.84479,-1.09803,-0.11652,22,32765
1.80687,-1.08374,-0.113228,22,32765
1.84604,-1.11557,-0.114982,22,32765
1.85092,-1.12686,-0.114762,22,32765
1.83879,-1.12769,-0.11308,22,32765
1.8436,-1.13902,-0.112503,23,32765
1.78898,-1.11353,-0.108238,23,32765
1.80224,-1.13009,-0.108388,22,32765
1.8154,-1.14678,-0.108284,22,32765
1.8117,-1.15272,-0.107134,22,32765
1.81637,-1.16406,-0.106565,21,32765
1.82097,-1.1755,-0.1057,21,32765
1.83392,-1.19235,-0.105476,21,32765
1.83837,-1.2039,-0.104951,21,32765
1.80111,-1.18796,-0.101806,20,32765
1.78892,-1.18838,-0.0999884,20,32765
1.80161,-1.20547,-0.0996895,20,32765
1.79768,-1.21144,-0.0983974,20,32765
1.77718,-1.20618,-0.0963056,20,32765
1.81453,-1.24016,-0.0973343,21,32765
1.81879,-1.25174,-0.0961824,21,32765
1.8147,-1.25776,-0.0949301,21,32765
1.82706,-1.27509,-0.0941966,22,32765
1.79026,-1.25807,-0.0911776,21,32765
1.80249,-1.27551,-0.0905952,21,32765
1.79021,-1.27566,-0.0885422,21,32765
1.79412,-1.28749,-0.0872525,21,32765
1.78179,-1.28762,-0.0852406,21,32765
1.74532,-1.26994,-0.0819965,21,32765
1.77362,-1.29907,-0.0817151,21,32765
2.2024,-0.673772,-0.177614,21,32765
2.19066,-0.677936,-0.177266,20,32765
2.18838,-0.685141,-0.177735,22,32765
2.1766,-0.689316,-0.177054,22,32765
2.1553,-0.690423,-0.175783,22,32765
2.1814,-0.706921,-0.178215,21,32765
2.15062,-0.704811,-0.17599,22,32765
2.15772,-0.715134,-0.176769,22,32765
2.127,-0.712743,-0.174311,22,32765
2.11521,-0.716524,-0.173462,22,32765
2.21655,-0.759117,-0.182028,16,32765
2.27057,-0.786043,-0.186369,12,32765
2.11733,-0.741079,-0.173857,14,32765
2.09605,-0.741519,-0.172135,22,32765
2.12176,-0.758562,-0.174128,22,32765
2.1286,-0.769033,-0.174826,22,32765
2.10734,-0.769246,-0.172816,22,32765
2.21699,-0.817812,-0.181752,18,32765
2.23294,-0.83231,-0.182642,12,32765
2.08085,-0.783622,-0.170057,12,32765
2.13412,-0.811961,-0.174198,12,32765
1.94527,-0.747583,-0.158544,13,32765
1.97997,-0.76853,-0.16122,13,32765
2.19094,-0.85892,-0.177909,14,32765
0,-0,-0,0,32765
2.07406,-0.829239,-0.168078,15,32765
2.05281,-0.828716,-0.166149,13,32765
2.09619,-0.854554,-0.169245,12,32765
2.11174,-0.869308,-0.170224,13,32765
2.03511,-0.845979,-0.163572,14,32765
1.99549,-0.837452,-0.15995,20,32765
2.04778,-0.867557,-0.163892,23,32765
2.00821,-0.858814,-0.160125,21,32765
2.02366,-0.873484,-0.160985,22,32765
2.00244,-0.872422,-0.158726,22,32765
2.00865,-0.883248,-0.158704,23,32765
1.98749,-0.881933,-0.156478,22,32765
1.99362,-0.892797,-0.156557,22,32765
1.9906,-0.899603,-0.155922,23,32765
1.99671,-0.910443,-0.155684,22,32765
1.96649,-0.904702,-0.152754,23,32765
1.98159,-0.919695,-0.153488,22,32765
1.9785,-0.926441,-0.152788,23,32765
1.96639,-0.928919,-0.151112,23,32765
1.96325,-0.935648,-0.150421,22,32765
1.93317,-0.929318,-0.147391,22,32765
1.94808,-0.94448,-0.14775,23,32765
1.93597,-0.946671,-0.146362,22,32765
1.95069,-0.962087,-0.146944,23,32765
1.92954,-0.959958,-0.14474,23,32765
1.92628,-0.966642,-0.14366,23,32765
1.92296,-0.973352,-0.142881,23,32765
1.91967,-0.979956,-0.141946,22,32765
1.92528,-0.991038,-0.141607,23,32765
1.90427,-0.988322,-0.139492,21,32765
1.90098,-0.994771,-0.138595,23,32765
1.93298,-1.01981,-0.140245,22,32765
1.89433,-1.0076,-0.136902,21,32765
1.90857,-1.02344,-0.137191,22,32765
1.8876,-1.0204,-0.13509,22,32765
1.88422,-1.02678,-0.133984,23,32765
1.86331,-1.02352,-0.131879,22,32765
1.8861,-1.0443,-0.132894,21,32765
1.90005,-1.06041,-0.133244,22,32765
1.88784,-1.06191,-0.131643,23,32765
1.85823,-1.05353,-0.129042,23,32765
1.86343,-1.06469,-0.128738,22,32765
1.83392,-1.05605,-0.126088,22,32765
1.84771,-1.07218,-0.126388,22,32765
1.79246,-1.04813,-0.122179,21,32765
1.84059,-1.08457,-0.12462,22,32765
1.82839,-1.08566,-0.123397,22,32765
1.81619,-1.08673,-0.121916,22,32765
1.85533,-1.11861,-0.123937,21,32765
1.82599,-1.10932,-0.121544,21,32765
1.81379,-1.11023,-0.120128,21,32765
1.80166,-1.111,-0.118686,20,32765
1.79803,-1.11695,-0.117987,21,32765
1.80287,-1.12815,-0.117733,22,32765
1.81607,-1.14473,-0.118195,21,32765
1.76175,-1.11862,-0.114072,20,32765
1.8002,-1.1513,-0.115768,21,32765
1.81316,-1.16813,-0.116249,22,32765
1.76744,-1.14695,-0.112979,22,32765
1.81385,-1.18556,-0.115338,22,32765
1.78488,-1.17516,-0.113121,22,32765
1.75606,-1.16451,-0.11073,21,32765
1.76877,-1.18151,-0.11122,21,32765
1.74006,-1.17062,-0.108863,21,32765
1.73619,-1.1764,-0.108326,21,32765
1.75708,-1.19903,-0.109065,20,32765
1.74496,-1.19912,-0.107944,20,32765
1.76567,-1.2219,-0.109001,19,32765
1.76996,-1.23327,-0.109013,21,32765
1.76603,-1.23895,-0.10833,20,32765
1.73756,-1.2274,-0.106175,19,32765
1.74987,-1.24461,-0.106808,20,32765
1.73766,-1.24455,-0.105942,19,32765
1.74174,-1.25605,-0.105871,20,32765
1.72152,-1.24993,-0.104595,19,32765
1.74169,-1.27314,-0.105937,19,32765
2.19053,-0.672478,-0.198355,22,32765
2.19782,-0.682525,-0.199637,24,32765
2.19551,-0.689775,-0.200106,24,32765
2.20271,-0.700021,-0.201063,23,32765
2.1719,-0.698171,-0.198737,23,32765
2.16951,-0.705526,-0.198843,22,32765
2.15769,-0.709599,-0.198073,24,32765
2.16475,-0.719973,-0.198942,24,32765
2.17182,-0.730304,-0.199674,23,32765
2.15054,-0.731038,-0.19786,22,32765
2.24229,-0.770615,-0.206584,14,32765
2.2021,-0.765,-0.202812,13,32765
2.10549,-0.739509,-0.194004,20,32765
2.13118,-0.75658,-0.196421,23,32765
2.1568,-0.773782,-0.198686,24,32765
2.09801,-0.760629,-0.193429,24,32765
2.12357,-0.777878,-0.195544,23,32765
2.13962,-0.792029,-0.196993,14,32765
2.12764,-0.795828,-0.195517,12,32765
2.15292,-0.813595,-0.197716,14,32765
2.04779,-0.781834,-0.187881,14,32765
2.04519,-0.788725,-0.187417,14,32765
2.09826,-0.817291,-0.192145,13,32765
2.05846,-0.809801,-0.188065,14,32765
0,-0,-0,0,32765
2.07151,-0.831112,-0.188971,18,32765
1.98562,-0.804394,-0.180961,13,32765
2.11203,-0.864021,-0.192091,14,32765
2.09068,-0.863648,-0.189904,14,32765
1.98657,-0.82869,-0.18001,18,32765
2.04809,-0.862529,-0.185161,23,32765
2.04519,-0.869489,-0.184679,23,32765
2.02397,-0.868583,-0.182186,23,32765
1.9845,-0.859575,-0.178295,23,32765
2.01814,-0.882337,-0.180771,23,32765
2.02431,-0.893245,-0.180832,23,32765
2.01224,-0.896039,-0.179222,23,32765
2.00012,-0.898844,-0.177767,23,32765
1.99708,-0.905692,-0.177128,23,32765
1.98503,-0.908288,-0.175375,23,32765
1.97295,-0.910856,-0.173761,22,32765
2.00608,-0.934326,-0.176264,23,32765
1.97587,-0.928456,-0.17318,22,32765
1.97277,-0.935206,-0.172195,23,32765
1.97861,-0.946277,-0.172283,23,32765
1.97547,-0.952986,-0.171298,23,32765
1.98132,-0.963965,-0.171044,23,32765
1.96915,-0.966278,-0.169548,23,32765
1.97484,-0.977423,-0.169533,23,32765
1.95366,-0.975379,-0.167128,23,32765
1.90583,-0.959742,-0.162241,22,32765
1.92919,-0.979949,-0.16373,22,32765
1.91701,-0.982046,-0.162039,23,32765
1.88716,-0.974842,-0.15881,22,32765
1.91046,-0.99503,-0.16023,22,32765
1.90714,-1.00152,-0.159327,23,32765
1.90381,-1.00797,-0.158409,22,32765
1.86525,-0.995641,-0.154702,23,32765
1.87072,-1.0067,-0.154464,22,32765
1.86736,-1.01304,-0.153633,22,32765
1.86401,-1.01937,-0.152536,23,32765
1.87809,-1.0353,-0.153099,23,32765
1.88336,-1.0465,-0.152967,23,32765
1.86246,-1.04313,-0.150683,23,32765
1.83295,-1.0347,-0.147606,23,32765
1.86417,-1.06066,-0.149618,23,32765
1.83471,-1.05202,-0.146633,23,32765
1.84847,-1.06823,-0.147153,22,32765
1.81047,-1.05433,-0.143527,22,32765
1.84999,-1.08565,-0.146254,23,32765
1.83781,-1.08682,-0.144489,22,32765
1.86847,-1.11344,-0.146531,23,32765
1.80486,-1.08384,-0.140926,22,32765
1.8098,-1.09508,-0.140757,22,32765
1.80613,-1.10122,-0.140081,22,32765
1.80247,-1.10729,-0.139234,22,32765
1.80734,-1.11853,-0.139007,22,32765
1.81214,-1.1298,-0.138951,22,32765
1.81692,-1.14107,-0.13878,21,32765
1.83005,-1.15774,-0.139418,21,32765
1.80944,-1.15308,-0.137283,21,32765
1.8141,-1.16443,-0.136877,22,32765
1.77671,-1.14884,-0.133749,20,32765
1.78965,-1.16563,-0.134421,22,32765
1.79419,-1.17702,-0.134201,21,32765
1.76529,-1.16654,-0.131708,21,32765
1.78639,-1.18899,-0.132749,22,32765
1.79069,-1.20057,-0.132795,22,32765
1.7785,-1.20091,-0.131369,22,32765
1.76627,-1.20122,-0.130207,22,32765
1.75409,-1.20144,-0.128788,22,32765
1.72554,-1.19019,-0.126368,22,32765
1.72164,-1.19587,-0.125906,21,32765
1.74235,-1.21858,-0.127213,21,32765
1.73846,-1.22419,-0.126536,22,32765
1.75079,-1.2414,-0.127065,22,32765
1.7224,-1.22969,-0.12493,22,32765
1.75077,-1.25869,-0.12691,22,32765
1.72243,-1.24684,-0.124584,22,32765
1.73454,-1.26417,-0.125456,22,32765
1.72241,-1.26386,-0.124739,22,32765
2.2077,-0.673896,-0.233038,20,32765
2.15809,-0.666486,-0.226556,21,32765
2.17501,-0.679469,-0.227444,21,32765
2.20137,-0.695697,-0.228876,21,32765
2.16123,-0.690941,-0.223757,21,32765
2.14953,-0.695128,-0.221846,19,32765
2.14734,-0.702242,-0.220625,22,32765
2.16401,-0.715566,-0.221652,23,32765
2.124,-0.710072,-0.216625,21,32765
2.12175,-0.717094,-0.21549,21,32765
2.19476,-0.750061,-0.222124,13,32765
2.07943,-0.718414,-0.209599,17,32765
2.08647,-0.728753,-0.209704,21,32765
2.11223,-0.745835,-0.211504,23,32765
2.08167,-0.742921,-0.207697,22,32765
2.09794,-0.756767,-0.208706,23,32765
2.09546,-0.763851,-0.207774,23,32765
2.07427,-0.764072,-0.204908,17,32765
2.03445,-0.757118,-0.200488,16,32765
2.07858,-0.781532,-0.203997,15,32765
2.05736,-0.781516,-0.201493,14,32765
2.15705,-0.827831,-0.210319,14,32765
2.09855,-0.813666,-0.204093,13,32765
2.01236,-0.788152,-0.195257,12,32765
2.07461,-0.820584,-0.200566,13,32765
2.01641,-0.805403,-0.194428,13,32765
2.03224,-0.819671,-0.195316,18,32765
2.08487,-0.849134,-0.19972,13,32765
2.14651,-0.882851,-0.204911,13,32765
2.00551,-0.832964,-0.191039,15,32765
2.03025,-0.851459,-0.192848,23,32765
2.06414,-0.873859,-0.19547,23,32765
2.02461,-0.865189,-0.191057,22,32765
2.03086,-0.876066,-0.191127,22,32765
2.02792,-0.88299,-0.190479,22,32765
2.01582,-0.885961,-0.188745,23,32765
1.98552,-0.880776,-0.185274,21,32765
1.98251,-0.887668,-0.184612,22,32765
1.97952,-0.894521,-0.183686,22,32765
1.97653,-0.901271,-0.182818,22,32765
1.98257,-0.912178,-0.18287,22,32765
1.96148,-0.910492,-0.180257,22,32765
1.99455,-0.934024,-0.182994,23,32765
1.9644,-0.928011,-0.17982,22,32765
1.92536,-0.917476,-0.175564,22,32765
1.93125,-0.928374,-0.175767,21,32765
1.94605,-0.943708,-0.176621,22,32765
1.93386,-0.946099,-0.175139,22,32765
1.96642,-0.970418,-0.177474,22,32765
1.94529,-0.96829,-0.175055,22,32765
1.94202,-0.974932,-0.174527,23,32765
1.921,-0.972554,-0.171698,22,32765
1.9088,-0.974656,-0.170423,21,32765
1.90551,-0.981226,-0.169509,21,32765
1.92875,-1.0015,-0.171203,21,32765
1.90778,-0.998732,-0.168839,22,32765
1.88687,-0.995795,-0.166495,22,32765
1.90117,-1.01153,-0.167162,21,32765
1.90658,-1.02271,-0.167099,21,32765
1.85927,-1.00554,-0.162414,21,32765
1.8909,-1.031,-0.164761,22,32765
1.85254,-1.01815,-0.160779,21,32765
1.86663,-1.03404,-0.161419,22,32765
1.89806,-1.0597,-0.163685,22,32765
1.86851,-1.05138,-0.160527,22,32765
1.84769,-1.04781,-0.158203,22,32765
1.85286,-1.05901,-0.158085,22,32765
1.81476,-1.04538,-0.154324,22,32765
1.81131,-1.05149,-0.153389,22,32765
1.79924,-1.05253,-0.15175,21,32765
1.83872,-1.0839,-0.15451,23,32765
1.83522,-1.08998,-0.153364,22,32765
1.82306,-1.09101,-0.151846,23,32765
1.81097,-1.09191,-0.150117,22,32765
1.83295,-1.1135,-0.151347,22,32765
1.7953,-1.09875,-0.147487,22,32765
1.84267,-1.13612,-0.150609,23,32765
1.81351,-1.1265,-0.147526,22,32765
1.8014,-1.12722,-0.145729,22,32765
1.78928,-1.1279,-0.143975,21,32765
1.80244,-1.14453,-0.144426,22,32765
1.75673,-1.1236,-0.139735,20,32765
1.77821,-1.14566,-0.14077,20,32765
1.80799,-1.17328,-0.142125,21,32765
1.77911,-1.16289,-0.13904,20,32765
1.76696,-1.16336,-0.137295,21,32765
1.80479,-1.19677,-0.139154,21,32765
1.79262,-1.19718,-0.137352,21,32765
1.78054,-1.19743,-0.13534,22,32765
1.76016,-1.19209,-0.132899,22,32765
1.73977,-1.18671,-0.130455,21,32765
1.77704,-1.22078,-0.132063,22,32765
1.72382,-1.19258,-0.127223,20,32765
1.72821,-1.20391,-0.126451,21,32765
1.74892,-1.22669,-0.126899,21,32765
1.7124,-1.20936,-0.123087,20,32765
1.73292,-1.23234,-0.123321,21,32765
1.74515,-1.24973,-0.122958,22,32765
1.725,-1.24373,-0.120047,21,32765
1.72913,-1.25524,-0.11875,21,32765
1.72516,-1.26085,-0.116917,21,32765
2.1953,-0.672663,-0.253567,21,32765
2.19323,-0.679912,-0.252081,23,32765
2.19112,-0.687096,-0.250963,22,32765
2.17004,-0.688389,-0.247262,23,32765
2.17732,-0.698708,-0.247158,22,32765
2.18452,-0.709101,-0.247285,22,32765
2.17285,-0.71325,-0.244977,23,32765
2.18002,-0.723561,-0.245116,24,32765
2.15889,-0.724436,-0.241817,24,32765
2.13777,-0.725205,-0.238558,19,32765
2.20125,-0.755081,-0.244882,16,32765
2.13304,-0.739677,-0.23644,22,32765
2.11184,-0.740354,-0.233501,24,32765
2.12815,-0.754245,-0.234532,25,32765
2.13506,-0.764799,-0.23455,25,32765
2.14188,-0.775476,-0.234696,26,32765
2.11132,-0.772475,-0.23068,25,32765
2.11812,-0.783104,-0.230665,23,32765
2.09693,-0.783247,-0.227881,23,32765
2.1223,-0.800907,-0.229804,23,32765
2.10104,-0.801045,-0.227096,22,32765
2.11696,-0.815432,-0.227923,23,32765
2.08639,-0.811926,-0.224138,23,32765
2.08367,-0.819079,-0.223402,23,32765
2.044,-0.811442,-0.218452,22,32765
2.08751,-0.83686,-0.222599,23,32765
2.06631,-0.836469,-0.219715,23,32765
2.07275,-0.84729,-0.219776,23,32765
2.06991,-0.854463,-0.218813,23,32765
2.07619,-0.865475,-0.219078,23,32765
2.06409,-0.868816,-0.217272,23,32765
2.06122,-0.875816,-0.216403,24,32765
2.06748,-0.886739,-0.216403,24,32765
2.01883,-0.874062,-0.210822,23,32765
2.02501,-0.884952,-0.211126,23,32765
2.02204,-0.891942,-0.210245,24,32765
2.01904,-0.898919,-0.209317,23,32765
2.01597,-0.905949,-0.20864,23,32765
2.01291,-0.912938,-0.207696,23,32765
2.02797,-0.928108,-0.208673,24,32765
2.00679,-0.926697,-0.20601,23,32765
1.9947,-0.929301,-0.204121,23,32765
2.00962,-0.944531,-0.205374,23,32765
1.97948,-0.938561,-0.201913,23,32765
1.99436,-0.953839,-0.202754,23,32765
1.9463,-0.939038,-0.197562,22,32765
1.91626,-0.932671,-0.194058,22,32765
1.93988,-0.952527,-0.196105,22,32765
1.96343,-0.972504,-0.197906,23,32765
1.92451,-0.961465,-0.193507,23,32765
1.92126,-0.968056,-0.192981,22,32765
1.92693,-0.979144,-0.19264,23,32765
1.91471,-0.981277,-0.191266,22,32765
1.9468,-1.00618,-0.193871,23,32765
1.92575,-1.00362,-0.191435,23,32765
1.90479,-1.00085,-0.188884,23,32765
1.91031,-1.01189,-0.188963,23,32765
1.84544,-0.985509,-0.182002,22,32765
1.85969,-1.00125,-0.182915,22,32765
1.85631,-1.00766,-0.182078,22,32765
1.82668,-0.999682,-0.178804,22,32765
1.86701,-1.02991,-0.182141,22,32765
1.86361,-1.0362,-0.181262,23,32765
1.85151,-1.03756,-0.179678,22,32765
1.85678,-1.04867,-0.179619,23,32765
1.85332,-1.05492,-0.178781,22,32765
1.81523,-1.04138,-0.174593,22,32765
1.83763,-1.06251,-0.176267,22,32765
1.83412,-1.06872,-0.175316,22,32765
1.80482,-1.05975,-0.171932,21,32765
1.80131,-1.06583,-0.171076,21,32765
1.84924,-1.10243,-0.174804,22,32765
1.83705,-1.10351,-0.173184,23,32765
1.83346,-1.10963,-0.172151,22,32765
1.81279,-1.1054,-0.169662,22,32765
1.78372,-1.09578,-0.166231,23,32765
1.79711,-1.11221,-0.166764,23,32765
1.76807,-1.10242,-0.163425,23,32765
1.77293,-1.1136,-0.163112,24,32765
1.78614,-1.13019,-0.163594,23,32765
1.74882,-1.1147,-0.159622,23,32765
1.7788,-1.14204,-0.161355,24,32765
1.78343,-1.15339,-0.161138,23,32765
1.7797,-1.15932,-0.159854,24,32765
1.75092,-1.14882,-0.156505,24,32765
1.78042,-1.1767,-0.158381,23,32765
1.74342,-1.1605,-0.154084,23,32765
1.75624,-1.17737,-0.15441,23,32765
1.76904,-1.19425,-0.154495,22,32765
1.75694,-1.19448,-0.152589,23,32765
1.7695,-1.21162,-0.152801,22,32765
1.72449,-1.18924,-0.147804,22,32765
1.72063,-1.19496,-0.14663,21,32765
1.74953,-1.22346,-0.148023,22,32765
1.7375,-1.22338,-0.145986,22,32765
1.74175,-1.23484,-0.145203,22,32765
1.75403,-1.25218,-0.145012,22,32765
1.71756,-1.23474,-0.140825,21,32765
1.72982,-1.25204,-0.140377,21,32765
1.72585,-1.25772,-0.138515,22,32765
1.72993,-1.26924,-0.137319,22,32765
2.21584,-0.677046,-0.246135,20,32765
2.18505,-0.6756,-0.24316,21,32765
2.16378,-0.676959,-0.241249,22,32765
2.2184,-0.702111,-0.247642,22,32765
2.17817,-0.697398,-0.24335,21,32765
2.14742,-0.695593,-0.240117,20,32765
2.15453,-0.7059,-0.241033,21,32765
2.15218,-0.713093,-0.24084,22,32765
2.15926,-0.723398,-0.24168,22,32765
2.2228,-0.75285,-0.248961,20,32765
2.10743,-0.721541,-0.236034,14,32765
2.09567,-0.725307,-0.234546,20,32765
2.12139,-0.742192,-0.237562,23,32765
2.11894,-0.749348,-0.236987,24,32765
2.11642,-0.756494,-0.236825,25,32765
2.11382,-0.763802,-0.236599,25,32765
2.1393,-0.781246,-0.239096,24,32765
2.09002,-0.771322,-0.233444,22,32765
2.09677,-0.781842,-0.234086,22,32765
2.07558,-0.781818,-0.231561,22,32765
2.073,-0.788785,-0.231031,22,32765
2.07967,-0.799325,-0.231609,22,32765
2.05846,-0.79918,-0.22904,22,32765
2.07429,-0.813497,-0.230547,21,32765
2.06231,-0.816886,-0.229038,21,32765
2.0503,-0.820344,-0.227377,21,32765
2.05677,-0.831049,-0.227892,22,32765
2.03557,-0.830552,-0.225225,21,32765
2.02362,-0.833656,-0.22359,21,32765
2.02088,-0.840405,-0.223051,21,32765
2.06398,-0.866434,-0.227507,22,32765
2.01534,-0.853913,-0.221912,23,32765
2.03994,-0.872532,-0.224083,22,32765
1.99133,-0.859843,-0.218304,21,32765
2.03403,-0.886611,-0.222573,22,32765
1.97641,-0.869572,-0.21579,21,32765
2.02809,-0.900465,-0.221123,22,32765
1.97973,-0.886934,-0.215485,22,32765
2.00396,-0.905988,-0.21781,22,32765
1.96476,-0.896237,-0.213019,21,32765
1.97984,-0.911305,-0.214181,22,32765
1.95871,-0.909718,-0.211555,22,32765
1.93765,-0.908001,-0.208651,22,32765
1.96158,-0.927424,-0.210959,22,32765
1.94954,-0.92977,-0.209066,22,32765
1.95538,-0.940764,-0.209372,23,32765
1.91649,-0.929956,-0.204597,22,32765
1.96705,-0.962708,-0.209511,23,32765
1.94598,-0.960584,-0.206958,23,32765
1.9428,-0.967214,-0.205954,23,32765
1.90394,-0.95605,-0.201415,23,32765
1.88294,-0.953639,-0.198785,22,32765
1.94179,-0.991859,-0.204375,23,32765
1.89417,-0.975775,-0.198969,22,32765
1.89977,-0.9868,-0.198972,22,32765
1.89645,-0.993336,-0.198113,22,32765
1.88435,-0.995102,-0.196482,22,32765
1.88987,-1.00618,-0.196184,22,32765
1.87771,-1.00793,-0.19467,22,32765
1.89191,-1.02372,-0.195607,22,32765
1.85354,-1.01109,-0.191052,22,32765
1.8764,-1.0317,-0.192929,22,32765
1.87301,-1.03798,-0.192122,22,32765
1.85216,-1.03464,-0.189563,22,32765
1.84874,-1.04092,-0.188604,22,32765
1.85389,-1.05218,-0.188697,22,32765
1.82448,-1.04358,-0.185257,22,32765
1.84692,-1.06467,-0.186991,22,32765
1.84339,-1.07092,-0.186097,23,32765
1.8141,-1.06197,-0.182647,21,32765
1.8191,-1.07323,-0.182907,23,32765
1.77273,-1.05393,-0.177668,21,32765
1.81195,-1.08555,-0.18116,22,32765
1.81687,-1.09685,-0.18115,22,32765
1.79622,-1.09262,-0.178527,22,32765
1.81808,-1.11432,-0.180174,22,32765
1.78052,-1.09945,-0.175966,21,32765
1.77688,-1.10542,-0.175266,20,32765
1.79014,-1.12198,-0.175969,21,32765
1.81177,-1.14385,-0.177708,21,32765
1.76594,-1.12323,-0.172675,21,32765
1.77067,-1.13447,-0.172646,21,32765
1.7251,-1.11331,-0.167872,21,32765
1.77993,-1.1571,-0.172768,22,32765
1.79283,-1.17393,-0.173712,23,32765
1.74736,-1.15249,-0.168812,22,32765
1.76017,-1.16938,-0.169615,23,32765
1.76468,-1.18069,-0.169586,23,32765
1.72773,-1.1643,-0.165673,22,32765
1.70744,-1.15881,-0.163444,22,32765
1.75303,-1.19824,-0.167408,23,32765
1.74911,-1.20405,-0.166596,23,32765
1.72878,-1.19851,-0.164292,22,32765
1.7412,-1.21567,-0.165206,22,32765
1.72917,-1.21557,-0.163655,22,32765
1.68452,-1.19246,-0.159164,21,32765
1.73748,-1.23847,-0.164164,22,32765
1.68492,-1.20924,-0.158692,21,32765
1.71333,-1.2381,-0.16123,21,32765
1.69322,-1.23192,-0.159311,21,32765
1.66508,-1.21982,-0.156399,20,32765
2.1938,-0.672917,-0.265538,22,32765
2.19152,-0.680232,-0.265731,23,32765
2.18921,-0.687572,-0.265934,23,32765
2.19638,-0.697835,-0.267126,23,32765
2.21294,-0.711277,-0.269367,23,32765
2.17273,-0.706518,-0.2647,23,32765
2.18923,-0.720043,-0.266855,23,32765
2.14913,-0.714832,-0.262059,23,32765
2.12793,-0.715656,-0.259544,22,32765
2.1914,-0.74508,-0.267476,15,32765
2.12318,-0.729739,-0.259167,16,32765
2.12079,-0.736831,-0.258724,22,32765
2.1558,-0.757136,-0.263159,25,32765
2.1533,-0.76443,-0.262572,25,32765
2.14137,-0.768358,-0.261263,25,32765
2.12004,-0.768999,-0.258752,25,32765
2.12681,-0.779671,-0.259249,25,32765
2.1335,-0.790394,-0.259942,24,32765
2.12156,-0.794124,-0.258399,24,32765
2.11894,-0.801215,-0.257943,24,32765
2.10702,-0.804803,-0.25627,25,32765
2.09507,-0.808334,-0.254677,24,32765
2.12015,-0.826287,-0.257538,25,32765
2.07113,-0.815373,-0.251357,24,32765
2.0961,-0.83345,-0.254233,24,32765
2.09326,-0.840742,-0.253582,24,32765
2.09044,-0.847889,-0.25306,24,32765
2.07841,-0.851277,-0.251307,24,32765
2.08476,-0.862134,-0.251781,24,32765
2.05442,-0.857623,-0.247903,24,32765
2.07907,-0.876109,-0.250601,24,32765
2.03046,-0.863616,-0.244535,23,32765
2.03673,-0.874491,-0.24478,23,32765
2.03378,-0.881533,-0.244006,23,32765
2.00348,-0.876635,-0.239992,22,32765
2.05509,-0.907652,-0.245708,24,32765
2.01576,-0.898416,-0.240727,23,32765
2.00374,-0.901129,-0.23895,23,32765
2.00977,-0.912095,-0.239386,23,32765
1.97965,-0.906488,-0.235293,23,32765
1.99466,-0.921646,-0.23663,23,32765
1.99155,-0.928515,-0.235945,23,32765
1.97946,-0.931146,-0.2339,23,32765
1.95834,-0.929444,-0.231167,22,32765
1.98219,-0.948965,-0.233404,24,32765
1.95213,-0.942803,-0.229576,22,32765
1.95799,-0.953741,-0.229672,22,32765
1.96376,-0.964784,-0.229895,24,32765
1.95162,-0.967066,-0.228197,23,32765
1.89503,-0.947058,-0.220962,22,32765
1.93624,-0.976004,-0.225372,23,32765
1.91519,-0.973707,-0.22254,23,32765
1.91191,-0.980356,-0.221578,22,32765
1.89975,-0.982419,-0.219807,22,32765
1.92296,-1.00269,-0.221932,22,32765
1.91958,-1.00933,-0.221058,23,32765
1.90743,-1.01118,-0.219322,23,32765
1.8778,-1.00361,-0.215077,22,32765
1.87441,-1.01005,-0.214473,22,32765
1.8536,-1.00687,-0.211601,22,32765
1.85898,-1.01798,-0.211659,23,32765
1.8295,-1.00981,-0.207868,22,32765
1.83488,-1.0208,-0.208064,21,32765
1.84015,-1.03192,-0.208279,22,32765
1.8454,-1.04308,-0.208301,22,32765
1.84189,-1.04943,-0.207509,22,32765
1.84705,-1.06061,-0.207675,22,32765
1.83493,-1.06188,-0.205806,22,32765
1.84,-1.07313,-0.205876,22,32765
1.81933,-1.0692,-0.203104,21,32765
1.84998,-1.09572,-0.206316,21,32765
1.82071,-1.0867,-0.202496,22,32765
1.80856,-1.08776,-0.200744,21,32765
1.77088,-1.07328,-0.196109,22,32765
1.80132,-1.10003,-0.198952,22,32765
1.78919,-1.10093,-0.197132,22,32765
1.76865,-1.09644,-0.194424,21,32765
1.76503,-1.10239,-0.193724,21,32765
1.78669,-1.12424,-0.195537,22,32765
1.7578,-1.11417,-0.192036,21,32765
1.7625,-1.12549,-0.192053,22,32765
1.79233,-1.1529,-0.194845,22,32765
1.73006,-1.12095,-0.187782,22,32765
1.77641,-1.15942,-0.192414,22,32765
1.76429,-1.15986,-0.190839,23,32765
1.76047,-1.16578,-0.189968,22,32765
1.73177,-1.15512,-0.186483,22,32765
1.74458,-1.17193,-0.187443,22,32765
1.75722,-1.18893,-0.188475,22,32765
1.7698,-1.20598,-0.189573,23,32765
1.70835,-1.17242,-0.182642,21,32765
1.7455,-1.20643,-0.186217,22,32765
1.71701,-1.19518,-0.182855,22,32765
1.75387,-1.22949,-0.186556,23,32765
1.72553,-1.21795,-0.183175,22,32765
1.73779,-1.2352,-0.184247,22,32765
1.71757,-1.2293,-0.182143,22,32765
1.67322,-1.20578,-0.176979,22,32765
1.70157,-1.23466,-0.179884,23,32765
1.70564,-1.24607,-0.18033,23,32765
1.70157,-1.25171,-0.179676,23,32765
2.26703,-0.69191,-0.306497,20,32765
2.20805,-0.681952,-0.297252,21,32765
2.21538,-0.69229,-0.297371,21,32765
2.15648,-0.681704,-0.288535,21,32765
2.17324,-0.694941,-0.28995,21,32765
2.18045,-0.705411,-0.29008,21,32765
2.1499,-0.703541,-0.285225,20,32765
2.16644,-0.717124,-0.286843,21,32765
2.15473,-0.721355,-0.284394,22,32765
2.18062,-0.738162,-0.287114,15,32765
2.13128,-0.729479,-0.280039,13,32765
1.96008,-0.678275,-0.25713,12,32765
2.11713,-0.740666,-0.277093,21,32765
2.12405,-0.751184,-0.277525,20,32765
2.08424,-0.745009,-0.271681,21,32765
2.11914,-0.765624,-0.275633,22,32765
2.09799,-0.766026,-0.272323,23,32765
2.15138,-0.793679,-0.278808,22,32765
2.08365,-0.776708,-0.269687,22,32765
2.08114,-0.783713,-0.268762,23,32765
2.07855,-0.79089,-0.267784,24,32765
2.07592,-0.798025,-0.267081,21,32765
2.11029,-0.819509,-0.271086,23,32765
2.05211,-0.804999,-0.263093,23,32765
2.06799,-0.819196,-0.264415,24,32765
2.06526,-0.82627,-0.263784,24,32765
2.07178,-0.836923,-0.264196,24,32765
2.05063,-0.836417,-0.261173,23,32765
2.02952,-0.835873,-0.25783,23,32765
2.0542,-0.854398,-0.26049,25,32765
2.02377,-0.850152,-0.256293,24,32765
2.03919,-0.864933,-0.25784,24,32765
2.00889,-0.860248,-0.253637,22,32765
2.01516,-0.871073,-0.253924,22,32765
1.99407,-0.869979,-0.250805,23,32765
2.00027,-0.880817,-0.251195,24,32765
2.00643,-0.891697,-0.251455,23,32765
1.97623,-0.886376,-0.247473,21,32765
1.97333,-0.893097,-0.246488,22,32765
1.97938,-0.903993,-0.246866,22,32765
1.98536,-0.915005,-0.247218,22,32765
1.95529,-0.909232,-0.242973,23,32765
1.94325,-0.911696,-0.241261,23,32765
1.9582,-0.926814,-0.242596,23,32765
1.95515,-0.933471,-0.241665,23,32765
1.9341,-0.931618,-0.238639,22,32765
1.931,-0.938236,-0.237828,22,32765
1.91001,-0.936121,-0.23485,22,32765
1.92469,-0.951515,-0.236221,23,32765
1.93044,-0.962525,-0.236332,23,32765
1.94495,-0.978141,-0.23772,23,32765
1.88852,-0.957764,-0.230363,22,32765
1.91185,-0.9779,-0.232659,22,32765
1.87322,-0.966264,-0.227579,21,32765
1.90528,-0.991046,-0.23094,21,32765
1.89315,-0.992981,-0.229063,21,32765
1.92508,-1.01795,-0.23226,22,32765
1.87787,-1.00103,-0.226111,22,32765
1.88335,-1.01207,-0.226256,22,32765
1.82759,-0.989971,-0.219067,20,32765
1.86796,-1.02004,-0.223273,21,32765
1.82973,-1.00722,-0.218181,20,32765
1.86991,-1.03755,-0.222341,22,32765
1.85783,-1.03901,-0.220281,22,32765
1.86313,-1.05013,-0.220189,21,32765
1.85098,-1.05158,-0.218304,22,32765
1.83025,-1.04801,-0.215049,21,32765
1.81815,-1.04929,-0.213175,22,32765
1.81468,-1.05552,-0.211891,22,32765
1.80265,-1.0566,-0.209845,22,32765
1.79919,-1.06272,-0.208695,22,32765
1.82135,-1.08408,-0.210603,21,32765
1.78368,-1.06973,-0.205567,21,32765
1.77167,-1.0706,-0.203473,21,32765
1.76818,-1.07654,-0.20247,21,32765
1.82407,-1.11892,-0.208032,22,32765
1.79504,-1.10936,-0.203889,21,32765
1.78301,-1.11009,-0.201656,21,32765
1.7794,-1.11608,-0.200529,21,32765
1.8011,-1.13786,-0.202256,21,32765
1.78066,-1.13315,-0.199064,21,32765
1.77702,-1.13904,-0.197939,21,32765
1.77338,-1.14495,-0.196545,22,32765
1.77802,-1.15629,-0.196276,22,32765
1.75764,-1.15132,-0.193018,22,32765
1.75391,-1.1572,-0.191819,22,32765
1.74188,-1.15755,-0.189533,21,32765
1.69674,-1.13572,-0.183676,20,32765
1.71781,-1.15813,-0.185121,21,32765
1.73064,-1.17498,-0.185229,21,32765
1.74328,-1.192,-0.185734,21,32765
1.73949,-1.19774,-0.184335,21,32765
1.73571,-1.20342,-0.182965,22,32765
1.74007,-1.21481,-0.182462,22,32765
1.72811,-1.21477,-0.179904,22,32765
1.72419,-1.22055,-0.178399,23,32765
1.70409,-1.21466,-0.175097,22,32765
1.72454,-1.23767,-0.176136,23,32765
1.68829,-1.22005,-0.171033,22,32765
1.69242,-1.23155,-0.170236,22,32765
1.70455,-1.24901,-0.169911,22,32765
2.18761,-0.670473,-0.317672,22,32765
2.22341,-0.689569,-0.321609,23,32765
2.18345,-0.685157,-0.314991,22,32765
2.20966,-0.701419,-0.317838,23,32765
2.19803,-0.705782,-0.315349,22,32765
2.20519,-0.716367,-0.315556,22,32765
2.17465,-0.714579,-0.310407,22,32765
2.17232,-0.722033,-0.309518,23,32765
2.19819,-0.73893,-0.312308,23,32765
2.3272,-0.791013,-0.329917,13,32765
2.26839,-0.779589,-0.320988,12,32765
2.07859,-0.722224,-0.293711,15,32765
2.15106,-0.755608,-0.303324,23,32765
2.12055,-0.753003,-0.298573,22,32765
2.16477,-0.776945,-0.304156,24,32765
2.14359,-0.777605,-0.300598,24,32765
2.15036,-0.788334,-0.300998,23,32765
2.1571,-0.799013,-0.301519,23,32765
2.10803,-0.788978,-0.294338,23,32765
2.12403,-0.8031,-0.295983,23,32765
2.13065,-0.813987,-0.296271,25,32765
2.08167,-0.803467,-0.289122,23,32765
2.079,-0.810615,-0.288365,24,32765
2.08554,-0.821411,-0.28877,24,32765
2.09213,-0.832093,-0.288984,24,32765
2.08935,-0.839271,-0.288342,25,32765
2.05904,-0.835122,-0.283767,24,32765
2.04711,-0.838337,-0.281824,23,32765
2.05353,-0.849158,-0.282072,22,32765
2.06896,-0.863992,-0.28374,23,32765
2.07511,-0.875217,-0.284266,23,32765
2.06303,-0.878554,-0.282229,24,32765
2.03273,-0.873946,-0.277735,23,32765
2.05714,-0.892784,-0.280584,23,32765
2.03601,-0.891836,-0.27726,22,32765
2.02396,-0.894824,-0.275254,23,32765
1.98475,-0.885596,-0.269441,22,32765
2.01796,-0.90872,-0.273777,22,32765
2.00595,-0.911498,-0.271546,24,32765
1.98486,-0.910126,-0.268341,23,32765
1.98179,-0.917019,-0.267563,22,32765
1.97875,-0.923825,-0.266675,24,32765
1.9487,-0.917921,-0.262441,23,32765
1.93671,-0.920315,-0.260338,23,32765
1.96054,-0.939793,-0.263016,23,32765
1.94843,-0.942284,-0.260997,24,32765
1.93637,-0.944619,-0.258983,24,32765
1.9243,-0.946908,-0.257004,23,32765
1.93891,-0.962392,-0.25855,23,32765
1.93573,-0.969036,-0.25756,22,32765
1.93245,-0.975759,-0.256771,23,32765
1.92923,-0.982339,-0.255904,24,32765
1.91709,-0.984518,-0.253775,23,32765
1.89613,-0.982018,-0.250652,23,32765
1.88405,-0.983949,-0.24856,23,32765
1.88075,-0.99045,-0.247753,24,32765
1.87753,-0.996803,-0.246711,23,32765
1.88302,-1.00782,-0.24701,24,32765
1.87972,-1.01419,-0.246097,23,32765
1.85023,-1.00628,-0.241773,22,32765
1.85562,-1.01739,-0.241881,23,32765
1.85225,-1.02373,-0.240947,22,32765
1.86624,-1.03971,-0.242173,22,32765
1.83685,-1.03143,-0.237775,23,32765
1.83351,-1.03762,-0.236667,22,32765
1.83004,-1.0439,-0.235812,23,32765
1.83523,-1.05512,-0.235702,23,32765
1.84031,-1.06639,-0.235934,23,32765
1.82821,-1.06771,-0.233533,22,32765
1.85899,-1.09405,-0.23684,23,32765
1.8383,-1.09024,-0.233478,23,32765
1.84326,-1.10158,-0.233473,22,32765
1.82263,-1.09755,-0.230202,22,32765
1.80205,-1.0934,-0.226917,21,32765
1.78152,-1.08909,-0.223761,22,32765
1.76952,-1.08989,-0.221477,22,32765
1.76598,-1.09586,-0.220252,21,32765
1.77088,-1.10705,-0.220039,22,32765
1.79252,-1.12892,-0.222042,22,32765
1.74694,-1.10817,-0.215735,22,32765
1.76854,-1.13006,-0.217549,23,32765
1.79001,-1.15208,-0.219504,23,32765
1.76128,-1.14182,-0.215038,22,32765
1.7326,-1.13139,-0.210811,21,32765
1.77053,-1.16454,-0.214448,22,32765
1.73357,-1.1485,-0.209231,21,32765
1.73815,-1.15984,-0.208853,22,32765
1.75916,-1.18236,-0.210438,22,32765
1.74706,-1.18273,-0.208181,22,32765
1.71867,-1.17168,-0.203569,21,32765
1.72308,-1.18307,-0.203294,22,32765
1.71113,-1.18311,-0.200945,22,32765
1.72374,-1.20009,-0.201502,22,32765
1.70364,-1.19433,-0.19825,22,32765
1.6999,-1.19992,-0.196571,23,32765
1.69603,-1.20562,-0.195086,23,32765
1.68412,-1.20543,-0.192547,22,32765
1.69646,-1.22261,-0.192955,22,32765
1.7087,-1.23996,-0.192971,21,32765
1.70471,-1.24569,-0.191338,22,32765
1.68468,-1.23962,-0.187605,22,32765
2.15138,-0.657332,-0.303972,20,32765
2.23434,-0.690738,-0.316553,21,32765
2.18476,-0.683255,-0.309978,21,32765
2.22965,-0.705514,-0.317061,21,32765
2.20839,-0.706861,-0.314594,20,32765
2.22485,-0.720346,-0.317389,21,32765
2.17536,-0.712301,-0.310677,21,32765
2.14476,-0.7102,-0.306614,21,32765
2.15176,-0.720524,-0.307989,20,32765
2.13062,-0.721323,-0.305012,13,32765
2.19381,-0.751039,-0.314225,14,32765
2.33173,-0.80713,-0.33419,12,32765
2.12319,-0.743177,-0.304378,20,32765
2.16734,-0.767103,-0.310795,20,32765
2.09945,-0.751143,-0.300996,21,32765
2.09687,-0.758354,-0.300923,22,32765
2.12225,-0.775717,-0.304513,22,32765
2.11965,-0.782891,-0.304235,22,32765
2.0985,-0.783141,-0.300976,21,32765
2.11446,-0.797164,-0.303286,21,32765
2.09328,-0.797325,-0.300065,23,32765
2.06288,-0.793676,-0.29578,21,32765
2.06032,-0.800517,-0.295198,21,32765
2.04846,-0.803873,-0.293225,23,32765
2.05502,-0.814419,-0.294127,23,32765
2.07063,-0.828956,-0.296326,22,32765
2.04945,-0.8287,-0.293121,23,32765
2.05587,-0.839518,-0.293614,21,32765
2.02556,-0.835267,-0.289031,21,32765
2.02279,-0.84216,-0.288456,21,32765
2.03826,-0.856817,-0.290295,21,32765
2.06277,-0.875412,-0.293635,23,32765
2.00521,-0.859021,-0.284975,22,32765
2.04784,-0.885638,-0.290706,21,32765
2.02671,-0.884729,-0.287437,21,32765
2.00553,-0.883862,-0.284153,21,32765
1.99351,-0.88679,-0.281973,21,32765
1.99054,-0.893662,-0.281261,22,32765
1.97852,-0.896449,-0.279144,22,32765
1.97556,-0.903244,-0.278207,22,32765
1.96356,-0.905864,-0.276119,21,32765
1.99653,-0.929299,-0.28047,22,32765
1.95758,-0.91921,-0.27445,23,32765
1.96351,-0.930168,-0.274772,22,32765
1.95145,-0.93267,-0.272686,23,32765
1.93048,-0.930791,-0.269243,21,32765
1.9363,-0.941792,-0.26959,23,32765
1.94214,-0.952706,-0.269882,23,32765
1.93013,-0.954946,-0.267552,24,32765
1.92698,-0.96157,-0.266533,22,32765
1.92371,-0.968374,-0.265476,23,32765
1.92044,-0.975116,-0.264494,23,32765
1.8907,-0.96817,-0.259793,22,32765
1.88753,-0.974581,-0.258856,23,32765
1.91958,-0.999319,-0.262666,23,32765
1.90749,-1.0013,-0.260327,24,32765
1.90412,-1.00794,-0.259363,24,32765
1.88323,-1.00522,-0.255847,23,32765
1.87987,-1.01173,-0.254949,23,32765
1.86783,-1.01338,-0.252698,21,32765
1.86453,-1.01971,-0.251657,20,32765
1.85251,-1.02124,-0.249388,21,32765
1.86653,-1.03714,-0.250834,21,32765
1.86311,-1.04353,-0.249716,21,32765
1.85101,-1.04502,-0.247597,21,32765
1.83889,-1.04648,-0.245462,21,32765
1.84405,-1.05774,-0.245483,23,32765
1.81479,-1.0491,-0.24087,22,32765
1.85424,-1.08028,-0.245716,23,32765
1.8336,-1.07644,-0.242424,23,32765
1.8044,-1.06746,-0.238223,22,32765
1.79236,-1.06848,-0.236252,22,32765
1.79745,-1.07959,-0.236157,23,32765
1.75139,-1.05996,-0.229646,21,32765
1.79882,-1.09692,-0.235417,22,32765
1.79523,-1.10301,-0.234349,23,32765
1.76624,-1.0934,-0.230156,21,32765
1.75428,-1.09403,-0.228006,20,32765
1.77598,-1.11575,-0.230455,22,32765
1.76398,-1.11633,-0.2284,21,32765
1.7855,-1.13824,-0.230833,22,32765
1.75666,-1.12815,-0.226772,21,32765
1.75299,-1.13405,-0.225765,21,32765
1.74925,-1.13997,-0.224901,21,32765
1.76214,-1.15675,-0.226227,21,32765
1.75006,-1.15717,-0.224373,22,32765
1.71316,-1.14099,-0.219399,22,32765
1.70121,-1.14111,-0.217567,21,32765
1.72225,-1.16346,-0.219834,22,32765
1.69385,-1.15234,-0.215836,21,32765
1.72282,-1.18056,-0.219459,22,32765
1.72713,-1.19201,-0.21959,21,32765
1.7559,-1.2205,-0.222909,21,32765
1.70303,-1.19209,-0.216119,21,32765
1.72361,-1.21482,-0.218609,22,32765
1.68727,-1.19743,-0.213751,21,32765
1.70768,-1.2203,-0.216332,21,32765
1.67948,-1.20851,-0.212681,21,32765
1.69966,-1.23164,-0.215223,21,32765
1.71168,-1.24901,-0.216843,22,32765
1.69962,-1.24873,-0.215341,21,32765
2.21401,-0.67936,-0.335035,23,32765
2.21168,-0.686653,-0.335555,23,32765
2.20939,-0.693907,-0.335686,23,32765
2.19756,-0.698327,-0.334616,22,32765
2.22346,-0.714717,-0.339143,21,32765
2.21162,-0.719112,-0.337809,23,32765
2.19981,-0.723372,-0.33638,23,32765
2.188,-0.727597,-0.334911,23,32765
2.16678,-0.728634,-0.332063,21,32765
2.16438,-0.735861,-0.331768,13,32765
2.20868,-0.759335,-0.338752,12,32765
2.12197,-0.737633,-0.325669,16,32765
2.18479,-0.767975,-0.335415,22,32765
2.14484,-0.762349,-0.329393,23,32765
2.12365,-0.763011,-0.326099,23,32765
2.13962,-0.777085,-0.328882,24,32765
2.17418,-0.798052,-0.334165,24,32765
2.1251,-0.788215,-0.326742,23,32765
2.11323,-0.791962,-0.324718,23,32765
2.08284,-0.78855,-0.320094,23,32765
2.0987,-0.802754,-0.322373,23,32765
2.09603,-0.809823,-0.322064,23,32765
2.10264,-0.820394,-0.322885,24,32765
2.09994,-0.827537,-0.322215,25,32765
2.1064,-0.838287,-0.323196,24,32765
2.09433,-0.841965,-0.321337,23,32765
2.10066,-0.852971,-0.322157,23,32765
2.08866,-0.856483,-0.319912,24,32765
2.06749,-0.856131,-0.316438,23,32765
2.08291,-0.870827,-0.318642,23,32765
2.04352,-0.862626,-0.312275,22,32765
2.04063,-0.86964,-0.311712,22,32765
2.02867,-0.87271,-0.309442,23,32765
2.01666,-0.875805,-0.307317,22,32765
2.03188,-0.890698,-0.309395,22,32765
2.02883,-0.897871,-0.308676,23,32765
2.00774,-0.896853,-0.305016,22,32765
2.02279,-0.911939,-0.307036,23,32765
2.00171,-0.910748,-0.303442,23,32765
1.9807,-0.909378,-0.299765,23,32765
1.97768,-0.916192,-0.298938,23,32765
1.95669,-0.914563,-0.295515,23,32765
1.9806,-0.933904,-0.298599,24,32765
1.95067,-0.927945,-0.293611,24,32765
1.9297,-0.926127,-0.290092,23,32765
1.92662,-0.932813,-0.289148,23,32765
1.95022,-0.952531,-0.292253,23,32765
1.93823,-0.954764,-0.289967,22,32765
1.94398,-0.965822,-0.290193,23,32765
1.92307,-0.963634,-0.286522,22,32765
1.94634,-0.983862,-0.289409,21,32765
1.92535,-0.9817,-0.285789,20,32765
1.87802,-0.965696,-0.278192,18,32765
1.86605,-0.967521,-0.275956,17,32765
1.91562,-1.00143,-0.282736,17,32765
2.06144,-1.08665,-0.303553,16,32765
1.98773,-1.05661,-0.292209,16,32765
2.01917,-1.0823,-0.296147,17,32765
1.99809,-1.07986,-0.292623,16,32765
1.93359,-1.05346,-0.282571,17,32765
2.00841,-1.103,-0.2929,17,32765
1.90934,-1.05699,-0.277822,17,32765
1.92321,-1.07312,-0.27942,17,32765
1.91103,-1.07487,-0.277009,17,32765
1.9161,-1.08631,-0.277267,18,32765
1.92971,-1.10278,-0.278734,18,32765
1.87447,-1.07972,-0.270113,17,32765
1.86237,-1.08113,-0.267667,17,32765
1.86735,-1.0925,-0.268028,18,32765
1.84671,-1.08871,-0.26454,19,32765
1.83458,-1.08991,-0.262495,19,32765
1.85655,-1.11142,-0.265281,21,32765
1.81898,-1.09715,-0.259173,21,32765
1.78144,-1.08272,-0.253394,21,32765
1.77788,-1.08875,-0.252482,21,32765
1.78277,-1.10001,-0.252619,21,32765
1.81287,-1.12704,-0.256504,22,32765
1.75874,-1.10149,-0.248289,22,32765
1.78875,-1.12857,-0.25219,23,32765
1.75159,-1.11322,-0.246494,21,32765
1.7647,-1.12979,-0.248027,23,32765
1.76097,-1.13577,-0.247211,22,32765
1.75727,-1.1417,-0.246196,22,32765
1.7452,-1.14221,-0.244162,23,32765
1.72487,-1.13715,-0.241033,22,32765
1.72114,-1.14295,-0.240254,22,32765
1.74216,-1.16531,-0.242982,22,32765
1.75487,-1.18219,-0.244484,22,32765
1.74282,-1.18246,-0.242418,22,32765
1.73902,-1.18821,-0.241548,22,32765
1.72687,-1.18849,-0.239834,22,32765
1.69847,-1.17734,-0.23552,21,32765
1.71906,-1.2001,-0.238085,22,32765
1.69888,-1.19439,-0.235256,21,32765
1.69505,-1.19993,-0.234649,22,32765
1.71548,-1.2228,-0.237266,23,32765
1.70345,-1.22263,-0.23564,23,32765
1.65919,-1.19918,-0.229483,22,32765
1.68737,-1.22813,-0.233413,23,32765
1.6753,-1.22789,-0.231885,22,32765
1.65532,-1.22159,-0.229189,22,32765
0,-0,-0,0,32765
2.21805,-0.685913,-0.36371,21,32765
2.22535,-0.696126,-0.364428,21,32765
2.22309,-0.703589,-0.363896,21,32765
2.16438,-0.692999,-0.353854,20,32765
2.19032,-0.709482,-0.357802,21,32765
2.19739,-0.719997,-0.358706,21,32765
2.17632,-0.721201,-0.354813,21,32765
2.14591,-0.719098,-0.349394,20,32765
2.19043,-0.742158,-0.356129,13,32765
2.15998,-0.740027,-0.350634,12,32765
2.12021,-0.734517,-0.343661,14,32765
2.13646,-0.748339,-0.345843,21,32765
2.18064,-0.772179,-0.352355,21,32765
2.1316,-0.762904,-0.344005,21,32765
2.11054,-0.763495,-0.339975,22,32765
2.1359,-0.780897,-0.343706,22,32765
2.14266,-0.791608,-0.344178,21,32765
2.08451,-0.77816,-0.33437,21,32765
2.1005,-0.792216,-0.336446,22,32765
2.11635,-0.806558,-0.338588,24,32765
2.09524,-0.806723,-0.334758,23,32765
2.0926,-0.813993,-0.333691,23,32765
2.09916,-0.824799,-0.334109,23,32765
2.0873,-0.828281,-0.331704,21,32765
2.09379,-0.839087,-0.332215,21,32765
2.10024,-0.849899,-0.33279,23,32765
2.08834,-0.853303,-0.33031,22,32765
2.06724,-0.852929,-0.326515,22,32765
2.03699,-0.848714,-0.321323,21,32765
2.03412,-0.85593,-0.320401,22,32765
2.0403,-0.867064,-0.320907,21,32765
2.02829,-0.870366,-0.318428,21,32765
2.0163,-0.873502,-0.316136,22,32765
1.98622,-0.86854,-0.310892,22,32765
2.02864,-0.895354,-0.317129,21,32765
2.02568,-0.902344,-0.316235,21,32765
2.00463,-0.901172,-0.312639,22,32765
1.99264,-0.904009,-0.310219,22,32765
1.97163,-0.902642,-0.306605,22,32765
1.9776,-0.913668,-0.307119,22,32765
1.99247,-0.928949,-0.30905,21,32765
1.96248,-0.923237,-0.30398,22,32765
1.95938,-0.930073,-0.303128,23,32765
1.96523,-0.941096,-0.303684,23,32765
1.95318,-0.943591,-0.301363,24,32765
1.9322,-0.941681,-0.297883,21,32765
1.96467,-0.965763,-0.302427,21,32765
1.95257,-0.968128,-0.300319,17,32765
1.96715,-0.983616,-0.302026,15,32765
2.06118,-1.03949,-0.316056,13,32765
2.04887,-1.04215,-0.313778,13,32765
2.17756,-1.1172,-0.333167,13,32765
2.10337,-1.08842,-0.321395,14,32765
2.07341,-1.08192,-0.31623,15,32765
1.98209,-1.04296,-0.301901,15,32765
2.03986,-1.08235,-0.310456,17,32765
1.93145,-1.03322,-0.293376,16,32765
1.98912,-1.07274,-0.301709,16,32765
1.97693,-1.07473,-0.299313,16,32765
1.99949,-1.09572,-0.30237,16,32765
1.90047,-1.0498,-0.286775,17,32765
2.00966,-1.1189,-0.302873,16,32765
1.92814,-1.08212,-0.290126,15,32765
1.92461,-1.08867,-0.28911,16,32765
1.93823,-1.10511,-0.290696,16,32765
1.89159,-1.08706,-0.283186,16,32765
1.88801,-1.09354,-0.282118,15,32765
1.8759,-1.09492,-0.279769,17,32765
1.86383,-1.0962,-0.277247,15,32765
1.89437,-1.12278,-0.281292,16,32765
1.8651,-1.11396,-0.27674,16,32765
1.87002,-1.12536,-0.276714,16,32765
1.84942,-1.12138,-0.273013,18,32765
1.84581,-1.12764,-0.271706,20,32765
1.78302,-1.09744,-0.261886,20,32765
1.80473,-1.11919,-0.264531,21,32765
1.8011,-1.12527,-0.263489,22,32765
1.77229,-1.11548,-0.258437,21,32765
1.78546,-1.13209,-0.259606,21,32765
1.77348,-1.13268,-0.257283,21,32765
1.77817,-1.14404,-0.257268,22,32765
1.78286,-1.15536,-0.257197,22,32765
1.77088,-1.15586,-0.254667,23,32765
1.73402,-1.13994,-0.248609,22,32765
1.78838,-1.18407,-0.255506,23,32765
1.735,-1.15704,-0.247097,22,32765
1.70654,-1.14626,-0.242278,22,32765
1.74403,-1.17975,-0.246911,22,32765
1.71566,-1.16879,-0.241928,20,32765
1.72013,-1.18016,-0.24159,21,32765
1.73271,-1.19722,-0.24248,21,32765
1.70446,-1.18594,-0.237618,21,32765
1.70894,-1.19717,-0.237258,22,32765
1.70524,-1.20276,-0.235628,22,32765
1.71776,-1.21979,-0.236283,22,32765
1.71389,-1.22552,-0.234684,23,32765
1.65361,-1.19052,-0.225306,22,32765
1.66596,-1.20767,-0.225828,21,32765
1.68631,-1.23075,-0.227183,22,32765
1.71458,-1.25981,-0.229533,22,32765
0,-0,-0,0,32765
2.19498,-0.681875,-0.382116,22,32765
2.25875,-0.709786,-0.39275,22,32765
2.21884,-0.705429,-0.38567,22,32765
2.16022,-0.694801,-0.375073,21,32765
2.19549,-0.71437,-0.380924,23,32765
2.19315,-0.721849,-0.38029,23,32765
2.21892,-0.738628,-0.384319,23,32765
2.27268,-0.765001,-0.393165,18,32765
2.1488,-0.731318,-0.371251,13,32765
2.18377,-0.751526,-0.376765,12,32765
2.14404,-0.746088,-0.369409,19,32765
2.16022,-0.760032,-0.371762,23,32765
2.16706,-0.770786,-0.372328,23,32765
2.15528,-0.774805,-0.369897,23,32765
2.13422,-0.775484,-0.365667,24,32765
2.13168,-0.782805,-0.364903,22,32765
2.12916,-0.790097,-0.363884,23,32765
2.1266,-0.797377,-0.362994,23,32765
2.10556,-0.797623,-0.358935,24,32765
2.14902,-0.822614,-0.365968,24,32765
2.13711,-0.826461,-0.363503,23,32765
2.0976,-0.819522,-0.356163,23,32765
2.11332,-0.834003,-0.358224,23,32765
2.08309,-0.830233,-0.35261,23,32765
2.0804,-0.837366,-0.351662,22,32765
2.09599,-0.851884,-0.353876,23,32765
2.06582,-0.847786,-0.34822,23,32765
2.09042,-0.866254,-0.351931,23,32765
2.04194,-0.854487,-0.343383,22,32765
2.07546,-0.877133,-0.34857,24,32765
2.05428,-0.876808,-0.344572,23,32765
2.04226,-0.880174,-0.341989,23,32765
2.03932,-0.887316,-0.341111,24,32765
2.02736,-0.890379,-0.338599,23,32765
2.01538,-0.893365,-0.336228,23,32765
2.0034,-0.896295,-0.333832,22,32765
2.01845,-0.911324,-0.336057,23,32765
2.02445,-0.922422,-0.336525,23,32765
2.01239,-0.925301,-0.334202,23,32765
1.99135,-0.924014,-0.330321,21,32765
1.96137,-0.918417,-0.325006,18,32765
1.94936,-0.921041,-0.32263,14,32765
1.95519,-0.932109,-0.323256,12,32765
2.42452,-1.16608,-0.400459,12,32765
2.33165,-1.13132,-0.384609,12,32765
2.239,-1.09594,-0.36908,13,32765
2.03138,-1.00289,-0.33441,14,32765
