x, y, z, intensity, ring
1.62814,-0.059955,-0.0497252,17,32765
1.63792,-0.0657792,-0.049938,18,32765
1.63769,-0.0712477,-0.0499261,18,32765
1.6674,-0.0781618,-0.050727,18,32765
1.66713,-0.083766,-0.0505622,18,32765
1.62692,-0.0872477,-0.0491649,18,32765
1.64658,-0.0938153,-0.049785,18,32765
1.64627,-0.0992841,-0.0494297,17,32765
1.616,-0.102895,-0.0484623,17,32765
1.60568,-0.10767,-0.0481159,18,32765
1.59534,-0.112387,-0.0476058,17,32765
1.60492,-0.118538,-0.047808,18,32765
1.61447,-0.124724,-0.0481608,19,32765
1.60408,-0.129382,-0.047822,18,32765
1.60364,-0.134781,-0.0477059,19,32765
1.62309,-0.141959,-0.0481669,19,32765
1.61265,-0.146576,-0.0477048,19,32765
1.60219,-0.151105,-0.0473198,19,32765
1.58178,-0.154613,-0.0466749,19,32765
1.59119,-0.160961,-0.0469985,20,32765
1.60059,-0.167312,-0.0471597,19,32765
1.59008,-0.171611,-0.0467719,19,32765
1.5895,-0.176918,-0.0467259,18,32765
1.59883,-0.183415,-0.0470575,19,32765
1.5982,-0.188818,-0.0468728,19,32765
1.58764,-0.192977,-0.0465979,20,32765
1.57705,-0.197178,-0.0461506,19,32765
1.56646,-0.201274,-0.0457401,20,32765
1.58559,-0.209174,-0.0462381,19,32765
1.56507,-0.211859,-0.0455459,19,32765
1.57424,-0.218505,-0.0459878,19,32765
1.53392,-0.218181,-0.0447265,19,32765
1.55295,-0.22627,-0.0451065,19,32765
1.57195,-0.234489,-0.0456916,19,32765
1.53162,-0.233824,-0.0443366,19,32765
1.52094,-0.237465,-0.0440859,20,32765
1.55962,-0.248895,-0.0451706,21,32765
1.52918,-0.249348,-0.0441235,20,32765
1.5579,-0.259457,-0.0449459,20,32765
1.54717,-0.26303,-0.044606,19,32765
1.55613,-0.269925,-0.0446841,20,32765
1.56507,-0.276867,-0.0448045,19,32765
1.5543,-0.280307,-0.044333,19,32765
1.57302,-0.289111,-0.0448128,19,32765
1.54256,-0.288921,-0.0440897,19,32765
1.52194,-0.290405,-0.0430392,19,32765
1.53076,-0.297527,-0.0431333,19,32765
1.51994,-0.300721,-0.0428575,18,32765
1.48952,-0.3,-0.0417579,18,32765
1.51788,-0.311044,-0.0423777,18,32765
1.50706,-0.314025,-0.0420117,19,32765
1.48645,-0.314914,-0.0412603,19,32765
1.5245,-0.328233,-0.0421146,19,32765
1.52338,-0.333393,-0.041872,20,32765
1.48323,-0.329826,-0.0405398,19,32765
1.53089,-0.345749,-0.041602,19,32765
1.51025,-0.346359,-0.0408544,19,32765
1.49939,-0.349018,-0.0402849,19,32765
1.4885,-0.351678,-0.0397915,19,32765
1.53596,-0.368207,-0.0407541,20,32765
1.51531,-0.368576,-0.0398632,19,32765
1.49467,-0.368831,-0.0389626,19,32765
1.52255,-0.38103,-0.0393395,19,32765
1.51159,-0.383659,-0.0387981,17,32765
0,-0,-0,0,32765
0,-0,-0,0,32765
0,-0,-0,0,32765
0,-0,-0,0,32765
0,-0,-0,0,32765
0,-0,-0,0,32765
0,-0,-0,0,32765
0,-0,-0,0,32765
0,-0,-0,0,32765
0,-0,-0,0,32765
0,-0,-0,0,32765
0,-0,-0,0,32765
0,-0,-0,0,32765
0,-0,-0,0,32765
0,-0,-0,0,32765
0,-0,-0,0,32765
0,-0,-0,0,32765
0,-0,-0,0,32765
0,-0,-0,0,32765
0,-0,-0,0,32765
0,-0,-0,0,32765
1.71821,0.0288984,-0.072968,19,32765
1.71832,0.023068,-0.0724295,18,32765
1.69842,0.0171502,-0.0711719,19,32765
1.69848,0.0116517,-0.070886,18,32765
1.7285,0.00602858,-0.0717292,19,32765
1.70854,0.000123245,-0.070581,19,32765
1.69856,-0.00558887,-0.0698129,19,32765
1.67855,-0.0111515,-0.0687929,18,32765
1.66853,-0.0165534,-0.0681687,18,32765
1.68846,-0.0223672,-0.0685847,19,32765
1.68838,-0.0279491,-0.0685063,20,32765
1.6783,-0.0333733,-0.0677688,19,32765
1.68816,-0.0393232,-0.0683024,19,32765
1.67804,-0.0448346,-0.0676313,19,32765
1.6679,-0.0503461,-0.0669096,19,32765
1.67771,-0.0563875,-0.0672331,18,32765
1.65755,-0.0612283,-0.0662891,19,32765
1.6773,-0.0675671,-0.0669931,19,32765
1.63714,-0.0714383,-0.0653859,19,32765
1.66684,-0.0783676,-0.0664695,19,32765
1.64661,-0.0829778,-0.0655104,19,32765
1.63635,-0.0880081,-0.0649259,19,32765
1.63605,-0.0934833,-0.0649424,19,32765
1.64571,-0.0995334,-0.064983,19,32765
1.6354,-0.104424,-0.0645194,19,32765
1.63504,-0.109947,-0.064471,19,32765
1.61473,-0.114071,-0.0634707,19,32765
1.63427,-0.121041,-0.0641569,19,32765
1.62388,-0.125797,-0.0638216,19,32765
1.64337,-0.132915,-0.0645619,19,32765
1.623,-0.136782,-0.0636615,19,32765
1.6524,-0.144917,-0.0646988,19,32765
1.61209,-0.146924,-0.062973,19,32765
1.60164,-0.151462,-0.0624934,19,32765
1.62101,-0.158875,-0.0632108,19,32765
1.61052,-0.163354,-0.0628531,19,32765
1.6199,-0.169786,-0.0631066,19,32765
1.59946,-0.173086,-0.0622364,20,32765
1.61873,-0.180653,-0.0629622,19,32765
1.59826,-0.183839,-0.0622288,19,32765
1.60756,-0.190429,-0.0624291,19,32765
1.59699,-0.19463,-0.0620597,19,32765
1.59632,-0.200117,-0.0619013,19,32765
1.57581,-0.203012,-0.0610109,19,32765
1.59493,-0.210963,-0.0616964,19,32765
1.5645,-0.212342,-0.0604321,19,32765
1.60336,-0.223135,-0.0621179,20,32765
1.57292,-0.22432,-0.0608601,19,32765
1.57215,-0.229672,-0.06066,20,32765
1.57136,-0.23502,-0.06067,19,32765
1.57056,-0.2404,-0.0604586,20,32765
1.5796,-0.247273,-0.0608751,20,32765
1.54916,-0.247876,-0.0596731,19,32765
1.54832,-0.253133,-0.0594807,19,32765
1.55731,-0.260039,-0.0598274,20,32765
1.54657,-0.263619,-0.0593928,19,32765
1.53584,-0.267105,-0.0588105,20,32765
1.56446,-0.277486,-0.0597785,20,32765
1.56353,-0.282711,-0.0595871,20,32765
1.54292,-0.284322,-0.0587571,19,32765
1.55176,-0.291408,-0.0592485,20,32765
1.5606,-0.298562,-0.0591216,20,32765
1.53014,-0.298188,-0.0578219,20,32765
1.54874,-0.307221,-0.0585632,20,32765
1.5085,-0.30462,-0.0568063,20,32765
1.55641,-0.319777,-0.0584405,20,32765
1.53579,-0.32085,-0.0576103,20,32765
1.52493,-0.323915,-0.0570314,20,32765
1.53363,-0.331066,-0.0571635,20,32765
1.52275,-0.334128,-0.056556,20,32765
1.51187,-0.337076,-0.0559292,19,32765
1.51075,-0.342096,-0.0556607,20,32765
1.50961,-0.347121,-0.0554424,19,32765
1.50848,-0.352056,-0.0551338,19,32765
1.49759,-0.354753,-0.0545441,20,32765
1.51586,-0.364344,-0.0549183,20,32765
1.47582,-0.359913,-0.0531442,20,32765
1.56193,-0.386441,-0.0558829,16,32765
1.54128,-0.386729,-0.054801,13,32765
1.58841,-0.404216,-0.0562178,14,32765
0,-0,-0,0,32765
0,-0,-0,0,32765
0,-0,-0,0,32765
0,-0,-0,0,32765
0,-0,-0,0,32765
0,-0,-0,0,32765
0,-0,-0,0,32765
0,-0,-0,0,32765
0,-0,-0,0,32765
0,-0,-0,0,32765
0,-0,-0,0,32765
0,-0,-0,0,32765
0,-0,-0,0,32765
0,-0,-0,0,32765
0,-0,-0,0,32765
0,-0,-0,0,32765
0,-0,-0,0,32765
0,-0,-0,0,32765
0,-0,-0,0,32765
0,-0,-0,0,32765
0,-0,-0,0,32765
1.69848,0.0280901,-0.0660806,18,32765
1.69853,0.0223542,-0.0670305,18,32765
1.68857,0.0166445,-0.067385,18,32765
1.71857,0.0111948,-0.0692561,17,32765
1.65863,0.00530461,-0.067319,18,32765
1.68858,-0.000259629,-0.0692527,18,32765
1.67856,-0.00591409,-0.0693284,19,32765
1.69849,-0.0117171,-0.0705585,18,32765
1.65846,-0.0169765,-0.069438,19,32765
1.65837,-0.0224201,-0.0699703,18,32765
1.66827,-0.0280431,-0.0707104,18,32765
1.65816,-0.0334012,-0.07066,18,32765
1.64804,-0.0387827,-0.0704332,18,32765
1.66785,-0.0450652,-0.0717253,18,32765
1.63771,-0.0498197,-0.0708094,18,32765
1.62754,-0.0550079,-0.0706869,18,32765
1.66726,-0.0619517,-0.0727461,19,32765
1.61713,-0.0654222,-0.0706933,18,32765
1.63686,-0.0716524,-0.0718193,19,32765
1.62662,-0.0766202,-0.0715823,18,32765
1.61637,-0.081488,-0.0713623,19,32765
1.63603,-0.0880207,-0.0725113,18,32765
1.61578,-0.0923314,-0.0716797,19,32765
1.61544,-0.0978142,-0.0719354,19,32765
1.62508,-0.103837,-0.0722675,19,32765
1.62471,-0.109314,-0.0726068,19,32765
1.6343,-0.115483,-0.0730804,19,32765
1.59403,-0.118025,-0.0716141,18,32765
1.59362,-0.12346,-0.0716986,18,32765
1.61311,-0.130444,-0.0724709,19,32765
1.6027,-0.135067,-0.0720975,19,32765
1.59228,-0.139597,-0.0717331,20,32765
1.62165,-0.147661,-0.0730632,20,32765
1.6112,-0.152191,-0.0726243,19,32765
1.61068,-0.157606,-0.072589,20,32765
1.59025,-0.161074,-0.071737,20,32765
1.56983,-0.164385,-0.070892,19,32765
1.58913,-0.171836,-0.0717154,19,32765
1.59847,-0.178297,-0.0722351,20,32765
1.57802,-0.181355,-0.0712541,19,32765
1.56748,-0.185474,-0.0706839,19,32765
1.58669,-0.193122,-0.0715953,20,32765
1.58604,-0.198382,-0.0715022,20,32765
1.56556,-0.201161,-0.0704476,19,32765
1.5847,-0.208975,-0.0711981,20,32765
1.56419,-0.211615,-0.0702388,20,32765
1.57336,-0.2183,-0.0706406,20,32765
1.5825,-0.225085,-0.0708434,20,32765
1.54218,-0.224776,-0.0689461,19,32765
1.56117,-0.232995,-0.0696445,20,32765
1.58012,-0.241393,-0.0703678,20,32765
1.54968,-0.242153,-0.0689693,19,32765
1.53898,-0.24585,-0.0684732,19,32765
1.55787,-0.25428,-0.0691824,19,32765
1.54716,-0.257869,-0.0686196,19,32765
1.55613,-0.264796,-0.0688885,20,32765
1.53554,-0.266649,-0.0678673,19,32765
1.56416,-0.277067,-0.0687203,20,32765
1.53373,-0.277023,-0.067312,19,32765
1.52297,-0.28035,-0.0668505,19,32765
1.5122,-0.283643,-0.066345,19,32765
1.53087,-0.292514,-0.0669261,20,32765
1.53969,-0.299526,-0.0672932,20,32765
1.51908,-0.300871,-0.0662172,20,32765
1.52786,-0.307952,-0.0664663,20,32765
1.51703,-0.311101,-0.0659055,20,32765
1.51598,-0.316208,-0.065619,20,32765
1.52469,-0.323381,-0.0658713,20,32765
1.53336,-0.330627,-0.0662005,20,32765
1.53226,-0.335755,-0.0659586,20,32765
1.52135,-0.338788,-0.0656367,20,32765
1.50073,-0.339489,-0.0644873,19,32765
1.50932,-0.346793,-0.0648133,19,32765
1.53734,-0.358657,-0.0659531,19,32765
1.54587,-0.366051,-0.0662253,18,32765
1.54466,-0.371165,-0.0660209,18,32765
1.54344,-0.376206,-0.0660119,18,32765
1.5131,-0.374113,-0.064558,18,32765
1.48277,-0.371893,-0.0631802,17,32765
1.49121,-0.379294,-0.0635096,17,32765
1.4609,-0.376822,-0.0621751,18,32765
1.48866,-0.389223,-0.0632584,19,32765
1.46805,-0.388996,-0.0624585,18,32765
1.46679,-0.393785,-0.0622451,20,32765
1.49441,-0.406461,-0.0634442,20,32765
1.49306,-0.411387,-0.0634608,20,32765
1.48207,-0.413661,-0.0627882,20,32765
1.4807,-0.418546,-0.0627764,20,32765
1.4793,-0.423456,-0.0628217,18,32765
0,-0,-0,0,32765
0,-0,-0,0,32765
0,-0,-0,0,32765
1.56944,-0.471157,-0.0667785,12,32765
1.58703,-0.482035,-0.0677022,12,32765
1.48038,-0.454947,-0.0633423,12,32765
0,-0,-0,0,32765
0,-0,-0,0,32765
0,-0,-0,0,32765
0,-0,-0,0,32765
0,-0,-0,0,32765
0,-0,-0,0,32765
1.6878,0.0279294,-0.0816193,19,32765
1.68784,0.0222148,-0.0825632,19,32765
1.68786,0.0166246,-0.0833117,19,32765
1.70785,0.0110974,-0.0849684,19,32765
1.68788,0.00535678,-0.0844618,19,32765
1.70783,-0.000319133,-0.0861865,19,32765
1.65786,-0.00591021,-0.0841459,18,32765
1.68777,-0.0117278,-0.0860688,19,32765
1.68769,-0.0173748,-0.0866179,19,32765
1.6876,-0.0229284,-0.0871595,19,32765
1.68749,-0.0284936,-0.0874816,19,32765
1.67738,-0.0339292,-0.0873412,19,32765
1.68723,-0.039861,-0.0880645,19,32765
1.6671,-0.0452138,-0.0874604,19,32765
1.67689,-0.0511961,-0.0883654,19,32765
1.64675,-0.0558527,-0.0871002,18,32765
1.6665,-0.0621351,-0.0884802,19,32765
1.64632,-0.0668261,-0.0875479,19,32765
1.64608,-0.0722929,-0.0878024,19,32765
1.64581,-0.0777752,-0.0880054,19,32765
1.63556,-0.0827186,-0.0876936,20,32765
1.63526,-0.0882566,-0.0879612,19,32765
1.66486,-0.0954327,-0.0896243,20,32765
1.66451,-0.101096,-0.0898874,19,32765
1.65421,-0.106021,-0.089235,20,32765
1.62393,-0.109593,-0.0879611,20,32765
1.63351,-0.115775,-0.0885286,20,32765
1.63309,-0.121278,-0.0888523,20,32765
1.62271,-0.126088,-0.0883961,19,32765
1.62228,-0.131573,-0.0882711,19,32765
1.62182,-0.137079,-0.0883456,19,32765
1.63129,-0.143435,-0.0889727,19,32765
1.60097,-0.146201,-0.0873301,19,32765
1.62035,-0.153498,-0.0884239,20,32765
1.61982,-0.158958,-0.0883881,20,32765
1.6292,-0.165493,-0.0889751,20,32765
1.6187,-0.169989,-0.0884854,20,32765
1.60819,-0.174394,-0.0878673,20,32765
1.61751,-0.180935,-0.0884816,19,32765
1.60698,-0.185208,-0.0878531,20,32765
1.58652,-0.188258,-0.0866445,19,32765
1.59579,-0.194779,-0.0872023,20,32765
1.59514,-0.200083,-0.0871082,19,32765
1.58457,-0.204176,-0.0864039,20,32765
1.58388,-0.209454,-0.0862621,19,32765
1.59307,-0.216126,-0.0867301,19,32765
1.58244,-0.220174,-0.0861479,19,32765
1.56191,-0.222777,-0.0848322,19,32765
1.57102,-0.229617,-0.08524,19,32765
1.57024,-0.235,-0.0850528,20,32765
1.55955,-0.238913,-0.0843611,20,32765
1.54887,-0.242698,-0.0837474,19,32765
1.58747,-0.254299,-0.0858219,20,32765
1.57675,-0.258075,-0.0851175,19,32765
1.56603,-0.261737,-0.0844585,19,32765
1.5553,-0.265386,-0.0837585,19,32765
1.57407,-0.274095,-0.0846651,19,32765
1.56333,-0.277682,-0.0836835,18,32765
1.56238,-0.282977,-0.083569,19,32765
1.56143,-0.288221,-0.0835375,19,32765
1.55063,-0.291653,-0.0829353,19,32765
1.52022,-0.29128,-0.0810813,18,32765
1.52905,-0.298273,-0.0815422,19,32765
1.51824,-0.301532,-0.0808001,19,32765
1.52701,-0.308628,-0.0811427,19,32765
1.53575,-0.315806,-0.0815256,20,32765
1.53469,-0.320989,-0.0812348,20,32765
1.5043,-0.319933,-0.079513,20,32765
1.52274,-0.329238,-0.0804525,20,32765
1.51188,-0.3322,-0.0796972,20,32765
1.53023,-0.341701,-0.0808236,20,32765
1.51935,-0.344645,-0.0799962,20,32765
1.50845,-0.347545,-0.0793898,19,32765
1.50728,-0.35261,-0.0792766,19,32765
1.5061,-0.357614,-0.0791343,19,32765
1.50492,-0.36261,-0.0789343,19,32765
1.50373,-0.367533,-0.0789246,20,32765
1.5122,-0.37492,-0.0792247,20,32765
1.50126,-0.377566,-0.0785779,20,32765
1.49999,-0.382579,-0.0784929,20,32765
1.4987,-0.387636,-0.0783922,20,32765
1.51674,-0.397658,-0.0792479,20,32765
1.50576,-0.400089,-0.0787644,20,32765
1.48517,-0.399822,-0.0775376,20,32765
1.50312,-0.409959,-0.078514,20,32765
1.50176,-0.414927,-0.0785297,20,32765
1.50038,-0.419929,-0.0782623,20,32765
1.53742,-0.435781,-0.0802558,17,32765
1.50716,-0.432625,-0.078796,16,32765
0,-0,-0,0,32765
0,-0,-0,0,32765
0,-0,-0,0,32765
1.56841,-0.472157,-0.0821825,14,32765
1.53821,-0.468507,-0.0807841,15,32765
1.48893,-0.458852,-0.0784013,15,32765
0,-0,-0,0,32765
0,-0,-0,0,32765
0,-0,-0,0,32765
0,-0,-0,0,32765
0,-0,-0,0,32765
0,-0,-0,0,32765
1.70628,0.0308868,-0.108488,18,32765
1.70641,0.024993,-0.107947,18,32765
1.69654,0.0189148,-0.106753,18,32765
1.66668,0.0129067,-0.104456,19,32765
1.65676,0.00724884,-0.103437,18,32765
1.69672,0.00172052,-0.105498,18,32765
1.69672,-0.00393114,-0.105411,18,32765
1.68674,-0.00957097,-0.104485,19,32765
1.65678,-0.0150155,-0.102226,18,32765
1.70664,-0.0212286,-0.10504,19,32765
1.66664,-0.0263407,-0.102535,19,32765
1.67654,-0.0320827,-0.102851,19,32765
1.66646,-0.0374892,-0.102078,19,32765
1.65636,-0.0428118,-0.101246,19,32765
1.66619,-0.0486994,-0.101705,19,32765
1.64607,-0.0537919,-0.100371,18,32765
1.66583,-0.0601167,-0.101423,19,32765
1.64567,-0.0650365,-0.100157,19,32765
1.66541,-0.0713981,-0.101133,19,32765
1.63525,-0.0756256,-0.0992464,19,32765
1.64496,-0.0816217,-0.099684,19,32765
1.63472,-0.0866192,-0.098915,20,32765
1.62446,-0.0915351,-0.098233,19,32765
1.63411,-0.0975377,-0.0989184,19,32765
1.62381,-0.102426,-0.0981785,19,32765
1.63343,-0.108564,-0.0986579,20,32765
1.63306,-0.114107,-0.0985406,20,32765
1.62271,-0.118872,-0.0978829,20,32765
1.59245,-0.122027,-0.095949,19,32765
1.62188,-0.129815,-0.0977546,19,32765
1.60154,-0.13368,-0.0963532,19,32765
1.61102,-0.139985,-0.0969969,19,32765
1.61055,-0.145428,-0.0969302,20,32765
1.61005,-0.150846,-0.0968855,19,32765
1.61946,-0.157288,-0.0975047,20,32765
1.59906,-0.160785,-0.0962228,19,32765
1.61835,-0.168309,-0.0974896,20,32765
1.59792,-0.171738,-0.0962287,20,32765
1.58741,-0.176108,-0.095544,20,32765
1.59672,-0.182602,-0.096082,20,32765
1.58619,-0.186802,-0.0954871,20,32765
1.59546,-0.193346,-0.0961112,20,32765
1.57499,-0.196248,-0.0948217,18,32765
1.59413,-0.204102,-0.0959107,19,32765
1.57363,-0.206896,-0.0947743,19,32765
1.59269,-0.215011,-0.095912,18,32765
1.59195,-0.220499,-0.0957974,19,32765
1.56154,-0.221758,-0.0939453,19,32765
1.59041,-0.23133,-0.0957427,19,32765
1.57976,-0.235235,-0.0949821,19,32765
1.56908,-0.239089,-0.0944049,19,32765
1.54853,-0.241395,-0.0931423,18,32765
1.56742,-0.249879,-0.0941469,19,32765
1.55671,-0.253621,-0.0933868,19,32765
1.57555,-0.262137,-0.0945007,19,32765
1.57466,-0.267452,-0.0943556,20,32765
1.52457,-0.264247,-0.0913959,19,32765
1.56299,-0.276345,-0.0937678,20,32765
1.55223,-0.27988,-0.0929409,20,32765
1.56112,-0.286904,-0.0932556,20,32765
1.55035,-0.290273,-0.0925379,20,32765
1.52978,-0.291649,-0.0912302,20,32765
1.54842,-0.300505,-0.0921612,20,32765
1.52782,-0.30184,-0.0908197,20,32765
1.54638,-0.310995,-0.0916856,20,32765
1.53552,-0.3143,-0.0910038,20,32765
1.52469,-0.317464,-0.0902241,19,32765
1.52362,-0.322626,-0.0899634,19,32765
1.53231,-0.329797,-0.0902998,20,32765
1.53122,-0.334925,-0.0899903,20,32765
1.53983,-0.342312,-0.0903205,20,32765
1.52893,-0.345341,-0.0895719,20,32765
1.53752,-0.35273,-0.0895599,19,32765
1.53634,-0.357848,-0.0894131,20,32765
1.54489,-0.365178,-0.0896946,20,32765
1.49516,-0.358644,-0.0865139,19,32765
1.52308,-0.370675,-0.0878726,20,32765
1.50248,-0.370944,-0.0863695,20,32765
1.53031,-0.383232,-0.087681,20,32765
1.51938,-0.38586,-0.0866008,20,32765
1.50845,-0.388398,-0.0856405,20,32765
1.49753,-0.3908,-0.0846632,20,32765
1.51557,-0.400812,-0.085342,20,32765
1.49499,-0.400611,-0.0837352,20,32765
1.47441,-0.400294,-0.082263,19,32765
1.47312,-0.405135,-0.0817657,19,32765
1.49103,-0.415371,-0.0824168,20,32765
1.49928,-0.423031,-0.0823992,20,32765
1.51714,-0.433376,-0.0829272,16,32765
1.56371,-0.45221,-0.0849304,16,32765
1.53351,-0.448924,-0.0826423,16,32765
1.51292,-0.4482,-0.0811634,16,32765
1.49236,-0.447373,-0.0795062,16,32765
1.52918,-0.463742,-0.0809104,14,32765
1.53727,-0.471603,-0.0805246,14,32765
1.48808,-0.461768,-0.0773451,13,32765
1.47707,-0.463658,-0.0761339,12,32765
0,-0,-0,0,32765
0,-0,-0,0,32765
0,-0,-0,0,32765
0,-0,-0,0,32765
1.6952,0.0306828,-0.123853,19,32765
1.71529,0.0251045,-0.124766,19,32765
1.69546,0.0188695,-0.122754,19,32765
1.70552,0.0131593,-0.123053,19,32765
1.69561,0.00735654,-0.12193,19,32765
1.6757,0.00162349,-0.12007,18,32765
1.67571,-0.00397244,-0.119983,18,32765
1.70563,-0.00978425,-0.121816,19,32765
1.70561,-0.0155788,-0.121401,19,32765
1.67565,-0.020976,-0.11901,19,32765
1.68554,-0.0267877,-0.11967,19,32765
1.69544,-0.0326078,-0.120077,20,32765
1.67539,-0.037866,-0.118502,20,32765
1.68524,-0.0437495,-0.118983,20,32765
1.67512,-0.0491651,-0.118127,20,32765
1.67495,-0.0549551,-0.118008,19,32765
1.68473,-0.061034,-0.118544,19,32765
1.65461,-0.0656356,-0.116388,19,32765
1.67433,-0.0720438,-0.117551,19,32765
1.67409,-0.0776992,-0.117479,19,32765
1.6539,-0.0823536,-0.115912,19,32765
1.65362,-0.0879235,-0.115745,19,32765
1.67324,-0.0946048,-0.117058,19,32765
1.68287,-0.100786,-0.117839,19,32765
1.6228,-0.102701,-0.113519,19,32765
1.64236,-0.109515,-0.114788,19,32765
1.65193,-0.1158,-0.115365,19,32765
1.64159,-0.120642,-0.114612,19,32765
1.65113,-0.126927,-0.115169,20,32765
1.6308,-0.130942,-0.113787,19,32765
1.6403,-0.137345,-0.114274,19,32765
1.64976,-0.143798,-0.115012,20,32765
1.63933,-0.148486,-0.114251,19,32765
1.59909,-0.150281,-0.111437,19,32765
1.61843,-0.15767,-0.112842,19,32765
1.59804,-0.161173,-0.111371,19,32765
1.62724,-0.169748,-0.113518,20,32765
1.63657,-0.176424,-0.114143,20,32765
1.62604,-0.180938,-0.113362,19,32765
1.61551,-0.185306,-0.11261,20,32765
1.63469,-0.193091,-0.113993,20,32765
1.61422,-0.196205,-0.112639,20,32765
1.59376,-0.199177,-0.111159,19,32765
1.60298,-0.205845,-0.111745,19,32765
1.5726,-0.207373,-0.10973,19,32765
1.58176,-0.214166,-0.110366,19,32765
1.62054,-0.225121,-0.113008,20,32765
1.60988,-0.229296,-0.112249,20,32765
1.56961,-0.228974,-0.109507,19,32765
1.59844,-0.238713,-0.111405,20,32765
1.58775,-0.242642,-0.110733,19,32765
1.58692,-0.248101,-0.110655,20,32765
1.58606,-0.253588,-0.110471,20,32765
1.57535,-0.257404,-0.109614,20,32765
1.56464,-0.261078,-0.10886,20,32765
1.57359,-0.268045,-0.109399,19,32765
1.53336,-0.26654,-0.106652,20,32765
1.57174,-0.278697,-0.1094,20,32765
1.55116,-0.280497,-0.107794,19,32765
1.55023,-0.285726,-0.107522,20,32765
1.55908,-0.29275,-0.10807,20,32765
1.55811,-0.297908,-0.10793,20,32765
1.51796,-0.295442,-0.10498,19,32765
1.55611,-0.308315,-0.107511,20,32765
1.52573,-0.307725,-0.105187,20,32765
1.53444,-0.314982,-0.105759,20,32765
1.52361,-0.318152,-0.104884,20,32765
1.5323,-0.325396,-0.105294,20,32765
1.53122,-0.330509,-0.105053,20,32765
1.53987,-0.337784,-0.10541,20,32765
1.5095,-0.336535,-0.103169,20,32765
1.52782,-0.346082,-0.104323,20,32765
1.53641,-0.353486,-0.104404,20,32765
1.52551,-0.356345,-0.103597,20,32765
1.52435,-0.361355,-0.103315,20,32765
1.51347,-0.364077,-0.102292,20,32765
1.54136,-0.376197,-0.103927,20,32765
1.50138,-0.371734,-0.100928,20,32765
1.52918,-0.384046,-0.102521,20,32765
1.48925,-0.379291,-0.0994096,20,32765
1.51699,-0.391716,-0.100934,20,32765
1.50608,-0.394154,-0.0998595,20,32765
1.48551,-0.393985,-0.0981728,20,32765
1.49388,-0.401458,-0.09829,20,32765
1.5022,-0.409005,-0.098524,20,32765
1.52012,-0.419257,-0.0992729,20,32765
1.47069,-0.410875,-0.0957182,20,32765
1.48855,-0.421204,-0.096423,20,32765
1.47761,-0.423293,-0.0952852,20,32765
1.49543,-0.433699,-0.0959275,20,32765
1.50361,-0.441431,-0.0958305,20,32765
1.4735,-0.43777,-0.0935641,20,32765
1.46255,-0.43969,-0.0923381,20,32765
1.47072,-0.447286,-0.0923304,20,32765
1.47886,-0.454978,-0.0920711,20,32765
1.52508,-0.474599,-0.0943443,20,32765
1.50451,-0.473621,-0.0924351,17,32765
0,-0,-0,0,32765
0,-0,-0,0,32765
0,-0,-0,0,32765
0,-0,-0,0,32765
1.70554,0.030429,-0.119671,18,32765
1.6956,0.0245334,-0.119698,18,32765
1.70558,0.0189771,-0.121416,18,32765
1.6657,0.0129588,-0.119087,18,32765
1.69562,0.00743909,-0.12178,18,32765
1.67562,0.0016656,-0.121238,19,32765
1.66561,-0.00402007,-0.120963,19,32765
1.66555,-0.00961591,-0.121408,18,32765
1.68542,-0.0153104,-0.123402,19,32765
1.6554,-0.0205684,-0.121797,19,32765
1.67524,-0.0264231,-0.123538,19,32765
1.67511,-0.0320761,-0.123963,19,32765
1.65503,-0.0373447,-0.122829,18,32765
1.66484,-0.0431751,-0.12392,18,32765
1.67463,-0.0490408,-0.124898,19,32765
1.67445,-0.0546555,-0.125006,18,32765
1.68418,-0.0606357,-0.126311,18,32765
1.65408,-0.0651371,-0.124059,18,32765
1.66378,-0.0711815,-0.125117,18,32765
1.66352,-0.0768528,-0.125214,18,32765
1.67319,-0.0830346,-0.126221,18,32765
1.60319,-0.0849783,-0.121138,18,32765
1.66261,-0.0937102,-0.125929,19,32765
1.63242,-0.0975062,-0.123677,19,32765
1.63206,-0.10295,-0.123982,19,32765
1.6317,-0.108477,-0.124087,19,32765
1.64126,-0.114689,-0.1249,20,32765
1.65082,-0.121014,-0.125503,19,32765
1.61062,-0.123602,-0.122608,19,32765
1.63007,-0.130682,-0.124131,19,32765
1.62961,-0.136264,-0.12413,19,32765
1.6192,-0.140925,-0.123431,19,32765
1.63858,-0.148196,-0.124873,19,32765
1.59837,-0.149957,-0.121775,19,32765
1.60778,-0.156345,-0.122505,19,32765
1.62709,-0.163798,-0.123945,19,32765
1.59677,-0.166201,-0.121702,20,32765
1.58628,-0.170589,-0.120863,19,32765
1.60553,-0.178148,-0.122197,20,32765
1.59502,-0.182441,-0.121386,20,32765
1.5845,-0.186645,-0.120499,20,32765
1.59378,-0.193164,-0.121049,19,32765
1.58322,-0.197355,-0.12021,20,32765
1.61222,-0.206576,-0.122336,20,32765
1.58187,-0.208147,-0.119864,20,32765
1.59104,-0.214836,-0.120557,20,32765
1.61996,-0.224284,-0.122537,21,32765
1.59946,-0.226925,-0.12096,20,32765
1.55922,-0.226625,-0.11779,19,32765
1.57817,-0.234977,-0.118956,20,32765
1.59707,-0.243479,-0.120338,20,32765
1.56667,-0.244444,-0.117837,19,32765
1.57568,-0.251438,-0.118341,19,32765
1.565,-0.255124,-0.117426,20,32765
1.57398,-0.262082,-0.117892,20,32765
1.57309,-0.267406,-0.117758,20,32765
1.57219,-0.272723,-0.117635,20,32765
1.55164,-0.274617,-0.115795,19,32765
1.56053,-0.281622,-0.116275,20,32765
1.55958,-0.286932,-0.116082,20,32765
1.55861,-0.292203,-0.115938,20,32765
1.54783,-0.295613,-0.115052,20,32765
1.53705,-0.298958,-0.114039,20,32765
1.51649,-0.300283,-0.112246,19,32765
1.53502,-0.309357,-0.113671,19,32765
1.54375,-0.316539,-0.114187,20,32765
1.52314,-0.317729,-0.112646,19,32765
1.55135,-0.329064,-0.114623,19,32765
1.55025,-0.334251,-0.114411,20,32765
1.53939,-0.337349,-0.113521,20,32765
1.52852,-0.340353,-0.112588,20,32765
1.54684,-0.349912,-0.113746,20,32765
1.51648,-0.348508,-0.111547,20,32765
1.5056,-0.3513,-0.110667,20,32765
1.51411,-0.358733,-0.111279,20,32765
1.52261,-0.366126,-0.111878,20,32765
1.5214,-0.371177,-0.111652,20,32765
1.51048,-0.373839,-0.110853,19,32765
1.52862,-0.383613,-0.112086,20,32765
1.46935,-0.373892,-0.107751,20,32765
1.51641,-0.391206,-0.111175,20,32765
1.51512,-0.396222,-0.111053,20,32765
1.49452,-0.396151,-0.109479,20,32765
1.51247,-0.406257,-0.110848,20,32765
1.49186,-0.406063,-0.109417,20,32765
1.49051,-0.411002,-0.109306,20,32765
1.49874,-0.418652,-0.110044,20,32765
1.49736,-0.423604,-0.109896,20,32765
1.46719,-0.420285,-0.107776,20,32765
1.47536,-0.427957,-0.108415,20,32765
1.48352,-0.435605,-0.109184,20,32765
1.47253,-0.437616,-0.10836,20,32765
1.48067,-0.445217,-0.109109,20,32765
1.48879,-0.452816,-0.10989,20,32765
1.46826,-0.451709,-0.108541,20,32765
1.46679,-0.456429,-0.108593,20,32765
1.49385,-0.470132,-0.11084,20,32765
1.4733,-0.468911,-0.109628,20,32765
1.49078,-0.479664,-0.111318,20,32765
1.48924,-0.484366,-0.111584,20,32765
1.46873,-0.482801,-0.110553,19,32765
1.7143,0.0305733,-0.136551,18,32765
1.7243,0.024921,-0.138084,18,32765
1.72429,0.019142,-0.139109,18,32765
1.70437,0.0132016,-0.138024,18,32765
1.71433,0.00744717,-0.139391,18,32765
1.69433,0.00159539,-0.13867,18,32765
1.71423,-0.00424289,-0.140762,18,32765
1.6743,-0.0097845,-0.137935,18,32765
1.69414,-0.0155243,-0.14012,18,32765
1.69403,-0.0211984,-0.140719,19,32765
1.66404,-0.0264085,-0.138507,19,32765
1.69379,-0.0326142,-0.141425,19,32765
1.67372,-0.03796,-0.140107,19,32765
1.68351,-0.0438694,-0.141296,19,32765
1.68333,-0.0495207,-0.141532,19,32765
1.66323,-0.0545265,-0.139964,19,32765
1.68291,-0.0608453,-0.142201,19,32765
1.67274,-0.0661409,-0.141349,19,32765
1.67247,-0.0718376,-0.141662,20,32765
1.66226,-0.0770919,-0.140915,20,32765
1.67191,-0.083286,-0.142015,20,32765
1.66166,-0.0884057,-0.141353,19,32765
1.66133,-0.0939813,-0.141628,19,32765
1.661,-0.0995714,-0.141638,20,32765
1.66063,-0.105125,-0.141949,19,32765
1.65031,-0.110101,-0.141204,20,32765
1.63005,-0.114302,-0.139558,20,32765
1.6396,-0.120605,-0.140257,20,32765
1.65903,-0.127751,-0.142089,20,32765
1.63872,-0.131819,-0.140396,19,32765
1.63826,-0.137446,-0.140395,19,32765
1.63778,-0.143016,-0.140453,19,32765
1.63729,-0.148568,-0.14038,19,32765
1.61695,-0.152197,-0.138606,20,32765
1.62634,-0.158666,-0.13943,20,32765
1.6258,-0.164198,-0.139357,20,32765
1.61532,-0.168674,-0.138531,19,32765
1.64446,-0.177412,-0.140994,19,32765
1.62406,-0.180778,-0.139116,20,32765
1.62344,-0.186282,-0.139058,20,32765
1.61292,-0.190594,-0.138074,20,32765
1.61229,-0.196023,-0.137868,20,32765
1.59184,-0.199052,-0.136088,20,32765
1.62081,-0.208326,-0.138495,20,32765
1.60035,-0.211236,-0.136582,19,32765
1.59963,-0.216668,-0.136525,19,32765
1.59891,-0.222055,-0.136262,20,32765
1.5883,-0.226037,-0.135338,20,32765
1.60726,-0.234327,-0.136829,20,32765
1.58675,-0.236979,-0.134823,20,32765
1.60562,-0.245533,-0.136391,20,32765
1.58508,-0.248073,-0.134441,20,32765
1.58423,-0.253574,-0.134203,20,32765
1.60305,-0.262124,-0.135689,21,32765
1.58252,-0.264305,-0.133749,20,32765
1.56197,-0.266321,-0.131954,20,32765
1.58071,-0.275032,-0.13349,20,32765
1.57979,-0.280446,-0.133112,20,32765
1.55924,-0.282238,-0.131206,20,32765
1.54848,-0.28575,-0.130188,20,32765
1.56711,-0.294681,-0.13169,20,32765
1.5759,-0.30188,-0.132353,21,32765
1.57489,-0.307238,-0.13206,20,32765
1.56409,-0.310638,-0.130888,20,32765
1.58256,-0.319897,-0.132499,20,32765
1.5522,-0.319227,-0.129836,20,32765
1.55111,-0.324533,-0.129737,21,32765
1.55002,-0.329768,-0.129547,20,32765
1.53918,-0.332857,-0.128521,20,32765
1.5478,-0.340207,-0.129162,20,32765
1.54666,-0.345421,-0.128944,20,32765
1.53579,-0.348449,-0.127858,20,32765
1.55401,-0.3582,-0.129421,20,32765
1.53341,-0.358856,-0.127634,20,32765
1.51278,-0.359489,-0.125915,20,32765
1.52127,-0.366896,-0.126608,20,32765
1.52006,-0.371956,-0.126381,20,32765
1.50914,-0.374623,-0.125487,20,32765
1.52726,-0.384416,-0.126907,20,32765
1.51633,-0.386998,-0.126021,20,32765
1.5247,-0.394519,-0.126702,20,32765
1.49446,-0.391989,-0.124175,20,32765
1.48353,-0.394413,-0.123214,20,32765
1.46297,-0.394135,-0.121571,20,32765
1.52896,-0.417405,-0.12715,20,32765
1.48914,-0.411852,-0.123838,20,32765
1.48775,-0.416827,-0.12387,20,32765
1.51514,-0.429919,-0.126117,20,32765
1.46582,-0.42115,-0.122118,20,32765
1.49312,-0.434406,-0.124444,20,32765
1.49168,-0.439315,-0.124509,20,32765
1.49024,-0.444207,-0.124387,20,32765
1.47925,-0.446128,-0.123634,20,32765
1.46828,-0.447924,-0.122911,20,32765
1.45731,-0.449691,-0.122171,20,32765
1.47488,-0.460328,-0.123819,20,32765
1.46387,-0.462087,-0.123148,20,32765
1.45285,-0.4638,-0.122544,20,32765
1.46084,-0.471452,-0.123614,20,32765
1.46879,-0.479163,-0.124677,20,32765
1.46725,-0.483776,-0.125066,21,32765
1.70197,0.0324556,-0.162342,18,32765
1.73198,0.027133,-0.164602,18,32765
1.75203,0.0215532,-0.165882,19,32765
1.70235,0.0151332,-0.160808,18,32765
1.7124,0.00943913,-0.161237,18,32765
1.71244,0.00366937,-0.161022,18,32765
1.70254,-0.00213673,-0.159558,18,32765
1.7125,-0.00787467,-0.160245,18,32765
1.68263,-0.0133416,-0.157123,19,32765
1.72244,-0.019374,-0.160388,18,32765
1.67261,-0.0245218,-0.155461,18,32765
1.7024,-0.0307737,-0.158058,18,32765
1.66249,-0.0357328,-0.15409,18,32765
1.67234,-0.0416847,-0.15476,19,32765
1.68216,-0.0476374,-0.155457,19,32765
1.6621,-0.0527377,-0.153474,19,32765
1.65197,-0.0580524,-0.152346,18,32765
1.6916,-0.0651804,-0.155743,19,32765
1.63168,-0.0683968,-0.150175,19,32765
1.66132,-0.0752414,-0.152522,19,32765
1.65111,-0.0803755,-0.151571,19,32765
1.66078,-0.0866521,-0.152266,19,32765
1.65056,-0.0917928,-0.151114,19,32765
1.6403,-0.0968719,-0.150143,19,32765
1.63999,-0.102377,-0.149843,18,32765
1.65952,-0.109187,-0.15158,19,32765
1.63928,-0.113501,-0.149637,18,32765
1.65876,-0.120466,-0.15131,19,32765
1.64842,-0.125473,-0.150199,18,32765
1.62814,-0.129551,-0.148282,19,32765
1.6277,-0.135124,-0.148107,19,32765
1.657,-0.143285,-0.150687,20,32765
1.61684,-0.145307,-0.146972,19,32765
1.62626,-0.151713,-0.147871,20,32765
1.61585,-0.156285,-0.146604,19,32765
1.61531,-0.161828,-0.146588,19,32765
1.61475,-0.167408,-0.146524,19,32765
1.60427,-0.171901,-0.145485,19,32765
1.58387,-0.175287,-0.143595,20,32765
1.61298,-0.184015,-0.146075,20,32765
1.60245,-0.188356,-0.145134,20,32765
1.57215,-0.190221,-0.142331,19,32765
1.60115,-0.199198,-0.145016,19,32765
1.60047,-0.204597,-0.144996,19,32765
1.59979,-0.20996,-0.144866,20,32765
1.60893,-0.21679,-0.145768,20,32765
1.57859,-0.218221,-0.142943,20,32765
1.58769,-0.225107,-0.143743,19,32765
1.60663,-0.233471,-0.145373,20,32765
1.59598,-0.237473,-0.144435,19,32765
1.57548,-0.239981,-0.142396,20,32765
1.5648,-0.243861,-0.141493,19,32765
1.59348,-0.253943,-0.144029,20,32765
1.57293,-0.256267,-0.142142,20,32765
1.55241,-0.258299,-0.140334,19,32765
1.56136,-0.265252,-0.141011,20,32765
1.5703,-0.272214,-0.141632,20,32765
1.56937,-0.277481,-0.141699,20,32765
1.53902,-0.277537,-0.138937,20,32765
1.54788,-0.284566,-0.139615,20,32765
1.55668,-0.291755,-0.140409,20,32765
1.5557,-0.297075,-0.140172,20,32765
1.54493,-0.300349,-0.139255,20,32765
1.54392,-0.305542,-0.139121,20,32765
1.51361,-0.304813,-0.136241,20,32765
1.53212,-0.313942,-0.137701,20,32765
1.55055,-0.323233,-0.13935,20,32765
1.5592,-0.330578,-0.140056,21,32765
1.52889,-0.329548,-0.137127,20,32765
1.54726,-0.338894,-0.138656,21,32765
1.54613,-0.34413,-0.13845,20,32765
1.52555,-0.344927,-0.136465,20,32765
1.52441,-0.350046,-0.136216,20,32765
1.51355,-0.352875,-0.13513,20,32765
1.55119,-0.367066,-0.138093,20,32765
1.53061,-0.367579,-0.13606,20,32765
1.53906,-0.375098,-0.136699,20,32765
1.50882,-0.373044,-0.133797,20,32765
1.5366,-0.385316,-0.135968,20,32765
1.5257,-0.38794,-0.134681,21,32765
1.53407,-0.395529,-0.135227,21,32765
1.52314,-0.39812,-0.133932,21,32765
1.51223,-0.400597,-0.132655,20,32765
1.52053,-0.408201,-0.133303,20,32765
1.50961,-0.410615,-0.131841,21,32765
1.48904,-0.410355,-0.129824,20,32765
1.50691,-0.420677,-0.130915,20,32765
1.51517,-0.428277,-0.131288,21,32765
1.49465,-0.427737,-0.129093,20,32765
1.50288,-0.435352,-0.129268,21,32765
1.51104,-0.443086,-0.129695,20,32765
1.49049,-0.442488,-0.12751,20,32765
1.50817,-0.4531,-0.128511,20,32765
1.48768,-0.452182,-0.126281,20,32765
1.49583,-0.459786,-0.126425,20,32765
1.48486,-0.461678,-0.125055,20,32765
1.49292,-0.469515,-0.125111,21,32765
1.48196,-0.471349,-0.123439,20,32765
1.47102,-0.473055,-0.121728,21,32765
1.46011,-0.474622,-0.120015,20,32765
1.48709,-0.488571,-0.121478,21,32765
1.7103,0.0325814,-0.179436,19,32765
1.71047,0.0267471,-0.178855,18,32765
1.70066,0.0208576,-0.177221,19,32765
1.69082,0.0149519,-0.175826,19,32765
1.70086,0.0092811,-0.176352,19,32765
1.7009,0.00353482,-0.176139,18,32765
1.70096,-0.0022599,-0.175611,19,32765
1.69102,-0.00791549,-0.174341,19,32765
1.72086,-0.0138021,-0.177083,19,32765
1.7109,-0.0194158,-0.175608,20,32765
1.70091,-0.0251228,-0.17429,20,32765
1.70083,-0.0309471,-0.174112,20,32765
1.68085,-0.0363422,-0.171801,19,32765
1.69069,-0.0423738,-0.172562,19,32765
1.67067,-0.0475561,-0.170309,19,32765
1.67051,-0.0532642,-0.170165,19,32765
1.68028,-0.0593238,-0.170965,19,32765
1.69004,-0.065414,-0.171703,19,32765
1.67988,-0.0707245,-0.170619,19,32765
1.65979,-0.0754908,-0.1682,19,32765
1.67941,-0.0820907,-0.170176,19,32765
1.66919,-0.0874423,-0.168949,20,32765
1.67884,-0.093735,-0.16971,19,32765
1.66858,-0.0989251,-0.168644,20,32765
1.6782,-0.105162,-0.16934,20,32765
1.66792,-0.110152,-0.168258,19,32765
1.63777,-0.113817,-0.165125,18,32765
1.64731,-0.120073,-0.165986,19,32765
1.6469,-0.125811,-0.165781,19,32765
1.63655,-0.130688,-0.164674,19,32765
1.65594,-0.137957,-0.166492,20,32765
1.64556,-0.142796,-0.165366,19,32765
1.64508,-0.14836,-0.165258,19,32765
1.64456,-0.153952,-0.165255,20,32765
1.63416,-0.158598,-0.163889,19,32765
1.64351,-0.165215,-0.164865,20,32765
1.62314,-0.168849,-0.162814,20,32765
1.64235,-0.176574,-0.164656,20,32765
1.64173,-0.1823,-0.164557,20,32765
1.62136,-0.185587,-0.162361,20,32765
1.61083,-0.189969,-0.161326,19,32765
1.62007,-0.196667,-0.162195,20,32765
1.60952,-0.200898,-0.161206,20,32765
1.60883,-0.20634,-0.161185,19,32765
1.59828,-0.210447,-0.160065,20,32765
1.59754,-0.215956,-0.160073,20,32765
1.60666,-0.222823,-0.160915,20,32765
1.62559,-0.231225,-0.162793,20,32765
1.61494,-0.235436,-0.161649,20,32765
1.60429,-0.239478,-0.160617,20,32765
1.60348,-0.24503,-0.160355,20,32765
1.59279,-0.249017,-0.159358,20,32765
1.59194,-0.254508,-0.159223,19,32765
1.60088,-0.26165,-0.160094,20,32765
1.59999,-0.267061,-0.160061,20,32765
1.58928,-0.270851,-0.158863,20,32765
1.57858,-0.274515,-0.157615,20,32765
1.58743,-0.281562,-0.158661,21,32765
1.58647,-0.286999,-0.158552,20,32765
1.55615,-0.286987,-0.155406,20,32765
1.59427,-0.299741,-0.159223,20,32765
1.55416,-0.297715,-0.155078,20,32765
1.56293,-0.304804,-0.156018,20,32765
1.56191,-0.310072,-0.155881,20,32765
1.57064,-0.317287,-0.156607,20,32765
1.55008,-0.318618,-0.154359,20,32765
1.56848,-0.327993,-0.156193,20,32765
1.56737,-0.333347,-0.156021,20,32765
1.5468,-0.33445,-0.153775,20,32765
1.56514,-0.343879,-0.155488,21,32765
1.54456,-0.344852,-0.153349,20,32765
1.55312,-0.352254,-0.154066,21,32765
1.55195,-0.35748,-0.15381,20,32765
1.56046,-0.364945,-0.154545,20,32765
1.5496,-0.367829,-0.153083,20,32765
1.55807,-0.375336,-0.153727,20,32765
1.52781,-0.373511,-0.15064,20,32765
1.53625,-0.381004,-0.151264,20,32765
1.52536,-0.383682,-0.149913,20,32765
1.53376,-0.391199,-0.150426,21,32765
1.52284,-0.393849,-0.149175,20,32765
1.51192,-0.396412,-0.147788,20,32765
1.51065,-0.401417,-0.147358,20,32765
1.49009,-0.401269,-0.145287,20,32765
1.50802,-0.411454,-0.146543,20,32765
1.51627,-0.41915,-0.147131,21,32765
1.51491,-0.424218,-0.146543,20,32765
1.49441,-0.423714,-0.144232,20,32765
1.47392,-0.42311,-0.141856,20,32765
1.49173,-0.433455,-0.143049,20,32765
1.50944,-0.443983,-0.144486,20,32765
1.47935,-0.440539,-0.141202,20,32765
1.49703,-0.451141,-0.142394,20,32765
1.49561,-0.455998,-0.141786,20,32765
1.51327,-0.466581,-0.142918,21,32765
1.5118,-0.471502,-0.142342,21,32765
1.50081,-0.473455,-0.140695,20,32765
1.47088,-0.469268,-0.137154,20,32765
1.49788,-0.483178,-0.138871,20,32765
1.49643,-0.487926,-0.137918,20,32765
1.45711,-0.480195,-0.133568,21,32765
1.701,0.0322167,-0.172272,17,32765
1.72092,0.0266875,-0.175023,18,32765
1.76071,0.0212918,-0.179838,18,32765
1.711,0.0148777,-0.175119,18,32765
1.69108,0.00892637,-0.173718,19,32765
1.67116,0.00311529,-0.172088,19,32765
1.73077,-0.00268539,-0.178962,19,32765
1.70087,-0.00838389,-0.176247,19,32765
1.70081,-0.0140675,-0.176527,19,32765
1.70071,-0.0197852,-0.176918,19,32765
1.6807,-0.0251949,-0.175211,19,32765
1.66071,-0.0304698,-0.173282,18,32765
1.6506,-0.0358146,-0.172693,18,32765
1.66038,-0.0416532,-0.174032,19,32765
1.69003,-0.0482216,-0.177391,19,32765
1.66996,-0.053416,-0.175405,19,32765
1.64986,-0.0584381,-0.173583,19,32765
1.66951,-0.0648434,-0.175841,19,32765
1.66927,-0.0704287,-0.176001,19,32765
1.6392,-0.0747615,-0.173025,19,32765
1.64885,-0.0806997,-0.174264,18,32765
1.67836,-0.0878138,-0.177471,19,32765
1.63831,-0.0913056,-0.173532,19,32765
1.638,-0.0968499,-0.173459,19,32765
1.64755,-0.10314,-0.174744,18,32765
1.65711,-0.109421,-0.175803,18,32765
1.68647,-0.117158,-0.17913,18,32765
1.63648,-0.119306,-0.173813,19,32765
1.64597,-0.125545,-0.174957,19,32765
1.64554,-0.131067,-0.17498,19,32765
1.63517,-0.135713,-0.174031,19,32765
1.605,-0.138627,-0.170796,19,32765
1.64412,-0.147649,-0.175105,19,32765
1.64363,-0.153273,-0.17494,20,32765
1.63317,-0.158038,-0.174055,19,32765
1.63263,-0.163583,-0.173982,19,32765
1.64196,-0.170131,-0.174968,19,32765
1.64138,-0.1757,-0.174967,18,32765
1.6408,-0.18119,-0.1748,19,32765
1.6204,-0.184536,-0.172741,18,32765
1.63953,-0.192381,-0.17473,18,32765
1.64875,-0.199186,-0.175633,17,32765
1.63818,-0.20366,-0.174614,18,32765
1.6079,-0.205469,-0.17125,18,32765
1.6072,-0.210954,-0.171181,18,32765
1.58678,-0.213717,-0.169008,18,32765
1.60576,-0.221811,-0.170995,18,32765
1.56561,-0.221678,-0.166849,19,32765
1.57473,-0.228421,-0.167516,19,32765
1.58376,-0.235288,-0.168697,20,32765
1.57312,-0.239259,-0.167453,20,32765
1.57231,-0.244668,-0.167259,20,32765
1.58128,-0.251725,-0.168169,20,32765
1.57061,-0.255546,-0.166956,20,32765
1.57954,-0.262608,-0.167916,20,32765
1.58845,-0.269629,-0.168872,20,32765
1.56796,-0.27166,-0.166472,20,32765
1.5866,-0.280515,-0.168531,20,32765
1.54652,-0.278833,-0.164135,20,32765
1.55534,-0.285939,-0.165082,20,32765
1.55439,-0.291154,-0.164932,20,32765
1.58272,-0.301996,-0.167894,20,32765
1.56217,-0.303589,-0.165687,20,32765
1.59043,-0.314645,-0.168655,21,32765
1.56011,-0.314219,-0.165276,20,32765
1.5493,-0.31754,-0.16414,20,32765
1.55796,-0.324818,-0.165065,20,32765
1.54714,-0.328056,-0.163839,20,32765
1.53632,-0.331185,-0.162596,20,32765
1.5352,-0.336404,-0.162424,20,32765
1.53407,-0.341601,-0.162272,20,32765
1.53291,-0.34682,-0.162202,20,32765
1.54142,-0.35429,-0.1631,20,32765
1.53055,-0.357232,-0.161907,20,32765
1.55837,-0.369362,-0.164832,20,32765
1.52811,-0.367628,-0.161611,20,32765
1.53655,-0.375099,-0.162487,20,32765
1.53529,-0.380314,-0.162326,21,32765
1.54367,-0.387834,-0.16331,20,32765
1.552,-0.395507,-0.164212,19,32765
1.5507,-0.40065,-0.164004,20,32765
1.5205,-0.398264,-0.160827,19,32765
1.55763,-0.413563,-0.164794,19,32765
1.53706,-0.413535,-0.162621,19,32765
1.54527,-0.421307,-0.16353,20,32765
1.51512,-0.418466,-0.16031,19,32765
1.53288,-0.428885,-0.162324,19,32765
1.50274,-0.425827,-0.159182,19,32765
1.49178,-0.428044,-0.157991,19,32765
1.50948,-0.438497,-0.16001,20,32765
1.49848,-0.440661,-0.158962,20,32765
1.47796,-0.43992,-0.156856,20,32765
1.49555,-0.450578,-0.158816,20,32765
1.49408,-0.455439,-0.158705,20,32765
1.47356,-0.454453,-0.156859,19,32765
1.50061,-0.468057,-0.159702,20,32765
1.49909,-0.47286,-0.159784,20,32765
1.52598,-0.486757,-0.162953,21,32765
1.52443,-0.491635,-0.162787,20,32765
1.49443,-0.487274,-0.160149,20,32765
1.48343,-0.488874,-0.159131,20,32765
1.6993,0.0321447,-0.188314,19,32765
1.69932,0.0262961,-0.18904,19,32765
1.71919,0.020716,-0.192001,19,32765
1.68939,0.0146015,-0.189029,18,32765
1.73905,0.00907179,-0.195241,19,32765
1.69927,0.00304606,-0.191199,19,32765
1.69919,-0.00277456,-0.191913,20,32765
1.6892,-0.00847972,-0.191159,19,32765
1.709,-0.0143065,-0.193689,19,32765
1.66916,-0.0196012,-0.189568,19,32765
1.68891,-0.0255191,-0.192189,19,32765
1.69873,-0.0313857,-0.193467,19,32765
1.6787,-0.0366558,-0.191661,19,32765
1.67853,-0.0423561,-0.191962,19,32765
1.67835,-0.0481521,-0.192193,19,32765
1.67816,-0.0539583,-0.192294,19,32765
1.67793,-0.0597286,-0.192564,18,32765
1.6777,-0.0654738,-0.192731,18,32765
1.6973,-0.0719436,-0.195175,18,32765
1.67718,-0.0768382,-0.193062,17,32765
1.70666,-0.0838954,-0.196687,17,32765
1.69644,-0.0891402,-0.1956,17,32765
1.70601,-0.0954781,-0.197017,17,32765
1.67593,-0.0995014,-0.193505,18,32765
1.67555,-0.105318,-0.193743,18,32765
1.66527,-0.110398,-0.192601,18,32765
1.65495,-0.11542,-0.19162,19,32765
1.66446,-0.121817,-0.192718,19,32765
1.66403,-0.127409,-0.192809,19,32765
1.66359,-0.133006,-0.192832,20,32765
1.65322,-0.137726,-0.19179,20,32765
1.64286,-0.142426,-0.190568,20,32765
1.65225,-0.148925,-0.191808,20,32765
1.64186,-0.153667,-0.190495,20,32765
1.64129,-0.1594,-0.190664,20,32765
1.64075,-0.164988,-0.19059,20,32765
1.64019,-0.170555,-0.190521,19,32765
1.61984,-0.174011,-0.188224,20,32765
1.62914,-0.180539,-0.189205,20,32765
1.63838,-0.187238,-0.190399,20,32765
1.63774,-0.192843,-0.190281,20,32765
1.62723,-0.197269,-0.188986,20,32765
1.6561,-0.206601,-0.192455,20,32765
1.62585,-0.208478,-0.188806,20,32765
1.62514,-0.214039,-0.188735,20,32765
1.61457,-0.218202,-0.187518,20,32765
1.63351,-0.226413,-0.189689,20,32765
1.62289,-0.230568,-0.188598,21,32765
1.60248,-0.233232,-0.185921,21,32765
1.6213,-0.241678,-0.188339,21,32765
1.62048,-0.24729,-0.188137,21,32765
1.60001,-0.249812,-0.185658,20,32765
1.58933,-0.253851,-0.184382,20,32765
1.59827,-0.260912,-0.185347,20,32765
1.60717,-0.268089,-0.186399,21,32765
1.58667,-0.270219,-0.184038,20,32765
1.59556,-0.277356,-0.184852,20,32765
1.59459,-0.282859,-0.18483,20,32765
1.58387,-0.28651,-0.183455,20,32765
1.57312,-0.290159,-0.182228,19,32765
1.57215,-0.295448,-0.182076,19,32765
1.59068,-0.304509,-0.184186,19,32765
1.54088,-0.300432,-0.178403,18,32765
1.5886,-0.315311,-0.183908,18,32765
1.54858,-0.312914,-0.179122,18,32765
1.58644,-0.326214,-0.183521,18,32765
1.58534,-0.331603,-0.183411,18,32765
1.59394,-0.33908,-0.184335,19,32765
1.55396,-0.336076,-0.179623,18,32765
1.59165,-0.349905,-0.183934,19,32765
1.57107,-0.350975,-0.181534,19,32765
1.56018,-0.354135,-0.180341,19,32765
1.55897,-0.359486,-0.18021,19,32765
1.53841,-0.360232,-0.177802,19,32765
1.54685,-0.36782,-0.178771,20,32765
1.55528,-0.375374,-0.179735,20,32765
1.55403,-0.380592,-0.179586,20,32765
1.5431,-0.383484,-0.178307,20,32765
1.53218,-0.386192,-0.177154,20,32765
1.5405,-0.393846,-0.178149,20,32765
1.55845,-0.403952,-0.180166,20,32765
1.52827,-0.401592,-0.176707,20,32765
1.49811,-0.399046,-0.173271,20,32765
1.52558,-0.411774,-0.176464,20,32765
1.53379,-0.419527,-0.177467,20,32765
1.52283,-0.421955,-0.176182,20,32765
1.51184,-0.424368,-0.175058,20,32765
1.51043,-0.42939,-0.174958,20,32765
1.50903,-0.434391,-0.174777,20,32765
1.51713,-0.442146,-0.175876,20,32765
1.51566,-0.447156,-0.175838,20,32765
1.51419,-0.452162,-0.175754,20,32765
1.50316,-0.454339,-0.174582,20,32765
1.49218,-0.456333,-0.173366,20,32765
1.47167,-0.455343,-0.171331,20,32765
1.51765,-0.474908,-0.176661,20,32765
1.4782,-0.467785,-0.172324,20,32765
1.4956,-0.478617,-0.174665,20,32765
1.50353,-0.486471,-0.175605,20,32765
1.50191,-0.491309,-0.176001,19,32765
1.51922,-0.5023,-0.178209,20,32765
1.74589,0.0350676,-0.219627,18,32765
1.67662,0.0278635,-0.21037,18,32765
1.71645,0.0226343,-0.214892,18,32765
1.75624,0.0171778,-0.219568,18,32765
1.69683,0.0107967,-0.211568,18,32765
1.70679,0.00502201,-0.212725,18,32765
1.70685,-0.000888499,-0.212294,17,32765
1.71678,-0.0068338,-0.213332,17,32765
1.687,-0.0125213,-0.20949,18,32765
1.64728,-0.0178423,-0.204323,18,32765
1.677,-0.0238587,-0.207868,18,32765
1.66701,-0.0294397,-0.206453,18,32765
1.68678,-0.0355532,-0.208604,18,32765
1.69657,-0.041597,-0.209787,19,32765
1.65675,-0.0462591,-0.20482,19,32765
1.68636,-0.0528478,-0.208299,18,32765
1.68619,-0.0585963,-0.208165,18,32765
1.64634,-0.0627776,-0.203029,18,32765
1.68578,-0.0700067,-0.207965,18,32765
1.67561,-0.0752862,-0.206774,18,32765
1.64565,-0.0795657,-0.202775,19,32765
1.66518,-0.0862547,-0.205277,18,32765
1.64507,-0.0908959,-0.202728,19,32765
1.65465,-0.0971078,-0.203984,19,32765
1.62462,-0.100837,-0.200125,19,32765
1.63417,-0.106996,-0.20131,18,32765
1.65362,-0.113857,-0.203656,19,32765
1.64335,-0.118757,-0.202251,20,32765
1.65282,-0.125104,-0.203544,19,32765
1.6227,-0.128543,-0.199818,19,32765
1.64203,-0.135842,-0.202178,19,32765
1.62179,-0.139894,-0.19957,19,32765
1.63117,-0.146387,-0.200912,19,32765
1.64056,-0.152896,-0.201943,20,32765
1.62028,-0.156553,-0.199425,19,32765
1.61975,-0.162108,-0.199358,20,32765
1.63895,-0.16965,-0.201661,20,32765
1.6285,-0.174198,-0.200375,20,32765
1.65749,-0.183053,-0.204003,20,32765
1.63714,-0.186468,-0.201499,20,32765
1.60693,-0.188625,-0.197724,19,32765
1.62599,-0.196507,-0.20011,20,32765
1.62532,-0.202058,-0.200031,20,32765
1.58527,-0.202589,-0.194861,20,32765
1.62395,-0.213169,-0.199645,20,32765
1.62322,-0.218716,-0.199557,20,32765
1.62247,-0.224286,-0.199457,20,32765
1.61188,-0.2285,-0.198071,20,32765
1.62091,-0.235486,-0.199237,20,32765
1.62013,-0.241007,-0.198946,19,32765
1.6095,-0.245052,-0.197632,19,32765
1.57924,-0.246047,-0.193827,18,32765
1.59799,-0.254594,-0.19623,17,32765
1.60692,-0.261748,-0.197203,17,32765
1.63542,-0.272157,-0.20054,17,32765
1.61493,-0.274431,-0.197984,17,32765
1.58467,-0.274825,-0.194136,17,32765
1.59353,-0.281874,-0.195218,17,32765
1.5535,-0.280233,-0.190303,16,32765
1.5233,-0.280081,-0.186326,17,32765
1.55164,-0.290779,-0.189639,17,32765
1.53115,-0.292379,-0.187051,18,32765
1.55942,-0.303262,-0.19036,18,32765
1.54867,-0.306611,-0.188972,19,32765
1.54767,-0.311826,-0.188594,19,32765
1.5661,-0.321133,-0.190552,20,32765
1.57472,-0.328525,-0.191615,19,32765
1.58335,-0.336018,-0.192366,20,32765
1.55311,-0.335175,-0.188473,20,32765
1.5617,-0.34255,-0.189339,21,32765
1.56057,-0.347871,-0.189,20,32765
1.54006,-0.348733,-0.186278,20,32765
1.5486,-0.356168,-0.187015,20,32765
1.5571,-0.363688,-0.187807,20,32765
1.57524,-0.373485,-0.189769,19,32765
1.55472,-0.374154,-0.186937,20,32765
1.54385,-0.377052,-0.185395,20,32765
1.55226,-0.384615,-0.186172,20,32765
1.52212,-0.382543,-0.182222,20,32765
1.5498,-0.39492,-0.185126,20,32765
1.5293,-0.395055,-0.182423,21,32765
1.50882,-0.395106,-0.179599,20,32765
1.52676,-0.405215,-0.181423,20,32765
1.51586,-0.407739,-0.179753,20,32765
1.52415,-0.415411,-0.18027,20,32765
1.52282,-0.420495,-0.179716,20,32765
1.51191,-0.422912,-0.178002,20,32765
1.52966,-0.433398,-0.179748,20,32765
1.53781,-0.441276,-0.18028,20,32765
1.53645,-0.446309,-0.179535,20,32765
1.51596,-0.445777,-0.176761,20,32765
1.50503,-0.447934,-0.175026,20,32765
1.49412,-0.449945,-0.173366,20,32765
1.49273,-0.454778,-0.172683,20,32765
1.51034,-0.465466,-0.174109,21,32765
1.48043,-0.46154,-0.169991,20,32765
1.50744,-0.475362,-0.172514,20,32765
1.47758,-0.471103,-0.16861,21,32765
1.50452,-0.485088,-0.170952,21,32765
1.49358,-0.48691,-0.168952,20,32765
1.48266,-0.48861,-0.166963,20,32765
1.73384,0.0347642,-0.234748,19,32765
1.72411,0.028575,-0.23287,19,32765
1.72426,0.0226429,-0.232411,19,32765
1.71446,0.0166588,-0.23079,19,32765
1.72449,0.0108453,-0.231558,19,32765
1.71462,0.00490164,-0.230146,19,32765
1.69486,-0.00104049,-0.227057,18,32765
1.69487,-0.00692144,-0.226863,19,32765
1.70477,-0.0128458,-0.228045,19,32765
1.68492,-0.0184566,-0.225151,19,32765
1.69478,-0.0243359,-0.226326,19,32765
1.70462,-0.0303461,-0.22746,19,32765
1.72437,-0.036607,-0.229791,18,32765
1.6846,-0.0415756,-0.224464,19,32765
1.68446,-0.0473214,-0.224404,19,32765
1.6645,-0.0524638,-0.221565,19,32765
1.68414,-0.0588463,-0.224069,19,32765
1.68396,-0.0645496,-0.223825,19,32765
1.68373,-0.0702753,-0.223868,19,32765
1.68348,-0.0760097,-0.2239,19,32765
1.68325,-0.0817704,-0.223564,19,32765
1.67305,-0.0870633,-0.222307,19,32765
1.68265,-0.0933926,-0.223515,20,32765
1.67242,-0.0985848,-0.222235,20,32765
1.67211,-0.104234,-0.222035,20,32765
1.68164,-0.110573,-0.223311,20,32765
1.66149,-0.114879,-0.220589,19,32765
1.66111,-0.120537,-0.220401,19,32765
1.70022,-0.129216,-0.225725,19,32765
1.66024,-0.132046,-0.220404,18,32765
