x, y, z, intensity, ring
3.66602,0.608284,-0.321217,17,32765
3.67787,0.597223,-0.322753,18,32765
3.67983,0.584583,-0.323594,19,32765
3.68169,0.57201,-0.324948,18,32765
3.65407,0.55495,-0.322348,18,32765
3.61642,0.536471,-0.320307,18,32765
3.67735,0.532578,-0.326162,18,32765
3.64945,0.515861,-0.324607,18,32765
3.70044,0.510386,-0.329803,19,32765
3.60333,0.484733,-0.321789,18,32765
3.6444,0.477729,-0.32594,18,32765
3.64594,0.465318,-0.326687,20,32765
3.5486,0.440498,-0.318554,17,32765
3.67856,0.44384,-0.331082,19,32765
3.57117,0.41868,-0.321789,19,32765
3.63188,0.413417,-0.327757,19,32765
3.55397,0.392548,-0.321462,18,32765
3.21851,0.344588,-0.291517,15,32765
2.97193,0.308084,-0.269665,15,32765
2.95309,0.296009,-0.268412,14,32765
2.92428,0.283093,-0.266314,12,32765
2.89544,0.27044,-0.263989,12,32765
2.92605,0.263381,-0.267117,13,32765
2.97648,0.257813,-0.272167,13,32765
2.93762,0.244632,-0.268592,13,32765
2.84903,0.227621,-0.261019,13,32765
2.81003,0.215092,-0.25762,12,32765
2.72131,0.199115,-0.249869,12,32765
2.79148,0.194915,-0.256438,11,32765
0,0,-0,0,32765
2.63366,0.166192,-0.242291,11,32765
0,0,-0,0,32765
2.32648,0.131227,-0.214171,12,32765
2.37659,0.126111,-0.219099,13,32765
2.23778,0.111303,-0.206062,15,32765
2.25801,0.10474,-0.208145,16,32765
2.21856,0.0955123,-0.20435,16,32765
2.27856,0.0904927,-0.209929,15,32765
2.14948,0.0781266,-0.198116,16,32765
2.10993,0.0696703,-0.194241,17,32765
2.08029,0.0617902,-0.191521,17,32765
2.05064,0.0542051,-0.188538,19,32765
2.05081,0.047424,-0.188521,19,32765
2.06091,0.0407532,-0.189406,18,32765
2.02124,0.0331683,-0.185442,18,32765
2.04126,0.0267062,-0.18725,19,32765
2.02144,0.0198106,-0.185164,19,32765
2.03147,0.0133025,-0.185857,19,32765
2.01162,0.00656678,-0.1837,19,32765
2.01167,-8.98355e-05,-0.183303,18,32765
1.98181,-0.00672943,-0.180224,19,32765
1.9918,-0.0132895,-0.18046,18,32765
1.96193,-0.019551,-0.177006,20,32765
1.94201,-0.0257048,-0.174488,19,32765
3.76782,1.26554,-0.349292,19,32765
3.81926,1.26887,-0.353307,20,32765
3.76656,1.23777,-0.348346,19,32765
3.75174,1.21911,-0.346157,19,32765
3.75577,1.20659,-0.346368,19,32765
3.76922,1.19703,-0.347896,20,32765
3.77314,1.18458,-0.347983,20,32765
3.83403,1.18989,-0.353903,20,32765
3.7522,1.15099,-0.346172,19,32765
3.73689,1.13282,-0.344632,20,32765
3.72158,1.11442,-0.343417,19,32765
3.73481,1.10478,-0.344602,20,32765
3.75758,1.09771,-0.347161,21,32765
3.75169,1.08211,-0.346759,20,32765
3.76485,1.0722,-0.348155,21,32765
3.79717,1.06748,-0.351603,21,32765
3.7335,1.03602,-0.346015,21,32765
3.76576,1.03126,-0.34916,21,32765
3.73064,1.00828,-0.346541,21,32765
3.72438,0.993087,-0.345978,20,32765
3.70836,0.97538,-0.345279,20,32765
3.71166,0.96265,-0.345518,20,32765
3.70522,0.947388,-0.345566,20,32765
3.70834,0.934721,-0.346583,21,32765
3.70176,0.919808,-0.346189,21,32765
3.68541,0.902601,-0.345254,19,32765
3.69805,0.892475,-0.346815,21,32765
3.66226,0.870665,-0.343844,20,32765
3.64579,0.853481,-0.342637,20,32765
3.73595,0.860984,-0.351949,21,32765
3.65143,0.828227,-0.344567,21,32765
3.70273,0.826718,-0.349893,22,32765
3.61792,0.794933,-0.342201,19,32765
3.66921,0.793052,-0.347678,20,32765
3.63283,0.772243,-0.345116,21,32765
3.6159,0.755649,-0.343991,20,32765
3.66719,0.753204,-0.349275,21,32765
3.6404,0.734544,-0.347612,21,32765
3.64286,0.721939,-0.348236,21,32765
3.61592,0.703786,-0.346131,21,32765
3.61822,0.691427,-0.346983,22,32765
3.61071,0.677326,-0.346575,21,32765
3.61286,0.6651,-0.347783,21,32765
3.52683,0.636907,-0.340287,20,32765
3.56813,0.631947,-0.34453,21,32765
3.57016,0.619719,-0.345664,21,32765
3.53294,0.600743,-0.342713,21,32765
3.57419,0.594951,-0.347611,21,32765
3.53686,0.576175,-0.344442,20,32765
3.58789,0.571819,-0.350048,21,32765
3.51102,0.547263,-0.343668,20,32765
3.55224,0.541237,-0.347528,21,32765
3.55395,0.528924,-0.348938,22,32765
3.5557,0.516646,-0.349538,21,32765
3.51793,0.498903,-0.346697,21,32765
3.49979,0.484304,-0.345521,20,32765
3.55064,0.479226,-0.351158,22,32765
3.56205,0.468487,-0.352746,21,32765
3.52407,0.451267,-0.349561,21,32765
3.52553,0.439104,-0.350278,21,32765
3.48741,0.422197,-0.347296,21,32765
3.5283,0.415058,-0.351724,21,32765
3.49008,0.39863,-0.34838,21,32765
3.49131,0.386951,-0.349215,20,32765
3.35402,0.360337,-0.335887,19,32765
3.24628,0.337695,-0.325615,18,32765
2.89093,0.290794,-0.290411,16,32765
2.88194,0.279979,-0.290013,15,32765
2.84321,0.266506,-0.286404,13,32765
2.81432,0.254233,-0.283811,14,32765
2.85477,0.248166,-0.28831,13,32765
2.86549,0.239497,-0.289365,13,32765
2.82655,0.226659,-0.285949,14,32765
2.73798,0.21036,-0.277152,16,32765
2.67909,0.196768,-0.271563,14,32765
2.58047,0.180872,-0.261678,12,32765
0,0,-0,0,32765
2.65108,0.167951,-0.269181,12,32765
2.65162,0.159103,-0.269281,12,32765
2.374,0.134455,-0.241182,15,32765
2.22537,0.11858,-0.226375,14,32765
2.19597,0.10969,-0.223145,15,32765
2.20624,0.102787,-0.2244,17,32765
2.22646,0.0962845,-0.226295,17,32765
2.20688,0.0880541,-0.224353,17,32765
2.21709,0.0809741,-0.225472,17,32765
2.108,0.0699575,-0.214144,18,32765
2.09827,0.0626549,-0.213163,19,32765
2.02887,0.053931,-0.20586,18,32765
1.98925,0.0462781,-0.201807,20,32765
1.9894,0.0395984,-0.201779,20,32765
2.0194,0.0333824,-0.204501,19,32765
1.96976,0.0259913,-0.199446,20,32765
1.97981,0.0196062,-0.2002,20,32765
1.95003,0.0129524,-0.196972,20,32765
1.96005,0.00656482,-0.197651,20,32765
1.95015,6.06318e-05,-0.196263,19,32765
1.93027,-0.00642604,-0.193913,19,32765
1.93031,-0.0127685,-0.193264,20,32765
1.92038,-0.0190444,-0.191537,20,32765
1.92038,-0.0253435,-0.190824,20,32765
3.93085,1.3164,-0.347978,18,32765
3.87817,1.28461,-0.34576,17,32765
3.82535,1.25312,-0.343494,17,32765
3.81027,1.23441,-0.344256,18,32765
3.85209,1.23389,-0.35001,17,32765
3.84652,1.21789,-0.351506,17,32765
3.77431,1.18123,-0.346704,17,32765
3.78754,1.17163,-0.349617,18,32765
3.77215,1.15329,-0.349838,17,32765
3.80432,1.14955,-0.354676,19,32765
3.77927,1.12849,-0.353875,18,32765
3.74463,1.10468,-0.351855,18,32765
3.73854,1.08938,-0.353082,19,32765
3.77076,1.08508,-0.357138,20,32765
3.74545,1.06425,-0.356518,19,32765
3.75848,1.05405,-0.359476,19,32765
3.77151,1.04394,-0.361659,18,32765
3.72685,1.01801,-0.358672,18,32765
3.74932,1.01067,-0.362181,17,32765
3.78137,1.0059,-0.366525,19,32765
3.78457,0.993244,-0.36794,18,32765
3.74918,0.970574,-0.365741,17,32765
3.67512,0.938193,-0.359666,17,32765
3.70713,0.932924,-0.363892,17,32765
3.70046,0.917957,-0.364453,18,32765
3.7325,0.912244,-0.368586,18,32765
3.68704,0.887918,-0.365262,18,32765
3.72866,0.884555,-0.37035,18,32765
3.65396,0.853837,-0.363874,18,32765
3.67605,0.84614,-0.367137,17,32765
3.67874,0.833841,-0.368369,18,32765
3.68136,0.821589,-0.369707,18,32765
3.60629,0.791964,-0.362711,19,32765
3.66726,0.792159,-0.369573,18,32765
3.59199,0.762951,-0.362775,18,32765
3.68217,0.768905,-0.372539,19,32765
3.61639,0.742493,-0.366823,18,32765
3.61875,0.73036,-0.367883,20,32765
3.62109,0.718024,-0.369072,19,32765
3.61365,0.7039,-0.368833,19,32765
3.61595,0.691501,-0.369727,20,32765
3.55952,0.668081,-0.36484,18,32765
3.5813,0.659461,-0.367423,19,32765
3.57363,0.645386,-0.367662,19,32765
3.56593,0.631576,-0.367262,19,32765
3.54835,0.615956,-0.366374,19,32765
3.53073,0.600689,-0.364899,18,32765
3.53266,0.588719,-0.365714,19,32765
3.57379,0.583113,-0.370917,19,32765
3.53642,0.564657,-0.367326,19,32765
3.54808,0.553979,-0.369283,18,32765
3.52037,0.537196,-0.367158,19,32765
3.53199,0.52647,-0.368768,18,32765
3.53369,0.514243,-0.369745,19,32765
3.51566,0.499429,-0.368277,17,32765
3.50743,0.485953,-0.36799,18,32765
3.52866,0.476736,-0.371039,19,32765
3.53025,0.464745,-0.371096,19,32765
3.51197,0.450119,-0.370226,18,32765
3.44431,0.429683,-0.363591,18,32765
3.5543,0.431103,-0.375622,19,32765
3.47664,0.409842,-0.368017,18,32765
3.56683,0.408355,-0.378223,18,32765
3.48904,0.387417,-0.370704,17,32765
3.45073,0.371312,-0.367008,17,32765
3.3431,0.348115,-0.356258,16,32765
2.93852,0.295967,-0.313708,15,32765
2.91965,0.284088,-0.312114,13,32765
2.87104,0.269532,-0.307349,13,32765
2.87187,0.259922,-0.307909,13,32765
2.91226,0.253533,-0.313143,13,32765
2.87342,0.240325,-0.309314,14,32765
2.87415,0.230551,-0.309977,15,32765
2.77573,0.213152,-0.299839,15,32765
2.75655,0.202296,-0.298138,14,32765
2.68775,0.188067,-0.291129,13,32765
0,0,-0,0,32765
2.51022,0.158714,-0.27297,12,32765
2.50078,0.149653,-0.272232,13,32765
2.43172,0.13743,-0.265269,14,32765
0,0,-0,0,32765
2.32328,0.115637,-0.254194,15,32765
2.23421,0.103757,-0.245019,16,32765
2.24442,0.0966763,-0.246606,16,32765
2.25459,0.0895931,-0.24835,17,32765
2.22504,0.0809225,-0.245486,16,32765
2.08616,0.0688381,-0.230609,16,32765
2.11614,0.0628455,-0.234323,17,32765
2.0666,0.0544342,-0.229355,18,32765
2.02696,0.0466537,-0.225541,19,32765
2.03698,0.0400734,-0.227132,19,32765
2.01718,0.032953,-0.225352,19,32765
2.0371,0.026459,-0.22809,18,32765
2.02717,0.0195591,-0.227605,19,32765
2.0073,0.0128309,-0.225814,18,32765
1.99732,0.00614244,-0.2253,19,32765
2.00717,-0.000420713,-0.22731,18,32765
1.96738,-0.00685535,-0.22313,18,32765
2.007,-0.0135914,-0.228382,19,32765
1.96711,-0.019733,-0.224699,19,32765
1.95703,-0.0261307,-0.224156,18,32765
3.747,1.25881,-0.369199,21,32765
3.73198,1.24011,-0.370039,20,32765
3.69799,1.21524,-0.368996,20,32765
3.73014,1.21228,-0.374242,21,32765
3.71497,1.19375,-0.374592,21,32765
3.74722,1.19022,-0.379759,21,32765
3.675,1.15381,-0.374157,21,32765
3.67862,1.14156,-0.376141,20,32765
3.6917,1.13229,-0.379053,21,32765
3.65709,1.10858,-0.377251,20,32765
3.67007,1.09937,-0.380049,21,32765
3.65447,1.08152,-0.379595,21,32765
3.6483,1.06648,-0.38068,21,32765
3.5657,1.02935,-0.372989,20,32765
3.60721,1.02825,-0.379013,20,32765
3.63926,1.02389,-0.384014,21,32765
3.62342,1.00616,-0.383212,20,32765
3.60747,0.988556,-0.382751,20,32765
3.64902,0.986789,-0.388441,20,32765
3.58485,0.95668,-0.382766,20,32765
3.52056,0.926924,-0.376901,19,32765
3.59089,0.932587,-0.385594,19,32765
3.53607,0.9056,-0.380786,21,32765
3.54865,0.895918,-0.383161,21,32765
3.58047,0.891055,-0.387747,21,32765
3.55443,0.871528,-0.385832,20,32765
3.51856,0.850082,-0.383025,20,32765
3.55033,0.844976,-0.387378,20,32765
3.56273,0.835214,-0.389625,21,32765
3.50722,0.809898,-0.384547,20,32765
3.53887,0.804745,-0.388921,20,32765
3.5317,0.790753,-0.389141,20,32765
3.53429,0.778681,-0.389936,21,32765
3.52713,0.764376,-0.389825,20,32765
3.48103,0.741798,-0.38547,19,32765
3.51266,0.735908,-0.389577,21,32765
3.48579,0.718025,-0.387482,21,32765
3.45884,0.700379,-0.38525,20,32765
3.48058,0.692434,-0.388566,22,32765
3.51209,0.686372,-0.392568,22,32765
3.49481,0.670541,-0.391253,21,32765
3.4579,0.651158,-0.38796,21,32765
3.46006,0.63925,-0.388521,20,32765
3.49145,0.632643,-0.39303,22,32765
3.45436,0.613856,-0.389217,21,32765
3.44653,0.600282,-0.389214,20,32765
3.41908,0.583645,-0.386431,20,32765
3.44056,0.575299,-0.389441,20,32765
3.45219,0.56517,-0.391653,21,32765
3.42461,0.548654,-0.388787,19,32765
3.46565,0.542947,-0.394159,20,32765
3.39865,0.520388,-0.387256,21,32765
3.38072,0.505645,-0.385578,19,32765
3.44134,0.502523,-0.393257,21,32765
3.40362,0.485179,-0.389338,20,32765
3.38551,0.470685,-0.387808,20,32765
3.38698,0.459185,-0.388751,20,32765
3.36882,0.44504,-0.386547,21,32765
3.43917,0.442337,-0.395638,21,32765
3.37156,0.422092,-0.388336,21,32765
3.42224,0.416557,-0.394564,20,32765
3.4334,0.40619,-0.396436,20,32765
3.30635,0.379893,-0.382366,20,32765
3.36678,0.375193,-0.390049,20,32765
3.32847,0.35946,-0.385961,20,32765
3.31972,0.346948,-0.385629,21,32765
3.16265,0.319719,-0.367982,18,32765
2.92638,0.285804,-0.340905,17,32765
2.98661,0.281436,-0.348361,14,32765
2.90833,0.264222,-0.339702,14,32765
2.88932,0.252501,-0.338371,15,32765
2.89011,0.242659,-0.338806,14,32765
2.81164,0.226422,-0.330173,14,32765
2.74301,0.211477,-0.32258,14,32765
2.79319,0.205811,-0.32885,13,32765
2.65511,0.186544,-0.313017,13,32765
2.62594,0.175628,-0.310027,13,32765
2.57687,0.163618,-0.304884,13,32765
2.43859,0.146561,-0.288801,22,32765
2.38942,0.135635,-0.28352,12,32765
0,0,-0,0,32765
2.26125,0.11307,-0.26904,14,32765
2.25162,0.105063,-0.268467,17,32765
2.18246,0.0944693,-0.260672,17,32765
2.19261,0.0875741,-0.262493,17,32765
2.19284,0.0801753,-0.262906,17,32765
2.15335,0.0714511,-0.258628,17,32765
2.1039,0.0628498,-0.253087,18,32765
2.08419,0.0552425,-0.251237,18,32765
2.01481,0.0466893,-0.243455,18,32765
1.99504,0.0395421,-0.241532,19,32765
2.02489,0.0333584,-0.245575,20,32765
1.98522,0.026041,-0.241265,20,32765
1.9753,0.019295,-0.24067,20,32765
1.96537,0.0127804,-0.239892,20,32765
1.94548,0.00618061,-0.238057,20,32765
1.91561,-0.00022399,-0.235263,20,32765
1.95526,-0.00664971,-0.240458,19,32765
1.95514,-0.0130943,-0.241183,20,32765
1.92521,-0.0191861,-0.238332,20,32765
1.92506,-0.0255949,-0.238914,20,32765
3.68389,1.24161,-0.418918,18,32765
3.65031,1.21674,-0.414333,18,32765
3.65429,1.20461,-0.41472,19,32765
3.65822,1.19254,-0.41494,18,32765
3.64318,1.17429,-0.413212,18,32765
3.65657,1.16494,-0.41474,18,32765
3.63197,1.14365,-0.412,17,32765
3.65473,1.1372,-0.415034,19,32765
3.59201,1.10435,-0.407785,18,32765
3.68123,1.11831,-0.418147,18,32765
3.55158,1.06589,-0.403829,17,32765
3.5455,1.05109,-0.403765,18,32765
3.63483,1.0642,-0.41425,19,32765
3.6765,1.06292,-0.419617,18,32765
3.5844,1.02324,-0.409384,18,32765
3.5495,1.00024,-0.405785,19,32765
3.5432,0.985545,-0.405502,17,32765
3.57511,0.981596,-0.409794,17,32765
3.55909,0.964305,-0.408768,19,32765
3.53341,0.944677,-0.406158,17,32765
3.575,0.942665,-0.411245,19,32765
3.59731,0.935433,-0.414611,19,32765
3.52335,0.903407,-0.406783,18,32765
3.55523,0.898646,-0.410969,18,32765
3.55816,0.886753,-0.411447,18,32765
3.53206,0.867502,-0.409352,18,32765
3.4962,0.846322,-0.405845,18,32765
3.50857,0.836849,-0.408099,17,32765
3.51134,0.824863,-0.408676,18,32765
3.53344,0.817112,-0.41186,18,32765
3.5168,0.80018,-0.410787,18,32765
3.51943,0.787996,-0.411816,19,32765
3.5317,0.777994,-0.41402,17,32765
3.4857,0.755392,-0.409145,18,32765
3.41041,0.726988,-0.400869,17,32765
3.50027,0.733657,-0.412152,18,32765
3.54158,0.729711,-0.417526,19,32765
3.4368,0.695901,-0.406211,18,32765
3.43908,0.684224,-0.406766,18,32765
3.45104,0.674344,-0.40891,19,32765
3.47274,0.666147,-0.412207,19,32765
3.43586,0.646913,-0.408333,18,32765
3.43791,0.635172,-0.409583,18,32765
3.44974,0.625244,-0.411456,19,32765
3.42243,0.608306,-0.408604,18,32765
3.41462,0.594747,-0.408326,19,32765
3.39696,0.579721,-0.406839,19,32765
3.41841,0.571324,-0.4101,17,32765
3.46925,0.567554,-0.416841,18,32765
3.43188,0.54942,-0.41269,18,32765
3.41403,0.534461,-0.411274,18,32765
3.35684,0.51385,-0.404928,19,32765
3.42727,0.512471,-0.413866,19,32765
3.38961,0.494898,-0.410038,19,32765
3.39121,0.483253,-0.410684,19,32765
3.38291,0.470208,-0.410356,19,32765
3.37459,0.45747,-0.409555,18,32765
3.36618,0.444813,-0.409092,18,32765
3.36759,0.433445,-0.409723,19,32765
3.34925,0.419654,-0.407967,19,32765
3.35061,0.408213,-0.408394,19,32765
3.33219,0.394435,-0.40659,18,32765
3.35319,0.385379,-0.409421,19,32765
3.34455,0.372932,-0.408638,19,32765
3.28654,0.355286,-0.401647,18,32765
3.3074,0.34609,-0.404793,19,32765
3.14065,0.317795,-0.384334,17,32765
2.94405,0.287728,-0.360796,16,32765
2.93514,0.276676,-0.359554,14,32765
2.97557,0.270352,-0.36471,13,32765
2.96656,0.259359,-0.363652,14,32765
2.87837,0.241809,-0.353027,13,32765
2.86925,0.231293,-0.352046,14,32765
2.75123,0.212416,-0.33765,14,32765
2.75189,0.203161,-0.337973,12,32765
2.72285,0.191775,-0.334343,12,32765
2.82252,0.189218,-0.346508,12,32765
2.79343,0.17786,-0.342798,13,32765
2.5463,0.153507,-0.312559,19,32765
2.60623,0.148521,-0.319993,11,32765
2.30938,0.123881,-0.283399,12,32765
2.29985,0.115713,-0.282303,14,32765
2.23085,0.10477,-0.273586,15,32765
2.22126,0.0968641,-0.27242,15,32765
2.25136,0.090602,-0.27584,16,32765
2.18221,0.0804682,-0.267371,15,32765
2.25193,0.0754634,-0.275686,17,32765
2.15298,0.0648528,-0.263368,16,32765
2.08373,0.0557098,-0.254844,16,32765
2.07405,0.0485778,-0.253095,18,32765
2.04443,0.0410139,-0.249431,18,32765
2.02473,0.0339111,-0.246804,18,32765
2.05463,0.0276565,-0.250246,18,32765
2.01503,0.0204829,-0.245242,19,32765
2.04493,0.0140587,-0.248308,19,32765
1.97551,0.00692894,-0.239574,18,32765
2.01529,0.000386912,-0.243921,18,32765
2.00539,-0.00622579,-0.242443,18,32765
1.96572,-0.0126772,-0.236993,18,32765
1.98558,-0.0194809,-0.238945,19,32765
1.97567,-0.026058,-0.236972,19,32765
3.5282,1.19313,-0.436728,20,32765
3.52279,1.17817,-0.435279,20,32765
3.53608,1.16954,-0.43682,20,32765
3.51159,1.14856,-0.433541,20,32765
3.52479,1.13993,-0.435113,20,32765
3.53806,1.13095,-0.436723,21,32765
3.46604,1.09505,-0.427846,20,32765
3.55497,1.10986,-0.439229,20,32765
3.5397,1.09191,-0.437184,20,32765
3.53378,1.0771,-0.436642,20,32765
3.48025,1.04797,-0.430395,20,32765
3.48364,1.03621,-0.431399,21,32765
3.50612,1.02995,-0.434452,21,32765
3.50948,1.01802,-0.435426,21,32765
3.50327,1.00342,-0.434897,20,32765
3.46836,0.980648,-0.430911,21,32765
3.49071,0.974191,-0.434087,21,32765
3.47468,0.957214,-0.432688,20,32765
3.44902,0.937613,-0.43025,21,32765
3.51919,0.944026,-0.439312,22,32765
3.52234,0.931892,-0.439978,21,32765
3.42932,0.894739,-0.429093,21,32765
3.42262,0.880526,-0.428905,20,32765
3.45438,0.87609,-0.43335,19,32765
3.39946,0.850052,-0.426567,20,32765
3.43111,0.845545,-0.431409,20,32765
3.43381,0.834021,-0.432362,21,32765
3.48474,0.833969,-0.439562,22,32765
3.41021,0.803813,-0.430384,20,32765
3.42255,0.794146,-0.432509,21,32765
3.40586,0.777561,-0.431215,21,32765
3.41809,0.767903,-0.433442,21,32765
3.39153,0.749653,-0.430788,20,32765
3.35519,0.729582,-0.426649,20,32765
3.37695,0.722309,-0.429951,20,32765
3.32102,0.698463,-0.423494,20,32765
3.36217,0.695114,-0.429204,21,32765
3.34493,0.679619,-0.427993,20,32765
3.34715,0.668221,-0.428535,21,32765
3.32983,0.652899,-0.427003,20,32765
3.35144,0.645096,-0.430455,21,32765
3.31454,0.626228,-0.426182,21,32765
3.33602,0.618485,-0.429904,22,32765
3.30875,0.601774,-0.426816,21,32765
3.2814,0.585272,-0.423659,20,32765
3.31261,0.578996,-0.428307,21,32765
3.33403,0.570976,-0.431673,20,32765
3.29673,0.552925,-0.427495,21,32765
3.25936,0.535098,-0.423236,20,32765
3.28069,0.527075,-0.426314,20,32765
3.32158,0.521835,-0.432323,23,32765
3.28403,0.504497,-0.427953,21,32765
3.29549,0.494531,-0.429856,21,32765
3.29707,0.483118,-0.430749,20,32765
3.27899,0.46895,-0.428811,21,32765
3.28048,0.457626,-0.429649,21,32765
3.27214,0.445198,-0.428745,21,32765
3.27353,0.434154,-0.429457,21,32765
3.2749,0.423068,-0.430073,21,32765
3.24671,0.408313,-0.42682,20,32765
3.27756,0.400801,-0.431119,21,32765
3.27883,0.389574,-0.43171,21,32765
3.21114,0.370447,-0.423043,20,32765
3.23203,0.361755,-0.426047,20,32765
3.26277,0.354067,-0.430185,21,32765
3.27373,0.343889,-0.432212,21,32765
3.24529,0.32966,-0.428393,20,32765
2.97003,0.291406,-0.392575,20,32765
2.89206,0.273694,-0.382112,19,32765
2.9028,0.264795,-0.383722,18,32765
2.95305,0.259221,-0.390402,17,32765
2.95387,0.249167,-0.390696,16,32765
2.98431,0.241564,-0.394858,17,32765
2.92579,0.22684,-0.387197,15,32765
2.81773,0.208906,-0.37314,14,32765
2.70964,0.191668,-0.358755,12,32765
2.73995,0.184488,-0.36269,13,32765
2.80982,0.179702,-0.371794,12,32765
2.5432,0.154018,-0.336599,13,32765
2.52388,0.144496,-0.334113,14,32765
2.29668,0.123785,-0.303885,15,32765
2.22775,0.112633,-0.294834,14,32765
2.18853,0.103298,-0.289397,15,32765
2.20867,0.096814,-0.292067,16,32765
2.14958,0.0869705,-0.28399,17,32765
2.2093,0.081923,-0.29188,18,32765
2.16995,0.0731427,-0.28646,18,32765
2.18012,0.0660774,-0.287593,17,32765
2.14069,0.0576116,-0.282335,17,32765
2.07156,0.048866,-0.272651,19,32765
2.01224,0.0406853,-0.264793,20,32765
2.00248,0.0338348,-0.263287,20,32765
1.98278,0.0269639,-0.2605,20,32765
1.98288,0.0204119,-0.260334,20,32765
1.98301,0.0138696,-0.259793,20,32765
1.96325,0.00710107,-0.256901,20,32765
1.95341,0.000570236,-0.255149,20,32765
1.95343,-0.00588787,-0.25488,19,32765
1.93365,-0.0123145,-0.251654,19,32765
1.91383,-0.0186413,-0.248647,20,32765
1.93368,-0.0253863,-0.250462,19,32765
3.60592,1.21598,-0.433152,18,32765
3.57178,1.19163,-0.431845,18,32765
3.54703,1.17067,-0.430953,18,32765
3.63553,1.1866,-0.444323,18,32765
3.5351,1.14105,-0.434324,17,32765
3.5291,1.12628,-0.435683,18,32765
3.57039,1.12659,-0.442727,18,32765
3.54537,1.10589,-0.441503,18,32765
3.54874,1.09408,-0.443916,17,32765
3.5616,1.08523,-0.446958,19,32765
3.49845,1.05313,-0.440662,19,32765
3.53979,1.05259,-0.44757,17,32765
3.51458,1.03199,-0.445892,18,32765
3.52742,1.02256,-0.44906,19,32765
3.4925,0.999627,-0.445855,18,32765
3.48606,0.984978,-0.446897,19,32765
3.47961,0.970458,-0.447322,18,32765
3.47305,0.956102,-0.447962,19,32765
3.41863,0.928767,-0.441872,17,32765
3.50775,0.940478,-0.454751,18,32765
3.49156,0.923469,-0.453678,19,32765
3.43679,0.896751,-0.447986,17,32765
3.478,0.89528,-0.454282,18,32765
3.44238,0.873771,-0.450466,18,32765
3.44509,0.862217,-0.452061,18,32765
3.41895,0.843105,-0.449912,18,32765
3.41203,0.828942,-0.450034,18,32765
3.37615,0.807965,-0.445895,18,32765
3.34978,0.789525,-0.443282,18,32765
3.40057,0.789362,-0.450995,17,32765
3.35479,0.766616,-0.445608,18,32765
3.42493,0.770392,-0.455985,17,32765
3.34997,0.74158,-0.446497,18,32765
3.31361,0.721571,-0.442403,18,32765
3.40317,0.72891,-0.455215,18,32765
3.35704,0.706737,-0.449897,19,32765
3.31081,0.685058,-0.444193,18,32765
3.38102,0.687486,-0.454423,19,32765
3.30547,0.660274,-0.44485,19,32765
3.31735,0.65084,-0.446855,19,32765
3.31944,0.639472,-0.447744,20,32765
3.29224,0.622641,-0.444867,18,32765
3.34298,0.620516,-0.452064,20,32765
3.35474,0.610837,-0.454081,19,32765
3.29816,0.588804,-0.447038,17,32765
3.33914,0.584249,-0.453011,19,32765
3.33126,0.571051,-0.452447,19,32765
3.35263,0.563076,-0.455738,19,32765
3.28602,0.540354,-0.446837,17,32765
3.30736,0.532222,-0.450034,18,32765
3.31893,0.522078,-0.451905,20,32765
3.28147,0.504416,-0.447217,18,32765
3.30273,0.496029,-0.450366,19,32765
3.24548,0.476188,-0.442964,19,32765
3.32549,0.476414,-0.454175,18,32765
3.31724,0.4636,-0.453178,18,32765
3.29911,0.44936,-0.45116,19,32765
3.28096,0.435252,-0.44884,18,32765
3.22338,0.41629,-0.441503,18,32765
3.29354,0.413964,-0.451333,18,32765
3.23586,0.395582,-0.443683,18,32765
3.25681,0.386916,-0.446724,18,32765
3.25801,0.375908,-0.447409,18,32765
3.24939,0.363621,-0.446395,18,32765
3.23083,0.350357,-0.444287,17,32765
3.29106,0.345407,-0.452996,18,32765
3.27248,0.332062,-0.450599,18,32765
3.04678,0.298678,-0.419561,20,32765
3.00823,0.284551,-0.414843,19,32765
3.17683,0.289719,-0.438414,17,32765
3.2369,0.284147,-0.447405,17,32765
3.1489,0.265676,-0.435855,18,32765
3.209,0.259902,-0.444122,17,32765
2.86412,0.222172,-0.396819,14,32765
2.73636,0.202939,-0.379563,12,32765
2.80615,0.198538,-0.389476,12,32765
0,0,-0,0,32765
2.66892,0.170732,-0.371121,12,32765
2.71882,0.164794,-0.378608,11,32765
2.37321,0.135906,-0.330787,13,32765
2.32412,0.125296,-0.324443,12,32765
2.2651,0.114421,-0.316723,13,32765
2.23575,0.105386,-0.31288,15,32765
2.22614,0.0973675,-0.311985,15,32765
2.20659,0.0890654,-0.309756,16,32765
2.20679,0.0816389,-0.310329,16,32765
2.23665,0.075201,-0.315151,16,32765
2.23681,0.0677717,-0.315708,16,32765
2.0786,0.0560406,-0.293744,16,32765
2.07871,0.049161,-0.294175,18,32765
2.07875,0.0420878,-0.29498,19,32765
2.02933,0.0342147,-0.288352,19,32765
2.03926,0.0275211,-0.290245,19,32765
2.01944,0.0205232,-0.288178,19,32765
2.0293,0.0139911,-0.290281,18,32765
2.01935,0.00727942,-0.289411,18,32765
2.01925,0.000631447,-0.290229,18,32765
2.00924,-0.00605868,-0.289546,18,32765
1.97939,-0.0126237,-0.286075,18,32765
1.97921,-0.0192429,-0.286996,18,32765
1.96912,-0.0256447,-0.286389,18,32765
3.46905,1.1738,-0.451682,20,32765
3.52892,1.18133,-0.462209,19,32765
3.43823,1.13863,-0.452336,19,32765
3.42277,1.12097,-0.452738,19,32765
3.48274,1.12799,-0.462881,20,32765
3.41057,1.09217,-0.455285,20,32765
3.39494,1.0749,-0.455022,20,32765
3.43606,1.07546,-0.462323,21,32765
3.42037,1.05812,-0.462106,21,32765
3.36672,1.02936,-0.456183,20,32765
3.41739,1.03226,-0.464611,21,32765
3.3921,1.01213,-0.462773,21,32765
3.41434,1.00601,-0.467246,20,32765
3.37948,0.983051,-0.463921,20,32765
3.40165,0.97698,-0.468145,21,32765
3.36653,0.954489,-0.465085,21,32765
3.36,0.940334,-0.465364,20,32765
3.39157,0.936898,-0.471158,21,32765
3.34673,0.912379,-0.465813,20,32765
3.33996,0.898594,-0.466141,20,32765
3.36197,0.89228,-0.470176,20,32765
3.32636,0.870951,-0.466549,20,32765
3.29068,0.850006,-0.462395,19,32765
3.29338,0.83886,-0.46355,19,32765
3.25753,0.818119,-0.459655,20,32765
3.30823,0.818649,-0.468023,20,32765
3.30123,0.804829,-0.468011,19,32765
3.34238,0.802686,-0.474408,20,32765
3.28712,0.777473,-0.467394,19,32765
3.30886,0.770771,-0.471428,21,32765
3.26309,0.748283,-0.46555,21,32765
3.2268,0.728382,-0.461351,21,32765
3.23882,0.719507,-0.463524,20,32765
3.27984,0.716744,-0.470119,22,32765
3.25308,0.699232,-0.467079,23,32765
3.29411,0.695952,-0.473787,21,32765
3.26731,0.678462,-0.470396,21,32765
3.26948,0.667178,-0.471473,21,32765
3.20369,0.64223,-0.462529,20,32765
3.20578,0.631204,-0.463205,21,32765
3.24669,0.627703,-0.469691,21,32765
3.22921,0.61292,-0.467923,21,32765
3.27012,0.609184,-0.474165,22,32765
3.26235,0.596165,-0.473436,23,32765
3.22529,0.577886,-0.468643,21,32765
3.21743,0.565004,-0.467887,21,32765
3.25828,0.560582,-0.474304,22,32765
3.21127,0.54131,-0.467817,19,32765
3.26188,0.538355,-0.475325,21,32765
3.21478,0.519233,-0.468734,20,32765
3.20674,0.506298,-0.467833,19,32765
3.20841,0.495019,-0.468464,21,32765
3.19046,0.480957,-0.466072,20,32765
3.1822,0.468655,-0.465249,20,32765
3.18371,0.457822,-0.465734,21,32765
3.16562,0.444084,-0.463197,20,32765
3.15725,0.431674,-0.4624,20,32765
3.18812,0.424554,-0.467065,21,32765
3.17965,0.412223,-0.466346,20,32765
3.15153,0.397648,-0.46242,19,32765
3.16262,0.388136,-0.464285,20,32765
3.18353,0.379692,-0.467506,20,32765
3.17487,0.367762,-0.466733,20,32765
3.2154,0.361249,-0.472848,20,32765
3.08866,0.336282,-0.454623,20,32765
3.16845,0.333882,-0.466767,20,32765
3.14001,0.319919,-0.462722,19,32765
3.13121,0.308218,-0.461457,20,32765
3.17153,0.301245,-0.468014,20,32765
3.14291,0.287829,-0.464099,20,32765
3.09447,0.272799,-0.457611,19,32765
3.13471,0.265617,-0.464165,19,32765
3.12571,0.25426,-0.462773,19,32765
3.0673,0.238985,-0.454579,18,32765
2.72273,0.202835,-0.403951,14,32765
2.67403,0.190053,-0.396939,14,32765
2.66471,0.180265,-0.39604,11,32765
2.67513,0.171939,-0.397788,11,32765
2.60649,0.158748,-0.388103,11,32765
2.4687,0.142073,-0.367902,12,32765
2.39006,0.129504,-0.356693,12,32765
2.19285,0.111349,-0.327761,14,32765
2.2228,0.105339,-0.332496,15,32765
2.19343,0.0964715,-0.328545,17,32765
2.16402,0.0878535,-0.324639,18,32765
2.19387,0.0816525,-0.329656,18,32765
2.14462,0.0725664,-0.322853,18,32765
2.15465,0.0657236,-0.324877,19,32765
2.20422,0.0598574,-0.33274,16,32765
2.07584,0.0494778,-0.313773,16,32765
2.03633,0.0415866,-0.308585,18,32765
1.99686,0.0339982,-0.302983,19,32765
1.987,0.0271258,-0.301957,20,32765
1.99686,0.0205862,-0.304202,20,32765
1.96715,0.0138323,-0.300354,19,32765
1.96711,0.00734199,-0.300886,19,32765
1.967,0.000847469,-0.301683,19,32765
1.97676,-0.00574616,-0.303927,19,32765
1.92719,-0.0121001,-0.297115,18,32765
1.94677,-0.0187535,-0.301069,19,32765
1.92681,-0.0249397,-0.298823,20,32765
3.37797,1.14605,-0.485687,19,32765
3.44722,1.15696,-0.497047,18,32765
3.42262,1.13636,-0.493937,18,32765
3.35087,1.10021,-0.484541,18,32765
3.42035,1.11039,-0.495119,18,32765
3.41446,1.09581,-0.495039,17,32765
3.38962,1.07528,-0.492273,19,32765
3.42142,1.07278,-0.497393,19,32765
3.41539,1.05839,-0.496988,19,32765
3.39984,1.04118,-0.495121,18,32765
3.40323,1.02962,-0.495973,18,32765
3.42559,1.02362,-0.49963,17,32765
3.35294,0.989472,-0.489534,17,32765
3.3562,0.977995,-0.49023,17,32765
3.35934,0.966676,-0.491213,18,32765
3.34347,0.949773,-0.489091,17,32765
3.31793,0.93036,-0.486003,17,32765
3.3496,0.927007,-0.490875,18,32765
3.32394,0.907801,-0.487563,16,32765
3.32687,0.896553,-0.488405,17,32765
3.3298,0.88503,-0.489436,17,32765
3.2848,0.861068,-0.483301,17,32765
3.31642,0.857135,-0.488139,17,32765
3.32884,0.848217,-0.490171,18,32765
3.36038,0.844173,-0.495188,18,32765
3.27664,0.811318,-0.483215,17,32765
3.21192,0.783805,-0.47414,17,32765
3.24335,0.779842,-0.47902,18,32765
3.25551,0.771005,-0.481282,18,32765
3.28695,0.766427,-0.486481,19,32765
3.3088,0.759232,-0.4902,19,32765
3.34032,0.753975,-0.495375,19,32765
3.2559,0.722893,-0.48313,18,32765
3.2776,0.715784,-0.486906,19,32765
3.27994,0.704525,-0.487584,19,32765
3.2338,0.68304,-0.481275,19,32765
3.25538,0.675934,-0.484997,18,32765
3.25752,0.664782,-0.486013,18,32765
3.2306,0.647701,-0.482301,19,32765
3.29092,0.648031,-0.491957,18,32765
3.21531,0.621546,-0.481189,18,32765
3.24649,0.615845,-0.486464,19,32765
3.25821,0.606361,-0.488751,19,32765
3.18231,0.580807,-0.477963,17,32765
3.25232,0.582053,-0.489115,18,32765
3.17626,0.557123,-0.478123,18,32765
3.22675,0.554491,-0.486535,18,32765
3.17,0.533613,-0.47841,18,32765
3.22045,0.530738,-0.486831,19,32765
3.20262,0.516653,-0.484452,18,32765
3.2238,0.508661,-0.488239,18,32765
3.18632,0.491434,-0.48317,17,32765
3.20743,0.483177,-0.487139,19,32765
3.20899,0.471895,-0.487975,18,32765
3.20073,0.459406,-0.487032,18,32765
3.21197,0.449668,-0.489323,18,32765
3.21335,0.438523,-0.49038,18,32765
3.20496,0.426229,-0.489355,18,32765
3.16706,0.410206,-0.484089,17,32765
3.18797,0.401953,-0.487608,17,32765
3.22844,0.395944,-0.494443,18,32765
3.11192,0.37089,-0.476773,17,32765
3.12285,0.361525,-0.47904,18,32765
3.13381,0.351893,-0.481181,18,32765
3.1349,0.341225,-0.481765,18,32765
3.11629,0.328354,-0.47938,17,32765
3.14682,0.320631,-0.48445,18,32765
3.09864,0.304987,-0.47737,18,32765
3.12911,0.297297,-0.482375,18,32765
3.0907,0.28313,-0.476458,17,32765
3.10141,0.273448,-0.478508,19,32765
3.10217,0.262871,-0.47949,18,32765
3.12273,0.253983,-0.482635,18,32765
3.06441,0.238806,-0.473748,17,32765
2.75966,0.205643,-0.426577,15,32765
2.72086,0.193523,-0.420774,13,32765
2.72145,0.184238,-0.421133,12,32765
2.722,0.175042,-0.421527,11,32765
0,0,-0,0,32765
2.60473,0.149797,-0.403148,12,32765
2.46703,0.133618,-0.382008,11,32765
2.29966,0.11674,-0.356129,13,32765
2.28029,0.108104,-0.353095,14,32765
2.29052,0.10093,-0.354573,16,32765
2.28097,0.0928709,-0.353031,16,32765
2.21217,0.082678,-0.342183,16,32765
2.28158,0.0775332,-0.352844,17,32765
2.22256,0.0680062,-0.34365,16,32765
2.26228,0.0616705,-0.349831,15,32765
2.09456,0.0500695,-0.323601,14,32765
2.1244,0.0436198,-0.327925,17,32765
2.05538,0.0352707,-0.317111,18,32765
2.03575,0.0281406,-0.313866,18,32765
2.06553,0.0218152,-0.318137,18,32765
2.03601,0.0147984,-0.313135,19,32765
2.0361,0.0081699,-0.312748,18,32765
1.99664,0.00130495,-0.306326,18,32765
2.02636,-0.00539192,-0.310405,18,32765
2.00663,-0.0120471,-0.306886,17,32765
1.99681,-0.0186107,-0.304632,18,32765
1.98697,-0.0250655,-0.302349,18,32765
3.26922,1.11312,-0.503235,19,32765
3.32888,1.12123,-0.51374,20,32765
3.3136,1.1041,-0.511772,19,32765
3.30766,1.08991,-0.511768,21,32765
3.28292,1.06959,-0.508419,19,32765
3.28634,1.05846,-0.509659,20,32765
3.28028,1.04432,-0.509496,20,32765
3.24588,1.02138,-0.504598,19,32765
3.23026,1.00461,-0.502584,19,32765
3.25239,0.999588,-0.506375,20,32765
3.24618,0.985619,-0.505719,20,32765
3.25889,0.9773,-0.508048,19,32765
3.22415,0.954875,-0.503083,20,32765
3.26527,0.954908,-0.509682,20,32765
3.24933,0.938374,-0.507673,20,32765
3.25242,0.927225,-0.508319,20,32765
3.20781,0.902714,-0.501948,20,32765
3.27746,0.910302,-0.513045,20,32765
3.22319,0.88345,-0.504956,20,32765
3.20695,0.867346,-0.502784,20,32765
3.25755,0.868945,-0.511278,20,32765
3.22213,0.847687,-0.506163,21,32765
3.21539,0.834022,-0.505257,20,32765
3.16067,0.808276,-0.496828,20,32765
3.2208,0.812033,-0.506611,20,32765
3.24262,0.805801,-0.510381,21,32765
3.18759,0.780688,-0.502163,20,32765
3.23818,0.781425,-0.510349,22,32765
3.20225,0.761147,-0.505121,22,32765
3.18549,0.745474,-0.502989,21,32765
3.15909,0.727522,-0.49926,21,32765
3.20973,0.727144,-0.507726,22,32765
3.19289,0.711495,-0.505308,22,32765
3.20487,0.702464,-0.507725,22,32765
3.22648,0.695586,-0.511454,23,32765
3.17071,0.672179,-0.503134,21,32765
3.16321,0.659217,-0.502419,21,32765
3.19434,0.654297,-0.508027,23,32765
3.13837,0.631539,-0.499402,20,32765
3.09192,0.611106,-0.492605,21,32765
3.1424,0.609713,-0.501152,21,32765
3.13467,0.596853,-0.50049,21,32765
3.13661,0.585916,-0.501292,21,32765
3.15793,0.578521,-0.505274,22,32765
3.15004,0.565872,-0.504614,21,32765
3.10323,0.546371,-0.497535,20,32765
3.10494,0.535584,-0.498576,20,32765
3.14561,0.531523,-0.505519,20,32765
3.08879,0.510985,-0.497148,20,32765
3.08068,0.498888,-0.496131,20,32765
3.09201,0.489747,-0.498502,20,32765
3.10333,0.480486,-0.500904,20,32765
3.05602,0.462159,-0.493987,20,32765
3.07704,0.45426,-0.497947,22,32765
3.09806,0.446416,-0.501637,19,32765
3.0408,0.427386,-0.492904,20,32765
3.04211,0.416802,-0.493907,20,32765
3.05323,0.407673,-0.495944,21,32765
3.03492,0.39467,-0.493457,19,32765
3.02637,0.38312,-0.492362,19,32765
3.04712,0.375227,-0.496337,21,32765
3.04833,0.364801,-0.496695,20,32765
3.02001,0.351063,-0.492643,20,32765
3.06034,0.345074,-0.499663,20,32765
3.01234,0.329262,-0.492217,19,32765
3.01336,0.318853,-0.492834,20,32765
3.02418,0.309453,-0.494953,21,32765
3.02515,0.299039,-0.495432,21,32765
3.02607,0.288763,-0.495877,21,32765
3.02701,0.278518,-0.496026,21,32765
3.02786,0.268154,-0.496547,21,32765
2.97944,0.253613,-0.48943,21,32765
3.06879,0.25074,-0.504068,21,32765
2.98103,0.233389,-0.489771,22,32765
2.9326,0.219561,-0.481744,17,32765
2.71672,0.194157,-0.446471,14,32765
2.65824,0.180839,-0.437116,13,32765
2.60954,0.168648,-0.4294,12,32765
2.84649,0.174258,-0.468192,11,32765
2.57122,0.148642,-0.422869,12,32765
2.40416,0.13091,-0.39556,13,32765
2.2469,0.11469,-0.369718,14,32765
2.26698,0.108084,-0.372984,15,32765
2.14904,0.0952525,-0.353477,17,32765
2.18879,0.0896625,-0.35995,18,32765
2.19896,0.0827096,-0.361423,18,32765
2.17951,0.0745627,-0.358152,19,32765
2.17976,0.067172,-0.358123,19,32765
2.16023,0.059338,-0.354951,19,32765
2.20979,0.0532611,-0.362782,16,32765
2.10147,0.043543,-0.344714,18,32765
2.1115,0.0366079,-0.346192,18,32765
1.99323,0.0278857,-0.326588,20,32765
2.00323,0.0214718,-0.327914,19,32765
2.00336,0.0148556,-0.327486,20,32765
1.95411,0.00810865,-0.319049,19,32765
1.97392,0.00154035,-0.321926,20,32765
1.95425,-0.00497214,-0.318254,18,32765
1.93456,-0.0114086,-0.314567,18,32765
1.92476,-0.0177541,-0.312246,19,32765
0,-0,-0,0,32765
6.31432,4.65822,1.39688,13,32765
6.37745,4.6728,1.40498,13,32765
6.32138,4.60017,1.38643,13,32765
6.43316,4.64824,1.40426,12,32765
6.37725,4.57536,1.38483,13,32765
6.34504,4.51985,1.37094,12,32765
6.36863,4.50455,1.36965,13,32765
6.37625,4.47772,1.36439,13,32765
6.23851,4.3493,1.32781,11,32765
0,0,0,0,32765
0,0,0,0,32765
0,0,0,0,32765
5.83213,3.95311,1.21726,12,32765
5.85389,3.93954,1.21554,14,32765
5.86734,3.92054,1.21215,13,32765
0,0,0,0,32765
0,0,0,0,32765
0,0,0,0,32765
6.3834,4.14448,1.29378,12,32765
6.44711,4.15586,1.30077,17,32765
6.48639,4.15054,1.30224,16,32765
6.48385,4.11874,1.29609,18,32765
6.50614,4.10292,1.29469,21,32765
6.50333,4.07137,1.28803,17,32765
6.53389,4.0608,1.28769,34,32765
6.54769,4.03937,1.28501,35,32765
6.5531,4.01262,1.28056,36,32765
6.56668,3.99114,1.27813,35,32765
6.58071,3.96926,1.27414,36,32765
6.59409,3.94778,1.27166,37,32765
6.60763,3.92617,1.26824,36,32765
6.60402,3.89447,1.26213,36,32765
6.61708,3.8731,1.25947,36,32765
6.63014,3.85153,1.25696,37,32765
6.6431,3.83,1.25427,36,32765
6.63892,3.79859,1.24818,37,32765
6.66055,3.7816,1.24668,37,32765
6.66468,3.75486,1.24324,37,32765
6.68615,3.73779,1.24174,37,32765
6.69005,3.71122,1.23796,37,32765
6.70276,3.68933,1.23467,38,32765
6.71542,3.66702,1.23233,37,32765
6.71061,3.63508,1.22753,38,32765
6.72326,3.61256,1.22476,38,32765
6.73543,3.59056,1.22262,37,32765
6.7298,3.55961,1.21785,38,32765
6.75913,3.54709,1.21868,38,32765
6.78849,3.53438,1.21948,37,32765
6.76548,3.49369,1.21097,39,32765
6.77736,3.47121,1.2092,39,32765
6.78958,3.44829,1.20624,38,32765
6.80165,3.42529,1.20376,38,32765
6.80452,3.39801,1.20082,39,32765
6.80744,3.37061,1.19744,38,32765
6.81888,3.34818,1.19526,38,32765
6.84805,3.33437,1.19591,38,32765
6.84158,3.30315,1.19085,38,32765
6.85268,3.28068,1.18914,39,32765
6.86393,3.25802,1.18657,39,32765
6.88387,3.23971,1.18603,39,32765
6.8949,3.21697,1.18382,39,32765
6.88793,3.18579,1.17883,40,32765
6.89873,3.16315,1.17661,40,32765
6.91855,3.14433,1.17599,41,32765
6.87521,3.09709,1.16466,37,32765
6.88581,3.07436,1.16222,22,32765
6.89641,3.05137,1.15998,20,32765
6.91574,3.0327,1.15966,26,32765
6.9263,3.00969,1.15659,40,32765
6.9456,2.99051,1.15671,41,32765
6.98314,2.97915,1.15881,41,32765
6.95686,2.94066,1.15075,39,32765
6.96696,2.9177,1.14807,41,32765
6.97711,2.89458,1.14497,40,32765
6.96856,2.86409,1.14042,41,32765
6.98756,2.84497,1.13889,41,32765
7.01543,2.82962,1.13998,41,32765
6.99737,2.79591,1.13318,41,32765
7.01617,2.77667,1.13151,41,32765
7.04393,2.76123,1.13187,42,32765
7.03488,2.73097,1.12659,42,32765
7.04418,2.70786,1.12423,42,32765
7.04411,2.68165,1.11965,42,32765
7.06255,2.66208,1.11834,42,32765
7.06217,2.63582,1.11476,43,32765
7.07111,2.61289,1.11202,43,32765
7.0894,2.59313,1.11038,44,32765
7.098,2.5703,1.10856,43,32765
7.07894,2.53707,1.10086,43,32765
7.1153,2.52463,1.10255,44,32765
7.1052,2.49523,1.09639,44,32765
7.13235,2.47903,1.09588,44,32765
7.14067,2.45632,1.09281,44,32765
7.14904,2.43328,1.08959,45,32765
7.15704,2.41086,1.08691,44,32765
7.14646,2.38176,1.08046,44,32765
7.17313,2.36568,1.08015,44,32765
7.18094,2.34372,1.07608,45,32765
7.19825,2.32436,1.07337,47,32765
7.18709,2.29609,1.06681,46,32765
7.22322,2.28283,1.06597,47,32765
6.37762,4.71026,1.33453,15,32765
6.39327,4.68969,1.33211,15,32765
6.34514,4.62265,1.31604,15,32765
6.38518,4.61873,1.3179,14,32765
6.36912,4.57462,1.30755,14,32765
6.34487,4.52475,1.29586,13,32765
6.37653,4.51512,1.29611,21,32765
6.4003,4.49957,1.2942,23,32765
6.35952,4.43853,1.27889,14,32765
6.30179,4.36697,1.26093,12,32765
6.02397,4.14523,1.19871,11,32765
5.95643,4.07021,1.17918,11,32765
5.97004,4.05097,1.17658,11,32765
5.91847,3.98729,1.16025,13,32765
5.89103,3.9406,1.14882,17,32765
5.91269,3.92673,1.14761,16,32765
5.96736,3.93453,1.15223,12,32765
5.98066,3.91538,1.14851,11,32765
0,0,0,0,32765
6.38045,4.11722,1.21423,13,32765
6.49446,4.16005,1.22963,20,32765
6.56692,4.17586,1.2378,21,32765
6.5727,4.1492,1.23312,20,32765
6.53654,4.09639,1.22036,20,32765
6.56719,4.0857,1.21982,23,32765
6.60628,4.0797,1.22179,42,32765
6.62024,4.05786,1.21895,46,32765
6.62552,4.03099,1.21495,46,32765
6.63967,4.00887,1.21092,46,32765
6.65318,3.98716,1.20842,46,32765
6.66684,3.96532,1.20497,46,32765
6.66333,3.93336,1.19901,47,32765
6.67652,3.91176,1.19633,47,32765
6.6897,3.88995,1.19379,47,32765
6.70278,3.86819,1.19108,47,32765
6.71586,3.84635,1.18818,47,32765
6.71186,3.81443,1.18201,47,32765
6.7247,3.79232,1.18016,47,32765
6.73768,3.7702,1.17702,47,32765
6.74167,3.74341,1.17332,48,32765
6.75447,3.72132,1.17,48,32765
6.75856,3.69406,1.16614,46,32765
6.7799,3.67605,1.166,48,32765
6.78398,3.64857,1.16171,47,32765
6.78754,3.62168,1.15807,47,32765
6.80821,3.60438,1.15792,47,32765
6.8202,3.5824,1.15558,48,32765
6.82338,3.55576,1.15173,46,32765
6.82676,3.5285,1.14801,48,32765
6.83876,3.50578,1.14622,49,32765
6.8599,3.48709,1.1447,49,32765
6.85444,3.4549,1.13926,49,32765
6.88395,3.44067,1.1408,50,32765
6.87814,3.40856,1.13603,49,32765
6.88971,3.38585,1.13382,49,32765
6.89234,3.35879,1.12989,48,32765
6.90374,3.33597,1.12791,48,32765
6.8971,3.30471,1.12327,48,32765
6.9263,3.29035,1.12359,48,32765
6.92845,3.26338,1.12004,49,32765
6.93956,3.24046,1.11781,50,32765
6.94162,3.21323,1.11443,48,32765
6.95251,3.19037,1.11219,48,32765
6.97244,3.17134,1.11146,49,32765
6.98324,3.14825,1.10927,49,32765
6.97594,3.11704,1.10394,47,32765
6.94143,3.07367,1.09453,33,32765
6.95178,3.05085,1.09268,34,32765
6.98054,3.03558,1.09243,41,32765
7.00903,3.0201,1.09387,48,32765
7.03759,3.00463,1.09424,48,32765
7.05694,2.98517,1.09361,49,32765
7.03979,2.95036,1.08666,48,32765
7.05918,2.93076,1.08493,50,32765
7.06904,2.90748,1.08336,49,32765
7.07901,2.88426,1.08028,50,32765
7.05194,2.84635,1.07278,50,32765
7.06148,2.8235,1.07043,50,32765
7.08037,2.80401,1.06864,51,32765
7.08979,2.78112,1.06601,51,32765
7.09923,2.75782,1.06367,51,32765
7.09013,2.72735,1.05853,51,32765
7.12712,2.71505,1.05953,52,32765
7.10859,2.6812,1.0526,51,32765
7.1361,2.66514,1.0532,51,32765
7.14513,2.64193,1.05043,52,32765
7.1356,2.61168,1.04458,51,32765
7.14426,2.58867,1.04275,52,32765
7.16251,2.56861,1.04073,52,32765
7.17098,2.54595,1.03806,52,32765
7.17026,2.5196,1.0334,52,32765
7.18813,2.49992,1.03133,52,32765
7.18713,2.47376,1.02689,51,32765
7.19555,2.45054,1.02365,51,32765
7.21298,2.4311,1.02229,52,32765
7.21182,2.40491,1.01733,52,32765
7.22915,2.38549,1.01548,53,32765
7.237,2.36334,1.01137,53,32765
7.26379,2.34682,1.00985,52,32765
7.25266,2.3183,1.00344,52,32765
7.25104,2.29286,0.997067,53,32765
6.3347,4.67177,1.25184,13,32765
6.3657,4.66299,1.25479,13,32765
6.35694,4.62496,1.24925,13,32765
6.34034,4.58105,1.24118,13,32765
6.40369,4.59461,1.25006,12,32765
6.37895,4.54471,1.24078,12,32765
6.3939,4.52395,1.23966,12,32765
6.3925,4.49198,1.23535,13,32765
6.40713,4.47163,1.23344,13,32765
6.34079,4.39454,1.2159,12,32765
0,0,0,0,32765
0,0,0,0,32765
0,0,0,0,32765
5.93229,3.99634,1.12016,11,32765
5.8473,3.91076,1.09976,15,32765
5.96757,3.96253,1.11761,13,32765
5.89812,3.88891,1.10048,11,32765
0,0,0,0,32765
0,0,0,0,32765
6.26104,4.03968,1.15413,12,32765
6.47452,4.14689,1.18838,17,32765
6.52997,4.1524,1.19413,16,32765
6.51892,4.11522,1.18689,16,32765
6.59134,4.13075,1.195,16,32765
6.53815,4.06732,1.18054,18,32765
6.56047,4.0507,1.17985,35,32765
6.58264,4.0341,1.17939,37,32765
6.59645,4.01229,1.17665,36,32765
6.59312,3.98055,1.17054,37,32765
6.59811,3.95382,1.16645,37,32765
6.61972,3.93743,1.16619,37,32765
6.63298,3.91569,1.16409,37,32765
6.65505,3.89859,1.16244,38,32765
6.65117,3.86654,1.15766,38,32765
6.66462,3.84429,1.15444,37,32765
6.66902,3.8176,1.15026,36,32765
6.69022,3.80105,1.14952,38,32765
6.6858,3.76943,1.14412,37,32765
6.68993,3.74272,1.13987,38,32765
6.71169,3.72492,1.13831,37,32765
6.71585,3.69758,1.13479,38,32765
6.72838,3.67555,1.13215,38,32765
6.74103,3.65307,1.12961,38,32765
6.73602,3.62168,1.12356,38,32765
6.76597,3.6085,1.1238,38,32765
6.77839,3.58599,1.12095,38,32765
6.78177,3.55927,1.1166,39,32765
6.79379,3.537,1.11428,40,32765
6.8056,3.51507,1.11161,40,32765
6.80893,3.48807,1.10668,41,32765
6.82078,3.46549,1.10466,41,32765
6.82388,3.43809,1.10116,40,32765
6.83582,3.41499,1.09902,40,32765
6.84766,3.39207,1.09627,39,32765
6.84181,3.36017,1.09039,41,32765
6.85331,3.33737,1.08815,40,32765
6.86466,3.31491,1.08528,41,32765
6.88455,3.29687,1.08526,41,32765
6.9046,3.27873,1.08387,39,32765
6.89771,3.24762,1.07917,39,32765
6.90868,3.225,1.07681,40,32765
6.91956,3.2023,1.07471,40,32765
6.93055,3.17947,1.07162,39,32765
6.91424,3.14433,1.06553,39,32765
6.93401,3.12554,1.06437,40,32765
6.93554,3.09862,1.06103,35,32765
6.90967,3.05979,1.05403,21,32765
6.92005,3.03689,1.05221,22,32765
6.96658,3.03005,1.05567,34,32765
6.9771,3.0068,1.0527,39,32765
6.99624,2.98766,1.05309,40,32765
6.96983,2.94936,1.04515,40,32765
6.97964,2.92638,1.04427,41,32765
6.99844,2.90768,1.04388,41,32765
7.0084,2.88461,1.0411,41,32765
7.01782,2.86196,1.04012,41,32765
7.018,2.83557,1.03768,40,32765
7.03663,2.81635,1.03751,41,32765
7.04598,2.79349,1.0359,42,32765
7.03681,2.76327,1.03178,42,32765
7.04599,2.7402,1.03068,42,32765
7.05496,2.71738,1.02966,43,32765
7.08259,2.7013,1.03075,42,32765
7.07285,2.67141,1.02724,42,32765
7.10027,2.65511,1.0291,42,32765
7.09037,2.62531,1.0253,43,32765
7.09889,2.60252,1.02447,42,32765
7.10753,2.57933,1.02324,43,32765
7.11606,2.55623,1.02189,43,32765
7.12447,2.5329,1.02137,43,32765
7.13269,2.50978,1.02106,43,32765
7.14054,2.48742,1.02094,43,32765
7.13903,2.46161,1.01934,42,32765
7.14673,2.43917,1.01939,43,32765
7.1734,2.42249,1.02149,43,32765
7.16243,2.39283,1.01901,42,32765
7.17964,2.37281,1.01957,44,32765
7.1871,2.34976,1.02037,45,32765
7.19435,2.32715,1.0211,45,32765
7.20152,2.30441,1.02213,44,32765
7.21796,2.28485,1.02477,45,32765
6.41244,4.73559,1.19101,14,32765
6.42774,4.71484,1.19081,14,32765
6.39517,4.65906,1.18111,15,32765
6.39468,4.62653,1.17634,15,32765
6.41006,4.60532,1.17582,15,32765
6.43364,4.58976,1.17583,14,32765
6.41647,4.54591,1.16882,14,32765
6.43132,4.52519,1.16762,14,32765
6.44605,4.50467,1.1657,14,32765
6.50166,4.51188,1.17103,15,32765
6.47596,4.4626,1.16171,14,32765
6.1888,4.23454,1.1063,11,32765
5.94116,4.03632,1.05751,11,32765
5.95483,4.01662,1.05567,11,32765
5.95201,3.98582,1.0509,12,32765
5.90785,3.92781,1.03853,17,32765
5.93731,3.91964,1.03969,17,32765
5.97528,3.91644,1.04212,12,32765
6.0215,3.91854,1.04602,11,32765
6.01825,3.88781,1.04079,11,32765
6.39804,4.10293,1.10157,13,32765
6.50348,4.1406,1.11547,20,32765
6.59275,4.16688,1.12566,22,32765
6.60672,4.14539,1.12311,26,32765
6.60391,4.11317,1.11792,29,32765
6.59272,4.07549,1.11144,24,32765
6.64031,4.07428,1.11512,43,32765
6.65425,4.05223,1.11235,47,32765
6.66796,4.03048,1.10922,46,32765
6.6816,4.00855,1.1066,47,32765
6.67789,3.97666,1.10201,47,32765
6.69128,3.95469,1.09989,47,32765
6.71349,3.93736,1.09812,48,32765
6.70972,3.90506,1.0935,48,32765
6.72329,3.88257,1.09025,48,32765
6.7278,3.85563,1.08614,47,32765
6.74914,3.83886,1.08528,49,32765
6.76208,3.81673,1.08281,48,32765
6.75771,3.78488,1.07724,49,32765
6.77961,3.76682,1.07555,50,32765
6.77523,3.73442,1.07074,50,32765
6.78788,3.71215,1.06806,50,32765
6.78324,3.67999,1.06278,48,32765
6.80446,3.66248,1.06096,49,32765
6.81707,3.63972,1.05828,49,32765
6.8296,3.617,1.0554,50,32765
6.84183,3.59466,1.05248,50,32765
6.85397,3.57216,1.05013,50,32765
6.86589,3.54999,1.04744,50,32765
6.86049,3.51822,1.04123,50,32765
6.87244,3.49543,1.03919,49,32765
6.87564,3.46781,1.03577,48,32765
6.88767,3.44449,1.03361,47,32765
6.89961,3.42136,1.03084,48,32765
6.91162,3.39796,1.02776,48,32765
6.92325,3.37489,1.0255,48,32765
6.91686,3.34353,1.01996,47,32765
6.92792,3.321,1.01852,49,32765
6.9391,3.29844,1.01571,48,32765
6.95019,3.27561,1.0138,48,32765
6.96125,3.25278,1.01143,49,32765
6.97222,3.22986,1.0093,48,32765
6.97428,3.20268,1.00489,49,32765
6.98509,3.17965,1.00296,49,32765
6.99594,3.15652,1.00038,49,32765
7.00661,3.13339,0.998404,49,32765
6.99896,3.1023,0.99434,39,32765
6.955,3.05512,0.984776,28,32765
6.97435,3.03629,0.984002,29,32765
7.0213,3.02869,0.986145,44,32765
7.05877,3.01716,0.988986,49,32765
7.06895,2.99406,0.986498,49,32765
7.06062,2.96303,0.98306,49,32765
7.0704,2.94024,0.981278,49,32765
7.08045,2.91689,0.978472,50,32765
7.08999,2.89397,0.977481,49,32765
7.09946,2.87101,0.976385,50,32765
7.10901,2.84781,0.974845,50,32765
7.11846,2.82467,0.973211,50,32765
7.12784,2.80141,0.971777,50,32765
7.13715,2.77801,0.970666,50,32765
7.10923,2.74058,0.96461,50,32765
7.11841,2.71722,0.962985,50,32765
7.17368,2.71172,0.968428,50,32765
7.14551,2.67419,0.962579,51,32765
7.14496,2.64764,0.960207,50,32765
7.16287,2.62805,0.960625,51,32765
7.17159,2.60461,0.959382,51,32765
7.18021,2.58127,0.958018,51,32765
7.18871,2.55768,0.957487,51,32765
7.19702,2.53432,0.957178,51,32765
7.20496,2.51171,0.957056,50,32765
7.21291,2.48889,0.956791,50,32765
7.2207,2.46618,0.956833,51,32765
7.21929,2.4397,0.955014,52,32765
7.2366,2.41928,0.95645,50,32765
7.24449,2.39586,0.955669,51,32765
7.26148,2.37565,0.957721,52,32765
7.24051,2.3436,0.954717,52,32765
7.2761,2.32975,0.95949,52,32765
7.26428,2.30094,0.958308,52,32765
6.39291,4.70391,1.2185,13,32765
6.37729,4.65997,1.20621,13,32765
6.42551,4.6624,1.20654,13,32765
6.51417,4.69305,1.21458,13,32765
6.4179,4.59119,1.18823,12,32765
6.39372,4.5414,1.17509,13,32765
6.48994,4.57769,1.1859,13,32765
6.41644,4.49429,1.16492,13,32765
6.44782,4.485,1.16358,13,32765
6.46318,4.46383,1.15977,13,32765
6.33192,4.34171,1.12866,11,32765
0,0,0,0,32765
0,0,0,0,32765
0,0,0,0,32765
5.96304,3.97288,1.03728,12,32765
5.88583,3.89328,1.018,16,32765
5.94048,3.90128,1.02133,13,32765
0,0,0,0,32765
0,0,0,0,32765
0,0,0,0,32765
6.44391,4.11105,1.08334,13,32765
6.50827,4.12159,1.08781,16,32765
6.61447,4.15816,1.10027,17,32765
6.59508,4.11541,1.09126,27,32765
