x, y, z, intensity, ring
0,-0,-0,0,32765
0,-0,-0,0,32765
0,-0,-0,0,32765
0,-0,-0,0,32765
0,-0,-0,0,32765
0,-0,-0,0,32765
0,-0,-0,0,32765
0,-0,-0,0,32765
0,-0,-0,0,32765
0,-0,-0,0,32765
0,-0,-0,0,32765
0,-0,-0,0,32765
0,-0,-0,0,32765
0,-0,-0,0,32765
0,-0,-0,0,32765
0,-0,-0,0,32765
0,-0,-0,0,32765
0,-0,-0,0,32765
1.64897,-0.463962,-0.241968,13,32765
1.61886,-0.461288,-0.237681,18,32765
1.62684,-0.469379,-0.239142,20,32765
1.59678,-0.466512,-0.23468,20,32765
1.6237,-0.480241,-0.238914,21,32765
1.61259,-0.482852,-0.23751,21,32765
1.62049,-0.491124,-0.238581,21,32765
1.61887,-0.496396,-0.238647,21,32765
1.64562,-0.51045,-0.24283,20,32765
0,-0,-0,0,32765
0,-0,-0,0,32765
0,-0,-0,0,32765
0,-0,-0,0,32765
0,-0,-0,0,32765
0,-0,-0,0,32765
0,0,-0,0,32765
0,0,-0,0,32765
0,0,-0,12,32765
0,0,-0,0,32765
0,0,-0,0,32765
0,0,-0,0,32765
0,0,-0,0,32765
0,-0,-0,0,32765
0,-0,-0,0,32765
0,-0,-0,0,32765
0,-0,-0,0,32765
0,-0,-0,0,32765
0,-0,-0,0,32765
0,-0,-0,0,32765
0,-0,-0,0,32765
0,-0,-0,0,32765
3.04194,-0.103426,-0.471489,12,32765
3.06136,-0.114603,-0.474263,12,32765
3.13996,-0.128329,-0.486378,13,32765
3.06055,-0.135586,-0.47398,13,32765
3.09961,-0.148042,-0.479707,13,32765
3.0498,-0.156225,-0.471622,12,32765
3.07888,-0.168376,-0.475969,13,32765
3.09806,-0.180076,-0.478767,13,32765
3.08757,-0.190073,-0.477174,13,32765
3.08695,-0.20055,-0.476868,12,32765
3.17509,-0.217068,-0.489998,12,32765
3.02654,-0.217263,-0.466624,12,32765
3.11444,-0.234241,-0.48061,13,32765
3.07425,-0.24208,-0.474083,12,32765
3.02416,-0.24884,-0.466283,13,32765
2.97409,-0.255316,-0.458233,13,32765
2.9929,-0.267624,-0.460996,13,32765
2.96245,-0.275335,-0.456252,12,32765
2.96149,-0.285554,-0.456205,12,32765
3.02939,-0.302562,-0.466518,12,32765
3.04805,-0.314985,-0.469227,13,32765
3.06664,-0.327509,-0.472065,13,32765
2.96728,-0.327255,-0.456695,13,32765
2.9858,-0.339794,-0.459507,13,32765
2.99444,-0.351293,-0.460908,12,32765
2.96379,-0.358142,-0.456168,13,32765
3.03124,-0.377011,-0.466442,13,32765
3.05936,-0.39131,-0.470754,13,32765
2.92079,-0.383918,-0.449415,13,32765
0,-0,-0,0,32765
2.82018,-0.390441,-0.434184,12,32765
2.90692,-0.412645,-0.44768,12,32765
2.95444,-0.429681,-0.455006,13,32765
2.83568,-0.422408,-0.436464,12,32765
0,-0,-0,0,32765
0,-0,-0,0,32765
0,-0,-0,0,32765
0,-0,-0,0,32765
0,-0,-0,0,32765
0,-0,-0,0,32765
0,-0,-0,0,32765
0,-0,-0,0,32765
0,-0,-0,0,32765
0,-0,-0,0,32765
0,-0,-0,0,32765
0,-0,-0,0,32765
0,-0,-0,0,32765
0,-0,-0,0,32765
0,-0,-0,0,32765
0,-0,-0,0,32765
0,-0,-0,0,32765
0,-0,-0,0,32765
0,-0,-0,0,32765
0,-0,-0,0,32765
0,-0,-0,0,32765
0,-0,-0,0,32765
0,-0,-0,0,32765
0,-0,-0,0,32765
0,-0,-0,0,32765
0,-0,-0,0,32765
0,-0,-0,0,32765
0,-0,-0,0,32765
0,-0,-0,0,32765
0,-0,-0,0,32765
0,-0,-0,0,32765
0,-0,-0,0,32765
0,-0,-0,0,32765
0,-0,-0,0,32765
0,-0,-0,0,32765
0,-0,-0,0,32765
1.61022,-0.452001,-0.242867,13,32765
1.58025,-0.44925,-0.237895,16,32765
1.59786,-0.459998,-0.240098,19,32765
1.59641,-0.465321,-0.239509,20,32765
1.60446,-0.473415,-0.240158,20,32765
1.57455,-0.470201,-0.235162,20,32765
1.62992,-0.492549,-0.243195,21,32765
1.60949,-0.492098,-0.239568,20,32765
1.608,-0.497289,-0.238821,19,32765
1.64432,-0.514301,-0.243527,18,32765
0,-0,-0,0,32765
0,-0,-0,0,32765
0,-0,-0,0,32765
0,-0,-0,0,32765
0,-0,-0,0,32765
0,0,-0,0,32765
0,0,-0,12,32765
0,0,-0,0,32765
0,0,-0,12,32765
0,0,-0,0,32765
0,0,-0,0,32765
0,0,-0,0,32765
0,-0,-0,0,32765
0,-0,-0,0,32765
0,-0,-0,0,32765
0,-0,-0,0,32765
0,-0,-0,0,32765
0,-0,-0,0,32765
0,-0,-0,0,32765
3.12667,-0.0856071,-0.515277,13,32765
3.1856,-0.098118,-0.524611,13,32765
3.12609,-0.106962,-0.514788,13,32765
3.09617,-0.116607,-0.509625,13,32765
3.18451,-0.130903,-0.524106,13,32765
2.97705,-0.132622,-0.489872,13,32765
3.31175,-0.159027,-0.544607,13,32765
3.05503,-0.157311,-0.502017,13,32765
3.1826,-0.174934,-0.522829,14,32765
3.07366,-0.179544,-0.504771,13,32765
3.13213,-0.193753,-0.514408,13,32765
3.10196,-0.202485,-0.509247,13,32765
3.16042,-0.217075,-0.518367,12,32765
3.12038,-0.225029,-0.511341,13,32765
3.09002,-0.233457,-0.506805,13,32765
3.06958,-0.24279,-0.503133,13,32765
3.08841,-0.255244,-0.50615,12,32765
3.07773,-0.26536,-0.504065,13,32765
3.01783,-0.271011,-0.494127,12,32765
0,-0,-0,0,32765
3.14362,-0.304389,-0.514792,11,32765
3.10332,-0.311237,-0.508052,13,32765
3.00411,-0.311726,-0.491657,13,32765
3.01287,-0.323084,-0.493077,13,32765
3.04121,-0.336771,-0.497648,13,32765
3.06947,-0.350725,-0.502244,14,32765
3.06825,-0.361393,-0.502129,13,32765
2.99842,-0.363768,-0.490689,13,32765
2.99717,-0.374248,-0.490392,14,32765
2.96651,-0.380926,-0.485372,13,32765
2.92606,-0.386113,-0.478747,11,32765
2.96382,-0.40149,-0.485251,12,32765
2.78647,-0.387267,-0.45618,12,32765
0,-0,-0,0,32765
0,-0,-0,0,32765
0,-0,-0,0,32765
0,-0,-0,0,32765
0,-0,-0,0,32765
0,-0,-0,0,32765
0,-0,-0,0,32765
0,-0,-0,0,32765
0,-0,-0,0,32765
0,-0,-0,0,32765
0,-0,-0,0,32765
0,-0,-0,0,32765
0,-0,-0,0,32765
0,-0,-0,0,32765
0,-0,-0,0,32765
0,-0,-0,0,32765
0,-0,-0,0,32765
0,-0,-0,0,32765
0,-0,-0,0,32765
0,-0,-0,0,32765
0,-0,-0,0,32765
0,-0,-0,0,32765
0,-0,-0,0,32765
0,-0,-0,0,32765
0,-0,-0,0,32765
0,-0,-0,0,32765
0,-0,-0,0,32765
0,-0,-0,0,32765
0,-0,-0,0,32765
0,-0,-0,0,32765
0,-0,-0,0,32765
0,-0,-0,0,32765
0,-0,-0,0,32765
0,-0,-0,0,32765
0,-0,-0,0,32765
0,-0,-0,0,32765
0,-0,-0,0,32765
0,-0,-0,0,32765
0,-0,-0,0,32765
1.64558,-0.463574,-0.264678,15,32765
1.60612,-0.458232,-0.257885,20,32765
1.60468,-0.463607,-0.257217,20,32765
1.60322,-0.46897,-0.256624,21,32765
1.60177,-0.474301,-0.255847,21,32765
1.60979,-0.482431,-0.25661,21,32765
1.5988,-0.48486,-0.254641,21,32765
1.62568,-0.498814,-0.258352,20,32765
1.62418,-0.504073,-0.257596,19,32765
1.68872,-0.53006,-0.267139,17,32765
0,-0,-0,11,32765
0,-0,-0,11,32765
0,-0,-0,0,32765
0,-0,-0,0,32765
0,-0,-0,0,32765
7.47353,2.42661,1.44847,40,32765
7.47201,2.40013,1.44527,40,32765
7.5174,2.38852,1.45052,40,32765
7.53469,2.36703,1.45139,41,32765
7.54297,2.34213,1.44878,41,32765
7.56963,2.32345,1.4508,41,32765
7.57774,2.29863,1.44799,41,32765
7.6234,2.28505,1.45273,41,32765
7.65036,2.26538,1.45335,42,32765
7.6582,2.24023,1.45099,41,32765
7.6847,2.22113,1.45219,41,32765
7.69211,2.19667,1.45015,41,32765
7.71858,2.17749,1.45071,41,32765
7.7355,2.15513,1.45018,40,32765
7.75267,2.13245,1.44835,39,32765
7.77896,2.11249,1.44955,39,32765
7.49159,2.00818,1.39199,36,32765
7.30813,1.93363,1.3545,37,32765
7.27682,1.89995,1.34448,40,32765
7.34062,1.89102,1.35252,39,32765
7.3662,1.87182,1.35418,38,32765
7.39176,1.85255,1.35556,38,32765
7.51297,1.85679,1.37373,37,32765
7.95923,1.93985,1.45261,40,32765
7.98514,1.91846,1.45351,40,32765
8.03007,1.90152,1.45827,41,32765
7.94095,1.85254,1.43798,39,32765
7.50588,1.7247,1.35632,39,32765
7.53093,1.70439,1.3586,39,32765
8.01745,1.78662,1.44362,39,32765
8.07179,1.77089,1.44993,38,32765
7.52913,1.6259,1.34944,30,32765
7.50572,1.59524,1.34296,29,32765
7.49196,1.56681,1.33735,23,32765
7.49732,1.54228,1.33583,18,32765
8.1108,1.641,1.44292,28,32765
8.28063,1.64704,1.4708,40,32765
8.31549,1.62538,1.47332,42,32765
8.34993,1.60359,1.47789,42,32765
8.36516,1.57797,1.47777,41,32765
8.41889,1.55972,1.48517,39,32765
8.43402,1.53335,1.48533,41,32765
8.44919,1.50673,1.48493,39,32765
8.44469,1.47674,1.48203,33,32765
8.45948,1.45044,1.48242,26,32765
8.41571,1.41499,1.47281,14,32765
8.40101,1.38489,1.46791,15,32765
8.36667,1.35123,1.46048,12,32765
8.31293,1.3143,1.44892,13,32765
8.48305,1.31194,1.47673,13,32765
8.4875,1.28344,1.47624,13,32765
8.45287,1.24895,1.469,12,32765
8.56449,1.23618,1.48655,13,32765
8.46154,1.19246,1.46603,12,32765
8.66096,1.19103,1.49871,13,32765
8.73317,1.17197,1.51056,13,32765
8.68836,1.13679,1.50073,13,32765
8.70202,1.1094,1.50134,12,32765
8.76456,1.08822,1.50993,13,32765
8.73888,1.05561,1.50421,12,32765
8.8109,1.03521,1.5154,14,32765
8.72649,0.995824,1.49825,14,32765
8.75933,0.97042,1.50202,13,32765
8.69398,0.934058,1.48965,13,32765
8.67769,0.903196,1.48473,13,32765
8.71987,0.878869,1.49118,13,32765
8.67391,0.844997,1.4815,13,32765
8.58853,0.808009,1.46516,13,32765
8.56205,0.776991,1.45806,13,32765
8.49603,0.742531,1.44524,12,32765
8.45933,0.711434,1.43724,13,32765
8.44223,0.681826,1.43247,14,32765
8.44446,0.654107,1.43227,14,32765
8.40758,0.623229,1.4236,14,32765
8.37054,0.592526,1.41529,14,32765
8.32331,0.56201,1.40652,14,32765
8.37464,0.538152,1.41278,14,32765
8.34702,0.509141,1.40657,13,32765
8.34885,0.482139,1.40525,13,32765
8.24228,0.448884,1.38575,13,32765
8.2243,0.421026,1.38063,13,32765
8.28496,0.396866,1.38929,13,32765
8.29638,0.370374,1.38902,14,32765
8.22884,0.340579,1.37573,13,32765
8.21042,0.313077,1.37108,12,32765
8.23142,0.287024,1.37253,12,32765
8.16363,0.257821,1.35908,13,32765
8.12528,0.230186,1.3507,13,32765
8.16575,0.204743,1.35535,12,32765
8.16667,0.178245,1.35356,12,32765
8.03919,0.149911,1.33097,13,32765
8.08946,0.124721,1.33606,13,32765
8.07032,0.0983635,1.33142,12,32765
8.00201,0.0715287,1.31713,13,32765
8.04208,0.0461022,1.32113,13,32765
7.9636,0.0202603,1.306,13,32765
7.92461,-0.00494803,1.29668,15,32765
7.9152,-0.0299737,1.29195,13,32765
7.91545,-0.0550452,1.28961,13,32765
7.90598,-0.0801925,1.28419,13,32765
7.92592,-0.105473,1.28437,13,32765
7.45728,2.42405,1.36916,49,32765
7.48387,2.40662,1.37122,48,32765
7.50117,2.386,1.37094,49,32765
7.50907,2.36159,1.37,49,32765
7.53613,2.34257,1.37082,49,32765
7.58165,2.32968,1.37608,49,32765
7.58977,2.30479,1.37327,49,32765
7.61662,2.28549,1.37422,49,32765
7.64359,2.26581,1.37466,49,32765
7.65143,2.24065,1.3723,49,32765
7.67795,2.22154,1.37332,50,32765
7.68535,2.19706,1.37127,50,32765
7.71183,2.17788,1.37165,49,32765
7.73825,2.15816,1.37271,48,32765
7.75541,2.13543,1.37079,49,32765
7.76272,2.11026,1.36844,47,32765
7.77956,2.08753,1.36732,47,32765
7.40544,1.96139,1.29819,43,32765
7.32645,1.91486,1.28017,43,32765
7.33309,1.891,1.27765,42,32765
7.3778,1.87666,1.28245,39,32765
7.39383,1.85492,1.28198,35,32765
7.43863,1.84024,1.28579,32,32765
7.8376,1.91209,1.35215,40,32765
8.00727,1.92566,1.37764,49,32765
8.03309,1.90408,1.37873,50,32765
8.03026,1.87517,1.37416,49,32765
7.99832,1.83961,1.3657,41,32765
7.67744,1.73918,1.30867,21,32765
7.90486,1.76318,1.3448,24,32765
7.98808,1.75414,1.35558,32,32765
7.65665,1.65495,1.29633,16,32765
7.44993,1.58481,1.25911,14,32765
7.44575,1.55854,1.25533,15,32765
7.42208,1.52815,1.24894,14,32765
7.75601,1.57059,1.30307,14,32765
8.16779,1.626,1.37,18,32765
8.19292,1.60279,1.37066,15,32765
8.23702,1.58323,1.37657,14,32765
8.26188,1.55977,1.378,14,32765
8.2477,1.52924,1.37364,14,32765
8.29186,1.50871,1.37858,14,32765
8.2778,1.47732,1.37329,14,32765
8.31207,1.45467,1.37695,14,32765
8.34624,1.4321,1.38048,13,32765
8.39967,1.41334,1.38743,14,32765
8.37518,1.38163,1.38111,16,32765
8.41872,1.3606,1.38689,16,32765
8.37467,1.32498,1.37748,13,32765
8.40852,1.30128,1.38127,13,32765
8.46173,1.28037,1.38879,13,32765
8.49539,1.25601,1.39314,13,32765
8.49972,1.22758,1.39206,14,32765
8.60184,1.21294,1.40613,13,32765
8.60603,1.18414,1.405,13,32765
8.62942,1.15866,1.40822,14,32765
8.66278,1.13402,1.41162,14,32765
8.61769,1.09918,1.40259,13,32765
8.70966,1.08189,1.41541,14,32765
8.67411,1.04823,1.40838,14,32765
8.66777,1.0188,1.40619,14,32765
8.6322,0.985421,1.39786,15,32765
8.56691,0.949414,1.38549,15,32765
8.47194,0.910466,1.36903,15,32765
8.42606,0.877225,1.35958,15,32765
8.41909,0.848731,1.35774,15,32765
8.40243,0.818683,1.35332,15,32765
8.48394,0.79826,1.36474,14,32765
8.48686,0.770218,1.36268,15,32765
8.50923,0.743692,1.36472,14,32765
8.53151,0.717469,1.36655,14,32765
8.4947,0.685986,1.35881,14,32765
8.38864,0.649664,1.34129,14,32765
8.41076,0.623303,1.34244,14,32765
8.44261,0.597423,1.34549,14,32765
8.44458,0.569953,1.34502,14,32765
8.44672,0.542496,1.34296,14,32765
8.35991,0.509602,1.32763,14,32765
8.38145,0.483655,1.32942,14,32765
8.3832,0.45615,1.32813,14,32765
8.3652,0.42779,1.32317,14,32765
8.28783,0.396518,1.30942,14,32765
8.24004,0.367336,1.29972,14,32765
8.22173,0.339723,1.29486,14,32765
8.17365,0.311076,1.28575,14,32765
8.20452,0.285446,1.28857,14,32765
8.1761,0.257537,1.28197,14,32765
8.17718,0.230938,1.28015,14,32765
8.09917,0.202323,1.26589,14,32765
8.13958,0.17686,1.27028,14,32765
8.11067,0.150414,1.2643,14,32765
8.07208,0.123588,1.25507,14,32765
7.9936,0.0965332,1.24142,13,32765
8.05361,0.0710495,1.24772,14,32765
7.92571,0.044472,1.22535,14,32765
7.97556,0.0192835,1.23082,14,32765
7.93649,-0.00599498,1.22188,15,32765
7.90726,-0.0310162,1.2142,17,32765
7.92725,-0.0562402,1.21489,14,32765
7.88808,-0.0811548,1.20502,14,32765
7.88824,-0.106153,1.20202,14,32765
7.45213,2.42731,1.27181,41,32765
7.47818,2.41003,1.27678,41,32765
7.48578,2.38625,1.27691,40,32765
7.49321,2.36242,1.27763,40,32765
7.52904,2.3467,1.28323,40,32765
7.53662,2.32216,1.28336,40,32765
7.58185,2.30946,1.28948,40,32765
7.60808,2.29106,1.29252,40,32765
7.61539,2.26685,1.2922,41,32765
7.65113,2.25066,1.29659,40,32765
7.68673,2.23427,1.30163,41,32765
7.69406,2.20916,1.3012,41,32765
7.71083,2.18668,1.30228,40,32765
7.74664,2.16916,1.30647,41,32765
7.74437,2.14119,1.30371,40,32765
7.77997,2.1237,1.30798,39,32765
7.77739,2.096,1.30563,38,32765
7.80346,2.07568,1.30766,37,32765
7.60033,1.99499,1.27148,18,32765
7.5497,1.955,1.26095,17,32765
7.67102,1.95969,1.27888,18,32765
7.68707,1.93704,1.27975,18,32765
7.6361,1.89743,1.26909,16,32765
7.69036,1.88434,1.27596,16,32765
7.96538,1.92394,1.31952,21,32765
7.96233,1.89515,1.31675,18,32765
7.98789,1.87336,1.31918,15,32765
7.98468,1.84434,1.31652,13,32765
7.51925,1.71075,1.23703,13,32765
7.45754,1.67113,1.22474,13,32765
7.44392,1.6427,1.21983,13,32765
7.56541,1.64312,1.23708,13,32765
7.44537,1.5911,1.2161,13,32765
7.44116,1.56418,1.21348,14,32765
7.42743,1.53524,1.20776,14,32765
7.49051,1.523,1.2167,12,32765
8.03793,1.60713,1.3034,12,32765
8.18886,1.60929,1.32485,12,32765
8.28151,1.59911,1.33829,12,32765
8.22892,1.56032,1.32692,12,32765
8.35097,1.55439,1.34354,12,32765
8.25908,1.50887,1.32696,13,32765
8.38089,1.5025,1.34449,13,32765
8.32776,1.46437,1.33325,13,32765
8.42052,1.45176,1.34527,13,32765
8.40599,1.42064,1.34089,13,32765
8.44025,1.39779,1.34311,14,32765
8.41573,1.36541,1.33717,14,32765
8.42043,1.33797,1.3353,13,32765
8.3762,1.30267,1.32617,12,32765
8.50776,1.29408,1.34442,13,32765
8.43408,1.25404,1.33065,13,32765
8.55568,1.24262,1.34858,13,32765
8.5602,1.21382,1.34616,13,32765
8.57408,1.18631,1.3474,13,32765
8.49017,1.14607,1.33133,13,32765
8.54316,1.12448,1.33728,13,32765
8.48802,1.08943,1.32749,13,32765
8.47198,1.0593,1.32402,14,32765
8.44643,1.028,1.31651,14,32765
8.43011,0.998466,1.31316,14,32765
8.52203,0.980521,1.32513,14,32765
8.56449,0.957112,1.33108,14,32765
8.60704,0.933166,1.33628,14,32765
8.56129,0.899476,1.32641,13,32765
8.50521,0.865572,1.31706,13,32765
8.21319,0.808465,1.26983,13,32765
7.96002,0.75712,1.23002,14,32765
7.93303,0.728112,1.22497,16,32765
7.93563,0.701869,1.2234,15,32765
7.90835,0.673516,1.21875,18,32765
7.90076,0.646751,1.21661,20,32765
7.89311,0.619988,1.21432,22,32765
7.98385,0.601282,1.22745,15,32765
8.4787,0.610611,1.30338,13,32765
8.50048,0.584828,1.30547,13,32765
8.38393,0.549339,1.28763,13,32765
8.46467,0.527145,1.2992,13,32765
8.36763,0.493768,1.28429,13,32765
8.42868,0.469426,1.29177,13,32765
8.30171,0.435555,1.27281,13,32765
8.30311,0.408202,1.27274,13,32765
8.24504,0.378571,1.26434,13,32765
8.3055,0.354054,1.27333,13,32765
8.30655,0.326894,1.27373,13,32765
8.2285,0.297316,1.26187,13,32765
8.19965,0.269464,1.25821,13,32765
8.2004,0.242829,1.25875,13,32765
8.20109,0.215828,1.25915,13,32765
8.10286,0.186532,1.24451,13,32765
8.14282,0.161083,1.25144,13,32765
8.05427,0.133607,1.23832,13,32765
8.05447,0.108162,1.23945,12,32765
8.05455,0.0824497,1.2409,12,32765
8.08422,0.056476,1.24685,13,32765
8.01492,0.0296053,1.23784,13,32765
7.92566,0.00305444,1.22648,14,32765
7.96506,-0.022887,1.23322,15,32765
7.95463,-0.0484375,1.23452,13,32765
8.01352,-0.074893,1.245,13,32765
7.88422,-0.0989551,1.22869,13,32765
7.43408,2.42456,1.19335,49,32765
7.46958,2.41035,1.19965,49,32765
7.49603,2.39256,1.20279,48,32765
7.50351,2.36866,1.20351,48,32765
7.52054,2.34701,1.20581,46,32765
7.53758,2.32536,1.20744,44,32765
7.57343,2.30977,1.21168,41,32765
7.57131,2.28281,1.21,39,32765
7.58807,2.2615,1.21119,35,32765
7.58591,2.23421,1.20925,32,32765
7.61202,2.21525,1.2125,29,32765
7.6288,2.19307,1.21358,26,32765
7.63602,2.16807,1.21306,23,32765
7.63374,2.14011,1.21093,20,32765
7.65994,2.12037,1.21281,17,32765
7.67645,2.09792,1.21379,16,32765
7.66423,2.06793,1.21003,15,32765
7.69979,2.05049,1.2134,14,32765
7.50584,1.97247,1.18079,14,32765
7.25409,1.88061,1.13926,15,32765
7.31784,1.87161,1.14711,15,32765
7.2761,1.83556,1.13891,15,32765
7.32066,1.8211,1.14386,15,32765
7.36512,1.80667,1.14882,15,32765
7.41923,1.79402,1.15538,14,32765
7.89664,1.88159,1.22754,14,32765
7.88368,1.85094,1.22382,14,32765
7.81294,1.80664,1.21081,13,32765
7.62631,1.73698,1.17916,14,32765
7.45845,1.67313,1.15113,16,32765
7.45446,1.64677,1.14788,17,32765
7.39251,1.60726,1.1358,15,32765
7.42691,1.58881,1.13979,14,32765
7.44202,1.56598,1.14023,16,32765
7.45731,1.54299,1.13913,21,32765
7.43328,1.51289,1.1342,15,32765
7.6517,1.53144,1.16547,13,32765
8.14223,1.60171,1.23724,14,32765
8.21556,1.58792,1.24689,14,32765
8.23085,1.5622,1.24639,13,32765
8.26555,1.53996,1.24867,14,32765
8.29024,1.51599,1.25065,14,32765
8.31486,1.49205,1.25239,14,32765
8.32006,1.46436,1.25051,14,32765
8.33494,1.43831,1.24999,14,32765
8.35936,1.41401,1.25166,14,32765
8.38386,1.38966,1.25215,14,32765
8.41785,1.36694,1.25524,16,32765
8.44209,1.34255,1.25627,17,32765
8.3978,1.30712,1.2476,14,32765
8.38282,1.27611,1.24288,14,32765
8.45576,1.25826,1.25161,16,32765
8.41109,1.22257,1.24381,14,32765
8.39592,1.19143,1.23854,15,32765
8.38033,1.16035,1.23535,15,32765
8.11968,1.09684,1.19421,16,32765
7.95672,1.04802,1.16808,18,32765
7.89143,1.01354,1.15745,20,32765
7.87511,0.985307,1.15419,24,32765
7.86887,0.958303,1.15005,27,32765
7.88179,0.934075,1.1512,29,32765
7.86544,0.905486,1.14669,29,32765
7.88805,0.881986,1.14941,29,32765
7.90088,0.857031,1.15001,31,32765
7.88429,0.828734,1.14508,32,32765
7.91653,0.806006,1.14917,32,32765
7.91936,0.779846,1.14767,37,32765
7.93178,0.754694,1.14883,37,32765
7.9343,0.728447,1.14833,41,32765
7.90732,0.69954,1.14249,33,32765
7.89971,0.672914,1.14097,32,32765
7.93157,0.649365,1.14462,32,32765
7.91404,0.621681,1.141,29,32765
7.94569,0.598416,1.14476,19,32765
7.9772,0.57446,1.14918,17,32765
7.92976,0.545487,1.14119,19,32765
8.29691,0.543513,1.1941,14,32765
8.46665,0.527099,1.21771,14,32765
8.41889,0.496578,1.21085,14,32765
8.40095,0.467624,1.2064,14,32765
8.36277,0.438457,1.20143,14,32765
8.32463,0.408916,1.19568,14,32765
8.27638,0.379623,1.18927,14,32765
8.30726,0.353697,1.19343,14,32765
8.23908,0.323765,1.18389,14,32765
8.24005,0.297217,1.18414,14,32765
8.20128,0.268959,1.17934,14,32765
8.18224,0.24169,1.17704,14,32765
8.14336,0.213666,1.17174,14,32765
8.13405,0.186564,1.17085,14,32765
8.13449,0.160189,1.17171,14,32765
8.12498,0.134009,1.17084,14,32765
8.1252,0.108299,1.17198,13,32765
8.12529,0.0823174,1.17344,14,32765
8.06593,0.0554545,1.16624,14,32765
8.02624,0.0287137,1.16219,14,32765
7.96657,0.00209903,1.15597,15,32765
7.94665,-0.0238452,1.15372,15,32765
7.92633,-0.0493172,1.15367,16,32765
7.93584,-0.0752631,1.15638,14,32765
7.89544,-0.10023,1.15426,14,32765
7.44207,2.41799,1.22282,41,32765
7.47858,2.40375,1.22282,42,32765
7.47767,2.37662,1.21641,41,32765
7.50488,2.35862,1.21462,41,32765
7.53236,2.33978,1.21217,41,32765
7.54977,2.31852,1.2106,39,32765
7.59554,2.30579,1.21327,36,32765
7.60358,2.28145,1.2089,30,32765
7.62079,2.25997,1.20732,24,32765
7.59073,2.22411,1.19758,18,32765
7.59854,2.19935,1.19377,14,32765
7.60625,2.17446,1.19024,13,32765
7.62329,2.15208,1.18915,12,32765
7.61171,2.12191,1.18301,12,32765
7.63821,2.10218,1.18265,12,32765
7.67413,2.08521,1.18373,12,32765
7.78626,2.08849,1.19789,13,32765
7.66921,2.03017,1.17563,12,32765
7.62821,1.99274,1.16635,13,32765
7.31905,1.88628,1.11494,14,32765
7.23921,1.84049,1.09949,14,32765
7.37029,1.84817,1.116,14,32765
7.36724,1.82129,1.11157,13,32765
7.35418,1.7925,1.10704,13,32765
7.35077,1.76591,1.10331,14,32765
7.45303,1.76475,1.11604,13,32765
7.59393,1.77216,1.13407,13,32765
7.57117,1.74049,1.12722,15,32765
7.53835,1.70729,1.12009,14,32765
7.48618,1.66966,1.10989,14,32765
7.44366,1.63434,1.10042,14,32765
7.42994,1.60539,1.09594,14,32765
7.4938,1.59232,1.1023,12,32765
7.45083,1.55712,1.09391,13,32765
7.46584,1.53463,1.09369,17,32765
7.47092,1.51068,1.09231,14,32765
7.53435,1.49815,1.09853,12,32765
8.00567,1.56478,1.16548,13,32765
8.21526,1.57773,1.1928,13,32765
8.14278,1.53572,1.18053,12,32765
8.27439,1.53222,1.19862,13,32765
8.26028,1.50131,1.19343,13,32765
8.34343,1.48774,1.2031,13,32765
8.32902,1.45673,1.19875,13,32765
8.37305,1.4358,1.20287,13,32765
8.42662,1.4164,1.20943,13,32765
8.42164,1.38728,1.20661,13,32765
8.43615,1.36096,1.20668,13,32765
8.46034,1.33645,1.2079,16,32765
8.47466,1.31006,1.20807,14,32765
8.44003,1.27573,1.20119,12,32765
8.39536,1.24034,1.1935,14,32765
8.086,1.16664,1.14805,14,32765
7.87434,1.10934,1.11584,22,32765
7.8683,1.08158,1.11375,24,32765
7.89164,1.05799,1.11549,29,32765
7.88538,1.03062,1.11332,29,32765
7.88891,1.00442,1.11226,27,32765
7.89233,0.978367,1.11123,26,32765
7.89563,0.952491,1.11029,27,32765
7.89889,0.926577,1.109,26,32765
7.89216,0.899744,1.10663,25,32765
7.89529,0.873492,1.10534,25,32765
7.90807,0.848567,1.10603,27,32765
7.89131,0.820165,1.10213,27,32765
7.91389,0.796058,1.10341,26,32765
7.90672,0.768953,1.10132,25,32765
7.91942,0.743292,1.10058,26,32765
7.89234,0.714329,1.09575,25,32765
7.89487,0.688085,1.09435,24,32765
7.89725,0.662181,1.09316,24,32765
7.85995,0.633311,1.08707,24,32765
7.9116,0.611393,1.09217,23,32765
7.85434,0.581351,1.08343,27,32765
7.87624,0.556942,1.08422,31,32765
7.87814,0.530932,1.08351,19,32765
8.1075,0.519317,1.11301,14,32765
8.44569,0.512767,1.15716,13,32765
8.44752,0.485264,1.15565,13,32765
8.38996,0.454451,1.14563,13,32765
8.39143,0.427514,1.14521,13,32765
8.36321,0.399253,1.14008,13,32765
8.32512,0.370478,1.13276,13,32765
8.26702,0.341082,1.12364,13,32765
8.28825,0.314763,1.12372,13,32765
8.23991,0.28611,1.1155,12,32765
8.27075,0.260172,1.11778,13,32765
8.25209,0.232265,1.11262,13,32765
8.22332,0.204994,1.10679,13,32765
8.20441,0.177585,1.10205,13,32765
8.16558,0.150066,1.09472,13,32765
8.16617,0.123743,1.09359,13,32765
8.1272,0.0966192,1.08598,13,32765
8.12778,0.0706075,1.08364,12,32765
8.07876,0.0443494,1.07435,13,32765
8.07924,0.0188813,1.07146,13,32765
8.00035,-0.0066755,1.05798,13,32765
8.00062,-0.0325459,1.05544,14,32765
7.99091,-0.0580794,1.05146,15,32765
7.95151,-0.0833523,1.04253,14,32765
7.93183,-0.107679,1.03655,14,32765
7.38589,2.40294,1.13886,29,32765
7.38468,2.37673,1.13283,23,32765
7.39305,2.35286,1.12801,18,32765
7.3824,2.32321,1.12036,15,32765
7.43809,2.31356,1.12209,14,32765
7.42702,2.28384,1.11619,14,32765
7.4727,2.2715,1.11854,14,32765
7.44267,2.23611,1.10859,14,32765
7.50718,2.2292,1.11402,13,32765
7.53393,2.21037,1.11313,14,32765
7.55118,2.1885,1.11075,13,32765
7.57787,2.16917,1.11003,14,32765
7.58536,2.14415,1.10746,14,32765
7.54509,2.10606,1.09736,14,32765
7.5429,2.07863,1.0927,15,32765
7.47362,2.03334,1.07837,15,32765
7.41351,1.99105,1.06678,16,32765
7.30552,1.93636,1.04725,17,32765
7.31206,1.91257,1.04538,17,32765
7.36669,1.90096,1.04909,14,32765
7.27719,1.85248,1.0331,16,32765
7.30275,1.83353,1.03343,16,32765
7.32847,1.81397,1.03318,15,32765
7.34423,1.79229,1.03291,15,32765
7.37933,1.77496,1.03468,15,32765
7.40461,1.75544,1.03568,15,32765
7.9123,1.84871,1.10356,14,32765
7.88975,1.81593,1.09688,14,32765
7.89579,1.7904,1.09542,13,32765
7.71809,1.72344,1.0683,14,32765
7.43369,1.6341,1.02583,17,32765
7.41995,1.60513,1.02154,17,32765
7.4257,1.5797,1.01935,19,32765
7.43113,1.55481,1.01809,19,32765
7.43643,1.53035,1.01646,22,32765
7.46092,1.5104,1.01773,22,32765
7.46607,1.48627,1.01545,22,32765
7.50019,1.46764,1.01849,22,32765
7.49553,1.44112,1.01499,21,32765
7.51989,1.41982,1.01672,20,32765
8.0899,1.4997,1.09287,14,32765
8.2902,1.50839,1.11683,14,32765
8.31491,1.48425,1.11787,14,32765
8.31999,1.4567,1.11632,14,32765
8.37384,1.43745,1.12138,14,32765
8.3786,1.40979,1.12093,14,32765
8.38335,1.38239,1.11952,14,32765
8.40764,1.35773,1.12081,14,32765
8.41226,1.33018,1.11924,15,32765
8.49515,1.31451,1.12844,18,32765
8.45067,1.27858,1.12062,15,32765
8.38633,1.24018,1.1108,14,32765
8.36117,1.20746,1.10598,14,32765
7.98245,1.1256,1.05374,16,32765
7.87823,1.08391,1.03878,33,32765
7.89177,1.05894,1.03904,35,32765
7.8855,1.03151,1.03696,33,32765
7.87919,1.00401,1.03461,31,32765
7.8826,0.977951,1.03359,34,32765
7.87605,0.950874,1.03136,32,32765
7.86945,0.923824,1.02878,31,32765
7.89226,0.900414,1.03036,35,32765
7.90524,0.87521,1.03036,40,32765
7.92789,0.851268,1.03224,46,32765
7.89138,0.8207,1.02596,50,32765
7.92385,0.797545,1.02833,56,32765
7.91666,0.770361,1.02634,59,32765
7.91949,0.743697,1.02422,62,32765
7.92201,0.717367,1.0235,63,32765
7.91466,0.690119,1.02081,63,32765
7.91703,0.664107,1.01963,63,32765
7.91924,0.638311,1.01899,63,32765
7.95118,0.614632,1.02108,58,32765
7.94331,0.588073,1.01924,57,32765
7.94546,0.561931,1.01729,61,32765
7.92757,0.534314,1.01404,42,32765
7.91962,0.507291,1.01105,25,32765
8.28788,0.503149,1.05584,14,32765
8.48774,0.487491,1.07956,14,32765
8.4202,0.455961,1.06883,14,32765
8.40186,0.427871,1.06589,14,32765
8.3835,0.400004,1.0623,14,32765
8.385,0.372881,1.06036,14,32765
8.29708,0.342018,1.04804,14,32765
8.31832,0.315556,1.04793,14,32765
8.29966,0.287793,1.04391,14,32765
8.2611,0.259434,1.03718,14,32765
8.22256,0.230957,1.02973,14,32765
8.20364,0.203985,1.02543,14,32765
8.15493,0.175955,1.01717,14,32765
8.17555,0.149645,1.01763,14,32765
8.12652,0.122498,1.01033,14,32765
8.12716,0.0959315,1.00804,14,32765
8.12772,0.0698773,1.0057,14,32765
8.04884,0.0434209,0.9932,14,32765
8.08899,0.0180949,0.995204,14,32765
8.02982,-0.00754447,0.984903,14,32765
8.03007,-0.0335524,0.982354,15,32765
7.99054,-0.0590008,0.974825,15,32765
7.96098,-0.0844133,0.967479,18,32765
7.97102,-0.109214,0.965289,15,32765
7.31469,2.3844,1.01368,13,32765
7.3978,2.38481,1.0251,13,32765
7.3675,2.34903,1.0208,13,32765
7.41253,2.33798,1.02656,13,32765
7.38207,2.30296,1.02053,13,32765
7.45571,2.29984,1.02958,13,32765
7.4345,2.26712,1.02664,13,32765
7.52738,2.26849,1.03797,13,32765
7.55388,2.24967,1.03943,12,32765
7.55171,2.22227,1.03767,13,32765
7.578,2.20351,1.03925,18,32765
7.50872,2.15729,1.02936,16,32765
7.48718,2.12474,1.02472,15,32765
7.61851,2.13479,1.03993,13,32765
7.61601,2.10682,1.03854,13,32765
7.62316,2.08147,1.03722,12,32765
7.72568,2.08241,1.04994,13,32765
7.73254,2.05716,1.04919,13,32765
7.7777,2.04225,1.05294,13,32765
7.78435,2.01702,1.05247,13,32765
7.33956,1.87612,0.990268,14,32765
7.38422,1.86187,0.994561,13,32765
7.26538,1.80665,0.976111,14,32765
7.27133,1.78302,0.975281,15,32765
7.22914,1.74725,0.967811,16,32765
7.28326,1.73474,0.973308,17,32765
7.26017,1.70366,0.968425,16,32765
7.30474,1.68817,0.971867,17,32765
7.30061,1.66182,0.970531,18,32765
7.32559,1.6421,0.971644,18,32765
7.34085,1.62025,0.971102,19,32765
7.37522,1.60291,0.974105,20,32765
7.38083,1.57836,0.971696,19,32765
7.40564,1.55774,0.973063,19,32765
7.44997,1.54061,0.976382,19,32765
7.4552,1.51569,0.975492,19,32765
7.46994,1.49321,0.976094,19,32765
7.48483,1.47055,0.975179,19,32765
7.5092,1.44985,0.976673,19,32765
7.52388,1.42685,0.976597,18,32765
7.83115,1.45806,1.01394,14,32765
8.33375,1.5233,1.0769,13,32765
8.28047,1.48469,1.06766,13,32765
8.34422,1.46754,1.07325,13,32765
8.38829,1.44654,1.0773,13,32765
8.39325,1.41876,1.07556,13,32765
8.41762,1.39461,1.07642,13,32765
8.46159,1.37292,1.07993,13,32765
8.43695,1.33996,1.07449,14,32765
8.48082,1.3175,1.07811,16,32765
8.47557,1.28756,1.07543,14,32765
8.42105,1.25081,1.06665,13,32765
7.95407,1.15438,1.00506,15,32765
7.86958,1.1158,0.992409,22,32765
7.86355,1.08806,0.990288,24,32765
7.83777,1.05796,0.985421,26,32765
7.85132,1.03322,0.984686,28,32765
7.84502,1.00578,0.982351,32,32765
7.83852,0.979056,0.980109,37,32765
7.83209,0.952096,0.976887,43,32765
7.84514,0.927801,0.977031,50,32765
7.86787,0.904547,0.97922,55,32765
7.88079,0.879639,0.979518,56,32765
7.87405,0.852461,0.97621,57,32765
7.87697,0.825965,0.975443,59,32765
7.87987,0.799641,0.973944,60,32765
7.89233,0.774691,0.975245,61,32765
7.89493,0.748933,0.974283,61,32765
7.89743,0.723336,0.973408,61,32765
7.89989,0.697186,0.972533,60,32765
7.91208,0.671918,0.973414,61,32765
7.90448,0.64473,0.971374,59,32765
7.90667,0.618343,0.97076,55,32765
7.93841,0.594776,0.973838,44,32765
7.9503,0.569466,0.974335,52,32765
7.91256,0.541087,0.968872,42,32765
7.91425,0.515701,0.968924,23,32765
8.08441,0.50025,0.988765,15,32765
8.4824,0.497299,1.03691,13,32765
8.48402,0.469621,1.03656,13,32765
8.40619,0.438102,1.02684,13,32765
8.33817,0.407477,1.01828,13,32765
8.33943,0.380295,1.01856,13,32765
8.34061,0.353053,1.01868,13,32765
8.26237,0.322417,1.00903,13,32765
8.30298,0.296885,1.01455,13,32765
8.25422,0.268364,1.00905,13,32765
8.21521,0.240354,1.00544,13,32765
8.23583,0.21399,1.00764,13,32765
8.19675,0.185815,1.00317,13,32765
8.17735,0.158881,1.00168,13,32765
8.17771,0.132271,1.0026,13,32765
8.08868,0.104554,0.992388,13,32765
8.19796,0.0796231,1.0073,13,32765
8.08887,0.052192,0.994988,13,32765
8.11856,0.0263172,1.00038,13,32765
8.04895,0.000209969,0.993191,13,32765
8.00891,-0.025073,0.990744,13,32765
8.04827,-0.0507393,0.997465,14,32765
7.97837,-0.0766654,0.990656,16,32765
7.96767,-0.102777,0.993231,13,32765
7.35068,2.39978,0.944782,14,32765
7.34893,2.37266,0.944523,14,32765
7.36585,2.35205,0.946668,14,32765
7.3731,2.32903,0.947187,13,32765
7.43731,2.32367,0.95368,14,32765
7.40678,2.28816,0.948713,14,32765
7.50894,2.29321,0.961856,14,32765
7.49748,2.26281,0.958968,14,32765
7.543,2.24974,0.962674,14,32765
7.53131,2.21951,0.959793,14,32765
7.53855,2.19524,0.95876,14,32765
7.56458,2.1765,0.961746,14,32765
7.58127,2.15456,0.962218,13,32765
7.60769,2.13483,0.962885,14,32765
7.6339,2.1148,0.965218,14,32765
7.66022,2.09458,0.966306,14,32765
7.64789,2.06438,0.963598,14,32765
7.69307,2.04956,0.967679,14,32765
7.69984,2.02465,0.966241,14,32765
7.60074,1.97221,0.952527,13,32765
7.29956,1.86851,0.912792,13,32765
7.25761,1.83249,0.905902,13,32765
7.16743,1.78476,0.892292,14,32765
7.16367,1.75904,0.890273,22,32765
7.20819,1.74457,0.894057,22,32765
7.23338,1.72521,0.8955,22,32765
7.23923,1.70104,0.894486,22,32765
7.26447,1.68113,0.895174,23,32765
7.28937,1.66148,0.897506,22,32765
7.30468,1.6396,0.897242,22,32765
7.31024,1.61563,0.895424,22,32765
7.33492,1.59625,0.896961,23,32765
7.39875,1.58426,0.901664,22,32765
7.40416,1.55946,0.900476,23,32765
7.42909,1.53828,0.901061,23,32765
7.43431,1.51339,0.900173,22,32765
7.43932,1.48898,0.899505,23,32765
7.48342,1.47214,0.902027,23,32765
7.48832,1.44764,0.900987,22,32765
7.503,1.42467,0.90082,22,32765
7.53721,1.40508,0.902533,20,32765
8.01088,1.46609,0.957264,14,32765
8.27015,1.48465,0.985946,15,32765
8.29483,1.46062,0.986319,14,32765
8.31933,1.43637,0.987674,14,32765
8.36343,1.4154,0.990587,14,32765
8.3976,1.39293,0.992429,14,32765
8.37297,1.36012,0.987468,14,32765
8.42672,1.33988,0.991565,14,32765
8.42156,1.30978,0.989046,16,32765
8.51447,1.29492,0.997973,18,32765
8.48938,1.26236,0.993201,16,32765
8.39547,1.21977,0.979679,14,32765
7.85865,1.11546,0.915104,22,32765
7.8723,1.09043,0.915366,36,32765
7.88586,1.06556,0.915349,57,32765
7.90929,1.04192,0.915648,60,32765
7.903,1.01424,0.913398,61,32765
7.90638,0.98851,0.912379,63,32765
7.89996,0.961279,0.909233,64,32765
7.88344,0.933216,0.905872,64,32765
7.8766,0.906389,0.904472,64,32765
7.87966,0.880306,0.903543,64,32765
7.86302,0.852014,0.899198,65,32765
7.84617,0.823433,0.896174,65,32765
7.83917,0.796163,0.893554,65,32765
7.82196,0.768388,0.891379,65,32765
7.82454,0.742814,0.890426,65,32765
7.82701,0.717401,0.889558,65,32765
7.84924,0.693187,0.890938,65,32765
7.86143,0.668042,0.891727,65,32765
7.88352,0.6434,0.893152,65,32765
7.90551,0.618587,0.894782,65,32765
7.9571,0.596468,0.89982,61,32765
7.96901,0.571052,0.900221,58,32765
7.9808,0.545954,0.900727,60,32765
7.96267,0.519012,0.898541,38,32765
7.92474,0.490479,0.893306,27,32765
8.26362,0.484538,0.931001,15,32765
8.43387,0.466864,0.949652,14,32765
8.43534,0.439592,0.949623,14,32765
8.43673,0.412216,0.949541,14,32765
8.39829,0.382854,0.945353,15,32765
8.4392,0.357052,0.949938,14,32765
8.31124,0.324103,0.935453,14,32765
8.31218,0.296944,0.936133,14,32765
8.27331,0.268669,0.932217,14,32765
8.274,0.241709,0.933469,15,32765
8.21517,0.213045,0.926519,14,32765
8.21579,0.185789,0.926903,15,32765
8.16657,0.15817,0.922235,14,32765
8.17687,0.131707,0.924284,13,32765
8.1573,0.104845,0.92278,14,32765
8.13756,0.0783944,0.922036,14,32765
8.05815,0.051311,0.914131,13,32765
8.1177,0.0255793,0.92262,13,32765
8.04803,-0.00056536,0.916091,14,32765
8.04771,-0.0260163,0.918555,15,32765
8.04738,-0.0516016,0.920366,14,32765
7.96748,-0.0774677,0.913074,17,32765
7.93694,-0.103332,0.913451,16,32765
7.32158,2.38202,0.968541,13,32765
7.3677,2.37042,0.968542,13,32765
7.33838,2.33394,0.958373,13,32765
7.42216,2.33422,0.963636,13,32765
7.42995,2.31074,0.960198,13,32765
7.43792,2.28705,0.955182,13,32765
7.47419,2.27185,0.955022,13,32765
7.4535,2.23903,0.947442,13,32765
7.46102,2.21505,0.944591,13,32765
7.55437,2.21607,0.95155,13,32765
7.57132,2.19447,0.950287,13,32765
7.56936,2.16712,0.945147,13,32765
7.57685,2.14218,0.94198,13,32765
7.6321,2.13054,0.944554,13,32765
7.62998,2.10244,0.940252,13,32765
7.65636,2.08242,0.940082,13,32765
7.66357,2.0573,0.936615,13,32765
7.69938,2.03989,0.937446,13,32765
7.67738,2.00758,0.931404,13,32765
7.71303,1.99032,0.931759,13,32765
7.36359,1.87463,0.886461,12,32765
7.35062,1.84608,0.881673,12,32765
7.22187,1.78871,0.86323,12,32765
7.19909,1.75809,0.856656,16,32765
7.19543,1.73194,0.853656,18,32765
7.19167,1.70578,0.850764,19,32765
7.23612,1.69125,0.853643,19,32765
7.26132,1.67154,0.853899,19,32765
7.28641,1.652,0.854117,19,32765
7.33079,1.63648,0.857354,20,32765
7.3171,1.60792,0.852185,19,32765
7.34193,1.58808,0.85304,20,32765
7.38636,1.57189,0.8549,20,32765
7.40136,1.54974,0.854589,20,32765
7.40659,1.52541,0.85307,20,32765
7.43124,1.50483,0.853873,20,32765
7.47529,1.48816,0.85695,20,32765
7.49985,1.46715,0.857794,19,32765
7.50498,1.44228,0.855119,19,32765
7.5488,1.42485,0.859223,19,32765
7.53408,1.39655,0.855246,19,32765
7.64628,1.39157,0.866193,15,32765
8.35551,1.4919,0.944043,13,32765
8.36047,1.46431,0.943398,13,32765
8.36554,1.43649,0.94121,13,32765
8.40956,1.41503,0.945198,13,32765
8.4242,1.38865,0.944804,13,32765
8.43874,1.36186,0.944984,13,32765
8.46316,1.33652,0.944995,13,32765
8.48733,1.3112,0.946363,13,32765
8.49185,1.28267,0.944924,15,32765
8.52558,1.25894,0.947894,15,32765
8.44141,1.21755,0.936242,13,32765
7.98285,1.1244,0.884246,14,32765
7.89805,1.08601,0.872769,25,32765
7.88208,1.05706,0.869178,43,32765
7.88556,1.03109,0.86877,50,32765
7.89897,1.00598,0.868538,53,32765
7.89245,0.978709,0.866811,57,32765
7.886,0.951354,0.863735,59,32765
7.89914,0.926332,0.863381,61,32765
7.90219,0.900555,0.86282,63,32765
7.90523,0.874333,0.86194,63,32765
7.89831,0.847276,0.859642,64,32765
7.90119,0.82103,0.85864,65,32765
7.8941,0.793859,0.856386,66,32765
7.87704,0.76579,0.852869,67,32765
7.8699,0.738449,0.849625,67,32765
7.8724,0.712505,0.84862,68,32765
7.88472,0.687231,0.848782,67,32765
7.9069,0.662611,0.849876,66,32765
7.91913,0.637198,0.849345,64,32765
7.9313,0.611442,0.848909,62,32765
7.91355,0.583881,0.84567,58,32765
7.93532,0.559598,0.847105,41,32765
7.97694,0.536437,0.84983,50,32765
7.94897,0.508823,0.845619,39,32765
7.93091,0.481609,0.841894,22,32765
8.00214,0.459731,0.847336,16,32765
8.42076,0.456198,0.890563,13,32765
8.52173,0.43365,0.899137,13,32765
8.42388,0.401489,0.887389,13,32765
8.35583,0.370842,0.877924,13,32765
8.44664,0.347072,0.885361,13,32765
8.35845,0.315844,0.874397,13,32765
8.31988,0.286777,0.86849,13,32765
8.28123,0.258305,0.862173,13,32765
8.36173,0.233608,0.868866,13,32765
8.25319,0.203626,0.856356,13,32765
8.27396,0.177306,0.855846,13,32765
8.23488,0.149725,0.850118,13,32765
8.21565,0.123134,0.845896,13,32765
8.23616,0.0970117,0.845395,13,32765
8.21682,0.0708546,0.840463,13,32765
8.13755,0.0444533,0.831117,12,32765
8.13798,0.0176098,0.827889,13,32765
8.13822,-0.0089146,0.825614,13,32765
8.06882,-0.0349613,0.815484,13,32765
8.02917,-0.0596158,0.808535,13,32765
8.00938,-0.0842992,0.803246,14,32765
8.00944,-0.110013,0.79952,14,32765
7.30994,2.38197,0.893644,14,32765
7.33716,2.36429,0.89098,14,32765
7.3456,2.3399,0.88577,14,32765
7.37259,2.32225,0.883465,14,32765
7.36134,2.29298,0.877785,14,32765
7.49267,2.30748,0.887435,14,32765
7.46247,2.27182,0.879125,14,32765
7.50834,2.25901,0.879633,14,32765
7.43971,2.21215,0.86787,14,32765
7.54264,2.21606,0.875101,14,32765
7.56913,2.19723,0.87485,14,32765
7.5767,2.17257,0.8709,14,32765
7.56506,2.14214,0.86554,14,32765
7.57248,2.11714,0.862198,14,32765
7.62777,2.10506,0.864529,14,32765
7.65417,2.085,0.86417,14,32765
7.66137,2.05985,0.860703,14,32765
7.70681,2.04496,0.862326,14,32765
7.71364,2.02012,0.859777,14,32765
7.75897,2.0052,0.860903,14,32765
7.62119,1.94314,0.842487,13,32765
7.32876,1.84336,0.807004,13,32765
7.19022,1.78354,0.788819,13,32765
7.22533,1.76713,0.788866,13,32765
7.22168,1.74085,0.785951,19,32765
7.20826,1.71225,0.782095,22,32765
7.21403,1.68858,0.780404,22,32765
7.25861,1.67338,0.782566,23,32765
7.28372,1.65381,0.782596,23,32765
7.30873,1.63393,0.783377,23,32765
7.32413,1.61181,0.781512,23,32765
7.32955,1.5877,0.780107,23,32765
7.36427,1.56945,0.780564,23,32765
7.4182,1.5555,0.784279,23,32765
7.40396,1.52705,0.780701,23,32765
7.44813,1.51039,0.783366,23,32765
7.45321,1.48586,0.78197,23,32765
7.47778,1.46489,0.782629,22,32765
7.50242,1.44381,0.781997,23,32765
7.48764,1.41527,0.779618,23,32765
7.53154,1.39801,0.781934,23,32765
7.56556,1.37877,0.783738,22,32765
7.77595,1.39031,0.803259,15,32765
8.23133,1.44364,0.849159,14,32765
8.33437,1.43307,0.857087,14,32765
8.33918,1.40506,0.856669,14,32765
8.39305,1.38534,0.860216,15,32765
8.36831,1.35226,0.856285,14,32765
8.44184,1.33489,0.861138,14,32765
8.46602,1.30959,0.86232,14,32765
8.4902,1.28406,0.862883,15,32765
8.4846,1.25447,0.861573,16,32765
8.4988,1.22736,0.860747,18,32765
8.44379,1.19079,0.85401,15,32765
7.90568,1.08838,0.797536,21,32765
7.88969,1.05935,0.79413,36,32765
7.90305,1.0346,0.794712,60,32765
7.91647,1.00939,0.794383,63,32765
7.8902,0.979559,0.790769,64,32765
7.89361,0.953355,0.788773,64,32765
7.88699,0.925942,0.786353,64,32765
7.87026,0.897901,0.783822,65,32765
7.87329,0.871736,0.782946,65,32765
7.85645,0.843673,0.779764,65,32765
7.84941,0.816488,0.777786,65,32765
7.83239,0.788443,0.774654,65,32765
7.8351,0.762455,0.773289,66,32765
7.82792,0.735205,0.770151,66,32765
7.82049,0.708454,0.768176,66,32765
7.82289,0.682442,0.767278,65,32765
7.84506,0.657983,0.768191,65,32765
7.87712,0.634328,0.769518,65,32765
7.8992,0.609431,0.769963,65,32765
7.92113,0.584858,0.77078,64,32765
7.96277,0.561907,0.773955,62,32765
7.9647,0.535941,0.772447,54,32765
7.99629,0.512134,0.774291,58,32765
7.95834,0.483508,0.768824,42,32765
7.97,0.458073,0.767857,29,32765
8.1604,0.442237,0.78515,16,32765
8.53976,0.434669,0.819558,14,32765
8.49152,0.404765,0.813509,14,32765
8.37367,0.371637,0.799934,14,32765
8.37504,0.344084,0.797992,14,32765
8.41607,0.317926,0.800183,14,32765
8.3476,0.287588,0.791808,14,32765
8.3288,0.259597,0.787741,14,32765
8.28995,0.231363,0.782403,14,32765
8.29077,0.204265,0.781253,14,32765
8.27172,0.176924,0.776804,14,32765
8.20272,0.148761,0.768654,14,32765
8.23322,0.12297,0.769279,14,32765
8.17408,0.0958102,0.761169,14,32765
8.18456,0.0700605,0.759218,14,32765
8.15499,0.043988,0.755238,14,32765
8.13547,0.0169982,0.750167,14,32765
8.15561,-0.00958851,0.749725,14,32765
8.12594,-0.0359074,0.743893,14,32765
8.12606,-0.061078,0.74093,15,32765
8.05643,-0.0855745,0.73127,14,32765
8.06641,-0.111622,0.728422,15,32765
7.31971,2.39091,0.782985,13,32765
7.34627,2.37345,0.785247,13,32765
7.40118,2.36495,0.790964,13,32765
7.36135,2.32603,0.785949,13,32765
7.39737,2.31086,0.78925,13,32765
7.41445,2.28963,0.789691,13,32765
7.4217,2.26592,0.789944,13,32765
7.39075,2.23088,0.78585,13,32765
7.52201,2.24404,0.797316,13,32765
7.56754,2.23063,0.800968,13,32765
7.57486,2.20551,0.801348,12,32765
7.5918,2.18352,0.800271,13,32765
7.58938,2.1559,0.798927,13,32765
7.62515,2.13925,0.801395,13,32765
7.64184,2.11699,0.800985,12,32765
7.6391,2.08951,0.799826,13,32765
7.66527,2.06983,0.79989,13,32765
7.67219,2.04432,0.799167,13,32765
7.69839,2.02368,0.799739,13,32765
7.72441,2.00296,0.801251,13,32765
7.76013,1.98454,0.802839,13,32765
7.52535,1.89867,0.777251,12,32765
7.29993,1.81652,0.751566,12,32765
7.19955,1.76685,0.739751,12,32765
7.21509,1.74577,0.739183,13,32765
7.21129,1.7195,0.73697,18,32765
7.26548,1.70691,0.741149,19,32765
7.22281,1.67139,0.734863,19,32765
7.27698,1.65843,0.738309,19,32765
7.28252,1.63431,0.73752,19,32765
7.27842,1.60793,0.73437,19,32765
7.3421,1.59676,0.739207,18,32765
7.36699,1.57651,0.739553,18,32765
7.37224,1.55221,0.738631,18,32765
7.35799,1.52387,0.735103,18,32765
7.40218,1.50714,0.737836,17,32765
7.42681,1.48626,0.738684,15,32765
7.50038,1.47438,0.743548,18,32765
7.50547,1.44924,0.741689,18,32765
7.5299,1.42809,0.742392,18,32765
7.56405,1.40849,0.744485,19,32765
7.56881,1.38391,0.742211,19,32765
7.62255,1.36757,0.74496,15,32765
8.28403,1.45806,0.807118,13,32765
8.37723,1.44585,0.814277,13,32765
8.40181,1.42109,0.81466,13,32765
8.40659,1.39325,0.81347,13,32765
8.43102,1.36836,0.813596,13,32765
8.43564,1.34012,0.81271,13,32765
8.45995,1.31486,0.812635,13,32765
8.48409,1.28948,0.813523,13,32765
8.50813,1.26392,0.814722,14,32765
8.51254,1.23555,0.812174,16,32765
8.53642,1.21051,0.812279,14,32765
8.21507,1.13703,0.780165,14,32765
7.89333,1.06567,0.748165,25,32765
7.89699,1.03922,0.746696,44,32765
7.89077,1.01137,0.743611,57,32765
7.89411,0.985413,0.742995,59,32765
7.90725,0.960837,0.743122,61,32765
7.92038,0.936163,0.742521,62,32765
7.91365,0.909198,0.739968,63,32765
7.91672,0.882947,0.738878,63,32765
7.92961,0.857852,0.738568,64,32765
7.91267,0.829456,0.73609,65,32765
7.92542,0.804176,0.735535,66,32765
7.90822,0.776001,0.733651,67,32765
7.90091,0.748758,0.732009,67,32765
7.9133,0.723838,0.73224,67,32765
7.91581,0.697631,0.730543,67,32765
7.93797,0.673279,0.731705,66,32765
7.9501,0.648371,0.731889,64,32765
7.95229,0.622059,0.730937,63,32765
7.94433,0.595462,0.730065,62,32765
7.94631,0.569397,0.729345,59,32765
7.95817,0.543804,0.729363,39,32765
7.97976,0.519135,0.731289,50,32765
7.97151,0.492345,0.730098,40,32765
7.94326,0.464677,0.727195,24,32765
7.99447,0.441335,0.731628,17,32765
8.53292,0.44284,0.780793,13,32765
8.49454,0.413084,0.777006,13,32765
8.40629,0.381089,0.769179,13,32765
8.43738,0.35494,0.77141,13,32765
8.40863,0.326186,0.768823,13,32765
8.36979,0.29755,0.765664,13,32765
8.24124,0.266345,0.754594,13,32765
8.31167,0.241426,0.761809,13,32765
8.26266,0.212829,0.757026,13,32765
8.29309,0.186371,0.760808,13,32765
8.26368,0.158536,0.759205,13,32765
8.22424,0.131026,0.756547,13,32765
8.24452,0.104464,0.758504,13,32765
8.22471,0.0775493,0.758726,13,32765
8.20496,0.0508794,0.757428,13,32765
8.16509,0.0240685,0.755506,13,32765
8.14497,-0.0020891,0.756174,13,32765
8.11496,-0.0285446,0.754388,13,32765
8.07479,-0.0542516,0.752991,13,32765
8.03454,-0.0797712,0.751435,13,32765
8.05385,-0.106027,0.756509,14,32765
7.30622,2.39069,0.708583,14,32765
7.33282,2.37324,0.710655,14,32765
7.3214,2.34353,0.709466,14,32765
7.36692,2.33183,0.713189,14,32765
7.3935,2.31364,0.715287,14,32765
7.38206,2.28356,0.712876,14,32765
7.41787,2.26865,0.715882,14,32765
7.42505,2.24507,0.715836,14,32765
7.48966,2.2382,0.719655,14,32765
7.53521,2.22488,0.722931,14,32765
7.50429,2.18867,0.719641,14,32765
7.54988,2.17514,0.721229,14,32765
7.51871,2.13942,0.717237,14,32765
7.60239,2.13645,0.723992,14,32765
7.61907,2.11422,0.72349,14,32765
7.64514,2.09466,0.725156,14,32765
7.67134,2.07492,0.725029,14,32765
7.65904,2.0442,0.722487,14,32765
7.72377,2.03371,0.726495,14,32765
7.69202,1.99785,0.722385,14,32765
7.69879,1.97209,0.720985,14,32765
7.78243,1.96675,0.727533,14,32765
7.46041,1.85948,0.695032,13,32765
7.25369,1.78303,0.674338,13,32765
7.33705,1.77816,0.679941,13,32765
7.17835,1.71442,0.663473,15,32765
7.20348,1.69507,0.664502,22,32765
7.22864,1.67543,0.664943,22,32765
7.25374,1.65578,0.665245,23,32765
7.27871,1.63605,0.666235,23,32765
7.28432,1.61178,0.664066,22,32765
7.32859,1.59634,0.666567,22,32765
7.31454,1.56775,0.663194,17,32765
7.35875,1.5518,0.665804,20,32765
7.40299,1.53558,0.667743,20,32765
7.42773,1.51469,0.668336,21,32765
7.44263,1.49173,0.668115,19,32765
7.45763,1.46824,0.66707,18,32765
7.47246,1.44508,0.666092,22,32765
7.51647,1.42772,0.668352,22,32765
7.52126,1.40265,0.667555,22,32765
7.53579,1.37995,0.666159,23,32765
7.57973,1.36193,0.667583,23,32765
7.77077,1.36978,0.682117,16,32765
8.26626,1.42883,0.723759,15,32765
8.34973,1.41437,0.729121,15,32765
8.37414,1.38991,0.729649,14,32765
8.37889,1.36189,0.727884,14,32765
8.40317,1.33691,0.728709,14,32765
8.40779,1.30864,0.72675,14,32765
8.48117,1.29089,0.731705,14,32765
8.50524,1.26529,0.732715,14,32765
8.49977,1.23544,0.729321,16,32765
8.55325,1.2146,0.731771,17,32765
8.48827,1.17647,0.724663,16,32765
7.94915,1.07468,0.677215,19,32765
7.90344,1.04148,0.671538,36,32765
7.91697,1.0161,0.670218,60,32765
7.92033,0.990004,0.669599,64,32765
7.92359,0.964092,0.668793,64,32765
7.90704,0.935804,0.665596,64,32765
7.9102,0.90997,0.663969,64,32765
7.89346,0.881469,0.66122,64,32765
7.89644,0.855331,0.659991,64,32765
7.89929,0.829071,0.659357,64,32765
7.89221,0.801773,0.657059,65,32765
7.89483,0.775603,0.657014,65,32765
7.89743,0.749294,0.656291,65,32765
7.8999,0.723429,0.655604,65,32765
7.92225,0.698969,0.655552,65,32765
7.92457,0.672864,0.654884,64,32765
7.92677,0.64714,0.654155,65,32765
7.93889,0.621634,0.654024,64,32765
7.94087,0.595776,0.654064,64,32765
7.96272,0.571099,0.65498,63,32765
8.00442,0.547443,0.657351,60,32765
7.97632,0.519338,0.655006,51,32765
8.0178,0.495583,0.65799,57,32765
7.97958,0.46713,0.654552,40,32765
7.96118,0.439774,0.652802,29,32765
8.18156,0.424838,0.670779,16,32765
8.48156,0.412642,0.695114,14,32765
8.50276,0.385598,0.69711,14,32765
8.44427,0.355312,0.691712,14,32765
8.3657,0.324551,0.685328,14,32765
8.38659,0.298125,0.687441,14,32765
8.42729,0.272283,0.69149,14,32765
8.29856,0.240919,0.681699,14,32765
8.33918,0.214622,0.684749,14,32765
8.2999,0.186293,0.682523,14,32765
8.24059,0.157812,0.678741,14,32765
8.24098,0.13096,0.679744,14,32765
8.24135,0.10404,0.67987,14,32765
8.20161,0.0768976,0.67863,14,32765
8.12205,0.0498856,0.672567,13,32765
7.82305,0.0225487,0.649491,13,32765
7.51396,-0.00246593,0.626159,12,32765
7.50386,-0.0269799,0.626242,12,32765
7.53346,-0.0512489,0.630889,12,32765
7.77223,-0.0778699,0.653005,12,32765
7.93109,-0.105179,0.669563,14,32765
7.32535,2.38802,0.73776,13,32765
7.31467,2.35799,0.730707,13,32765
7.36074,2.34654,0.728594,13,32765
7.40657,2.33499,0.728378,13,32765
7.37639,2.29939,0.72059,13,32765
7.42233,2.28699,0.720209,13,32765
7.46827,2.27439,0.719512,13,32765
7.43788,2.23869,0.711496,13,32765
7.40721,2.20333,0.704439,13,32765
7.49104,2.20181,0.708483,13,32765
7.49864,2.17705,0.70463,13,32765
7.46772,2.14151,0.697925,13,32765
7.54204,2.13614,0.700974,13,32765
7.62596,2.13315,0.704924,13,32765
7.64266,2.11117,0.703048,13,32765
7.62112,2.07823,0.695995,13,32765
7.65689,2.06117,0.69655,13,32765
7.68316,2.04113,0.695117,13,32765
7.69011,2.01567,0.692622,13,32765
7.78383,2.01278,0.696881,13,32765
7.75207,1.97711,0.690882,13,32765
7.74901,1.94944,0.687711,12,32765
7.58148,1.88112,0.669412,12,32765
7.24907,1.77347,0.637073,12,32765
7.3034,1.7616,0.639296,12,32765
7.27069,1.72816,0.632916,12,32765
7.21819,1.6908,0.626543,17,32765
7.2239,1.66694,0.624679,18,32765
7.23933,1.64521,0.622797,19,32765
7.26427,1.62569,0.623224,18,32765
7.28936,1.60576,0.621999,19,32765
7.30453,1.58373,0.620952,19,32765
7.33917,1.56574,0.6213,18,32765
7.33469,1.53909,0.619574,16,32765
7.38874,1.52491,0.621334,17,32765
7.39393,1.50004,0.620142,18,32765
7.42834,1.48138,0.620673,18,32765
7.45289,1.46071,0.620679,18,32765
7.46762,1.43772,0.620098,19,32765
7.53119,1.42412,0.62379,19,32765
7.53607,1.3989,0.621972,19,32765
7.55052,1.3759,0.621777,19,32765
