x, y, z, intensity, ring
4.21033,0.769831,0.412873,16,32765
4.18358,0.75058,0.408866,16,32765
4.19593,0.738522,0.408813,16,32765
4.25728,0.734778,0.413813,15,32765
4.26961,0.722164,0.413992,15,32765
4.20329,0.696623,0.406735,16,32765
4.20568,0.682585,0.40585,16,32765
4.15883,0.66069,0.400672,16,32765
4.22014,0.655902,0.405372,15,32765
4.14362,0.629783,0.397324,15,32765
4.23437,0.629035,0.405475,15,32765
4.24642,0.616347,0.405147,15,32765
4.17949,0.592676,0.397698,15,32765
4.1815,0.578753,0.397107,16,32765
4.18346,0.564803,0.396527,16,32765
4.14592,0.545591,0.392015,15,32765
4.2466,0.544294,0.400191,15,32765
4.26816,0.532789,0.401719,16,32765
4.18096,0.508043,0.392926,16,32765
4.26178,0.503728,0.399534,16,32765
4.22391,0.485284,0.394958,15,32765
4.22555,0.471273,0.394376,17,32765
4.18755,0.453023,0.39003,15,32765
4.21877,0.442238,0.392458,15,32765
4.16085,0.422192,0.386156,16,32765
4.28114,0.420091,0.397165,17,32765
4.23299,0.401154,0.392181,16,32765
4.17481,0.381874,0.386307,16,32765
4.23565,0.373294,0.390904,17,32765
4.23689,0.359363,0.390548,16,32765
4.26784,0.348064,0.392899,16,32765
4.21938,0.330056,0.387826,16,32765
4.28994,0.32155,0.394235,17,32765
4.24134,0.303916,0.389288,16,32765
4.27217,0.29193,0.391543,16,32765
4.22341,0.27476,0.387046,16,32765
4.24418,0.262134,0.388718,17,32765
4.31461,0.252403,0.394997,16,32765
4.20605,0.232195,0.384924,16,32765
4.30624,0.223484,0.394037,16,32765
4.28706,0.208477,0.392143,15,32765
4.16832,0.188966,0.381404,15,32765
4.31819,0.181655,0.394802,15,32765
4.24909,0.16483,0.388506,17,32765
4.24958,0.151075,0.38875,16,32765
4.28982,0.138641,0.39279,16,32765
4.28026,0.124327,0.392309,16,32765
4.24084,0.109235,0.388546,16,32765
4.36059,0.0979956,0.40004,16,32765
4.24136,0.0813691,0.389664,14,32765
0,0,0,0,32765
0,0,0,0,32765
2.65859,0.0250674,0.245254,13,32765
2.64869,0.0164247,0.244509,15,32765
2.55906,0.00754341,0.236787,15,32765
2.56895,-0.000658908,0.2385,15,32765
2.63861,-0.00928136,0.245292,15,32765
2.47919,-0.0166568,0.23119,16,32765
2.47906,-0.0246134,0.231855,17,32765
2.47887,-0.0326338,0.232844,19,32765
3.93703,1.28825,0.381827,17,32765
3.93168,1.27248,0.381036,16,32765
3.90728,1.25069,0.378627,17,32765
3.93978,1.24705,0.381409,17,32765
3.93433,1.23117,0.380628,18,32765
3.95739,1.22417,0.38216,18,32765
4.01841,1.22897,0.387808,17,32765
3.98417,1.20467,0.384107,18,32765
3.94042,1.17755,0.378621,17,32765
3.89653,1.15051,0.373835,17,32765
4.00547,1.16822,0.384114,18,32765
3.99981,1.15235,0.382096,18,32765
3.97486,1.13103,0.379177,18,32765
3.99773,1.12345,0.380712,18,32765
3.98226,1.10504,0.378147,18,32765
3.98585,1.09206,0.378065,18,32765
3.98948,1.07906,0.377051,19,32765
3.94498,1.05292,0.372135,18,32765
3.91004,1.02954,0.367777,17,32765
3.98096,1.03397,0.373866,17,32765
3.97482,1.01817,0.372238,18,32765
3.97812,1.00533,0.37189,18,32765
3.93314,0.980323,0.366423,17,32765
3.95568,0.972348,0.367739,18,32765
3.96859,0.961799,0.367778,18,32765
3.96214,0.946284,0.366209,17,32765
3.95561,0.930807,0.364895,18,32765
4.02669,0.933291,0.370405,19,32765
4.00072,0.913226,0.366909,19,32765
4.00377,0.899938,0.366474,19,32765
4.00686,0.886589,0.365281,19,32765
4.0098,0.873429,0.364708,19,32765
3.96407,0.849631,0.359414,19,32765
3.93766,0.830366,0.356271,18,32765
4.04775,0.839614,0.365103,20,32765
3.98228,0.812082,0.35832,19,32765
3.9948,0.800678,0.358607,19,32765
4.00737,0.788961,0.358452,19,32765
4.03943,0.781174,0.360073,18,32765
3.9344,0.747322,0.34984,19,32765
3.99567,0.745158,0.354639,18,32765
3.97858,0.728557,0.351704,19,32765
4.0203,0.722371,0.354086,19,32765
4.08162,0.719478,0.358284,19,32765
3.96623,0.685565,0.347267,19,32765
3.98822,0.675569,0.348262,19,32765
4.01998,0.667222,0.350266,20,32765
4.08127,0.663362,0.354544,20,32765
4.02447,0.640275,0.348995,18,32765
4.01684,0.625205,0.347206,18,32765
3.99925,0.608711,0.345032,18,32765
3.97174,0.590858,0.34216,17,32765
3.94421,0.573291,0.338432,17,32765
4.03493,0.572976,0.345207,18,32765
4.00725,0.555405,0.342108,18,32765
3.99926,0.540676,0.340711,19,32765
3.94184,0.519441,0.33493,17,32765
3.99308,0.51249,0.338037,18,32765
3.98488,0.498092,0.336889,18,32765
4.05577,0.49348,0.342329,18,32765
3.96837,0.469659,0.334047,17,32765
4.04915,0.465804,0.339879,18,32765
3.9913,0.445711,0.334343,18,32765
4.02253,0.435714,0.336206,16,32765
3.97442,0.417136,0.331747,17,32765
3.95602,0.401894,0.329355,17,32765
4.00692,0.393648,0.333459,17,32765
4.00824,0.380295,0.333092,18,32765
3.97972,0.364441,0.330273,17,32765
4.04055,0.356492,0.334348,17,32765
4.04173,0.343177,0.334007,18,32765
4.02298,0.328436,0.331996,18,32765
4.04396,0.316652,0.333151,19,32765
4.11454,0.3087,0.338902,20,32765
4.0261,0.288758,0.33117,17,32765
3.99724,0.273382,0.328267,18,32765
3.96827,0.258374,0.32587,17,32765
4.02879,0.249021,0.330628,19,32765
4.05944,0.237642,0.332989,19,32765
4.05025,0.223735,0.332113,20,32765
4.12064,0.21397,0.337838,18,32765
4.06159,0.197603,0.332871,19,32765
4.06221,0.18422,0.333046,19,32765
4.09268,0.172209,0.335252,18,32765
4.11314,0.159571,0.336953,18,32765
4.08373,0.145168,0.33474,18,32765
4.06423,0.131314,0.333484,19,32765
4.10445,0.119158,0.337167,19,32765
4.02513,0.103593,0.330512,18,32765
4.08519,0.091693,0.335935,17,32765
0,0,0,0,32765
0,0,0,0,32765
0,0,0,0,32765
0,0,0,0,32765
2.7306,0.0167714,0.226114,13,32765
2.62097,0.00755454,0.2176,15,32765
2.59102,-0.000850321,0.215917,16,32765
2.56108,-0.00920827,0.213737,17,32765
2.48126,-0.0168796,0.207793,19,32765
2.42135,-0.0242595,0.203436,20,32765
2.40125,-0.0318444,0.20272,20,32765
4.12642,1.34519,0.415586,16,32765
4.04581,1.30423,0.404161,15,32765
4.04082,1.28818,0.399976,16,32765
4.13059,1.3022,0.406211,15,32765
4.0304,1.25637,0.393724,16,32765
3.99664,1.23146,0.387805,15,32765
4.00086,1.21842,0.385453,16,32765
3.99548,1.20258,0.382201,15,32765
3.98996,1.18685,0.379453,15,32765
4.0035,1.17673,0.378641,15,32765
4.01713,1.16628,0.37748,16,32765
3.99236,1.14489,0.373122,15,32765
4.0154,1.13728,0.3732,15,32765
4.09596,1.14573,0.37862,15,32765
4.02296,1.11128,0.370072,17,32765
3.93069,1.07187,0.358968,15,32765
3.99197,1.0746,0.363151,15,32765
4.02451,1.06916,0.364109,17,32765
3.92215,1.02804,0.353255,16,32765
4.02213,1.04006,0.360098,16,32765
4.00636,1.02179,0.357056,17,32765
4.01944,1.01118,0.356718,17,32765
4.0325,1.00054,0.356052,17,32765
4.01651,0.982633,0.352984,15,32765
3.99072,0.96257,0.349323,15,32765
4.0522,0.963163,0.352745,15,32765
3.97777,0.931756,0.345272,15,32765
4.00033,0.923089,0.345924,16,32765
3.97434,0.903207,0.341911,16,32765
4.01626,0.898811,0.344567,17,32765
4.00963,0.883276,0.342141,18,32765
4.00288,0.867886,0.340281,17,32765
3.98635,0.850449,0.337465,17,32765
3.93069,0.824804,0.332033,17,32765
3.96279,0.81785,0.333238,17,32765
3.97534,0.806495,0.333418,18,32765
3.99762,0.797215,0.33402,17,32765
4.04921,0.793612,0.337219,18,32765
4.02253,0.774448,0.334024,17,32765
4.02512,0.761138,0.333391,16,32765
4.02773,0.747656,0.332419,17,32765
4.00079,0.72905,0.329461,16,32765
4.03266,0.720968,0.331552,16,32765
4.03515,0.707564,0.330232,16,32765
4.05716,0.6976,0.331172,17,32765
4.01039,0.675737,0.326487,17,32765
4.01269,0.662561,0.325222,18,32765
4.0346,0.652405,0.326099,17,32765
3.96785,0.628119,0.320265,16,32765
3.97979,0.616479,0.320607,17,32765
3.99179,0.604446,0.320522,16,32765
4.08262,0.603994,0.327107,16,32765
3.94656,0.570248,0.315376,15,32765
4.09654,0.577756,0.327257,15,32765
4.05898,0.558735,0.323391,15,32765
3.93245,0.527928,0.312263,15,32765
3.97373,0.520108,0.315222,16,32765
4.0249,0.513369,0.318599,16,32765
4.02661,0.500086,0.318132,16,32765
3.96894,0.479588,0.312396,18,32765
4.03986,0.474475,0.317504,17,32765
4.07118,0.464409,0.319281,16,32765
4.06281,0.449927,0.318036,15,32765
4.00483,0.430018,0.313056,15,32765
3.9666,0.412642,0.309472,15,32765
4.01762,0.404409,0.312563,16,32765
4.0488,0.393823,0.31387,16,32765
4.06006,0.381169,0.314237,17,32765
3.92236,0.354906,0.302737,15,32765
4.03281,0.351483,0.310617,16,32765
3.98432,0.333985,0.306189,16,32765
4.12462,0.332128,0.315806,18,32765
4.07598,0.314918,0.311736,16,32765
4.12676,0.305228,0.314965,16,32765
4.00842,0.283344,0.305251,16,32765
4.08903,0.275413,0.309962,17,32765
4.05017,0.25934,0.306238,16,32765
3.98138,0.241744,0.300341,16,32765
4.02203,0.230759,0.302762,16,32765
4.1224,0.223004,0.309297,17,32765
4.07337,0.206978,0.304818,16,32765
4.07408,0.193651,0.304035,17,32765
4.02492,0.17822,0.299713,16,32765
4.04546,0.166056,0.300414,16,32765
4.13574,0.156343,0.306175,17,32765
4.03661,0.139298,0.298119,16,32765
4.11689,0.128476,0.30261,17,32765
4.11735,0.114948,0.301825,16,32765
4.08789,0.100753,0.298396,17,32765
4.08823,0.0875737,0.297833,17,32765
3.98885,0.0725599,0.289501,15,32765
0,0,0,0,32765
0,0,0,0,32765
0,0,0,0,32765
0,0,0,0,32765
0,0,0,0,32765
0,-0,0,0,32765
0,-0,0,0,32765
2.66337,-0.0200092,0.186912,13,32765
2.5736,-0.0276911,0.179447,15,32765
2.49377,-0.0348605,0.172909,17,32765
3.91142,1.27739,0.354924,18,32765
3.89686,1.25847,0.350461,18,32765
3.84423,1.22771,0.342263,19,32765
3.84832,1.2154,0.340198,18,32765
3.88093,1.21194,0.340584,18,32765
3.88506,1.19922,0.338439,18,32765
3.85103,1.1749,0.332855,18,32765
3.80731,1.14799,0.32651,18,32765
3.8398,1.14422,0.327197,17,32765
3.88188,1.14302,0.328784,18,32765
3.83796,1.11624,0.322761,18,32765
3.80341,1.09264,0.317956,18,32765
3.8071,1.0802,0.316332,18,32765
3.87791,1.08666,0.320294,19,32765
3.88152,1.07411,0.31889,19,32765
3.80828,1.04033,0.310373,18,32765
3.80211,1.0253,0.308556,18,32765
3.74779,0.9974,0.302315,17,32765
3.7801,0.992556,0.303419,17,32765
3.8028,0.985074,0.303231,18,32765
3.82547,0.977368,0.303513,18,32765
3.79972,0.957577,0.300079,18,32765
3.79325,0.942824,0.297882,18,32765
3.75768,0.920913,0.293568,18,32765
3.79951,0.918044,0.295538,18,32765
3.82206,0.910039,0.295474,20,32765
3.79594,0.890705,0.292534,19,32765
3.81838,0.882624,0.293044,20,32765
3.87001,0.881013,0.295317,19,32765
3.78537,0.848596,0.287989,18,32765
3.88569,0.85744,0.293849,19,32765
3.78138,0.821262,0.284774,19,32765
3.76466,0.804525,0.28221,18,32765
3.80642,0.800084,0.284666,18,32765
3.78961,0.783435,0.281995,18,32765
3.81182,0.774627,0.282833,18,32765
3.82422,0.76392,0.282566,18,32765
3.78764,0.743593,0.278847,18,32765
3.84892,0.742261,0.28245,18,32765
3.773,0.714651,0.276106,17,32765
3.74603,0.696518,0.273051,18,32765
3.81702,0.696712,0.277546,17,32765
3.78008,0.676923,0.27438,18,32765
3.8217,0.671235,0.275981,18,32765
3.84361,0.661959,0.276766,18,32765
3.80651,0.642427,0.273293,17,32765
3.81853,0.631524,0.272795,18,32765
3.80096,0.615615,0.270712,18,32765
3.82271,0.606113,0.271858,17,32765
3.82474,0.593404,0.271422,16,32765
3.73803,0.566917,0.264302,16,32765
3.75971,0.557098,0.265202,17,32765
3.76162,0.544376,0.264563,17,32765
3.80295,0.537184,0.26739,17,32765
3.80476,0.524549,0.266722,17,32765
3.80656,0.51181,0.265852,17,32765
3.76868,0.49402,0.262919,17,32765
3.78021,0.482887,0.263098,18,32765
3.79172,0.471619,0.263347,18,32765
3.89237,0.471034,0.269196,19,32765
3.82459,0.449853,0.264073,18,32765
3.86576,0.441618,0.266281,19,32765
3.84739,0.426684,0.264471,18,32765
3.85873,0.41492,0.264839,19,32765
3.87004,0.403163,0.265047,19,32765
3.85156,0.388233,0.262942,18,32765
3.84298,0.374316,0.261306,18,32765
3.85418,0.362329,0.261599,19,32765
3.84549,0.348414,0.260195,19,32765
3.89636,0.340033,0.263025,18,32765
3.86767,0.324622,0.260426,19,32765
3.85884,0.311117,0.258753,18,32765
3.95933,0.306279,0.265164,17,32765
3.85089,0.285164,0.257301,18,32765
3.90161,0.276113,0.260035,19,32765
3.82294,0.25778,0.253467,18,32765
3.87361,0.248303,0.256091,18,32765
3.79477,0.230652,0.250223,17,32765
3.82544,0.219696,0.251639,17,32765
3.85609,0.208791,0.252708,17,32765
3.81694,0.194115,0.249399,18,32765
3.8475,0.183026,0.250613,18,32765
3.86806,0.171395,0.25133,19,32765
3.90852,0.160532,0.253165,20,32765
3.87916,0.146717,0.250384,20,32765
3.92953,0.135652,0.252942,20,32765
3.92007,0.122358,0.250969,20,32765
3.9205,0.109452,0.250222,21,32765
3.93089,0.0968584,0.249669,20,32765
3.93121,0.084161,0.249128,20,32765
3.85171,0.0699931,0.243038,15,32765
0,0,0,0,32765
0,0,0,0,32765
0,0,0,0,32765
0,0,0,0,32765
0,0,0,12,32765
0,-0,0,0,32765
2.79477,-0.0122223,0.170593,12,32765
2.72491,-0.0206558,0.165414,13,32765
0,-0,0,18,32765
2.70489,-0.0380277,0.161923,13,32765
3.77286,1.23495,0.284269,16,32765
3.85264,1.24752,0.290538,16,32765
3.8566,1.23523,0.290598,16,32765
3.80347,1.20476,0.286672,17,32765
3.78835,1.18638,0.285099,17,32765
3.80178,1.17682,0.285719,17,32765
3.79612,1.16145,0.284385,15,32765
3.84753,1.16382,0.288026,16,32765
3.77484,1.12854,0.281953,16,32765
3.78802,1.11922,0.282601,16,32765
3.79175,1.1067,0.281843,16,32765
3.79544,1.09411,0.28132,16,32765
3.89499,1.10896,0.287783,17,32765
3.84096,1.08012,0.283457,17,32765
3.91178,1.08617,0.288259,16,32765
3.80957,1.04421,0.280056,16,32765
3.79381,1.02636,0.277777,16,32765
3.79724,1.01377,0.277186,16,32765
3.80059,1.00133,0.276589,16,32765
3.77487,0.981432,0.274358,16,32765
3.81681,0.978917,0.276076,15,32765
3.83937,0.971351,0.276867,16,32765
3.84255,0.958853,0.276281,15,32765
3.7779,0.929586,0.270841,17,32765
3.81976,0.926539,0.273045,16,32765
3.76468,0.899811,0.268254,16,32765
3.79689,0.893986,0.269305,17,32765
3.80962,0.883533,0.269376,17,32765
3.83205,0.875161,0.270281,17,32765
3.85447,0.866789,0.270773,16,32765
3.85742,0.853822,0.270014,17,32765
3.79206,0.826071,0.264594,17,32765
3.83389,0.821726,0.266417,16,32765
3.91477,0.825355,0.270978,17,32765
3.8589,0.800193,0.266613,16,32765
3.84208,0.783241,0.264291,16,32765
3.83496,0.768399,0.262829,16,32765
3.81797,0.751777,0.260606,15,32765
3.82049,0.739135,0.259833,16,32765
3.84254,0.730306,0.260627,15,32765
3.82544,0.713699,0.258211,16,32765
3.79841,0.695574,0.255288,16,32765
3.85971,0.693346,0.258512,15,32765
3.82273,0.673552,0.255326,15,32765
3.82502,0.660782,0.254411,15,32765
3.82725,0.647904,0.253944,16,32765
3.82946,0.635095,0.252995,16,32765
3.7922,0.615939,0.249685,15,32765
3.82386,0.607855,0.250945,16,32765
3.76673,0.586025,0.246424,14,32765
3.85749,0.586949,0.251648,14,32765
3.85946,0.574262,0.250717,15,32765
3.82191,0.555609,0.247378,16,32765
3.86334,0.548414,0.248919,16,32765
3.84543,0.532631,0.247049,16,32765
3.8275,0.516955,0.244776,16,32765
3.81933,0.502941,0.243582,16,32765
3.82102,0.490309,0.242848,15,32765
3.89197,0.486538,0.246428,17,32765
3.8143,0.46409,0.241317,16,32765
3.83572,0.453579,0.241643,16,32765
3.79759,0.436208,0.238562,16,32765
3.82884,0.426836,0.239512,17,32765
3.82033,0.413138,0.238517,15,32765
3.83159,0.401671,0.239049,16,32765
3.85283,0.39097,0.239258,16,32765
3.80444,0.373453,0.235959,16,32765
3.73612,0.354309,0.231203,15,32765
3.83668,0.351075,0.23706,15,32765
3.82789,0.337672,0.236049,15,32765
3.90858,0.331653,0.240625,16,32765
3.85992,0.314684,0.237479,16,32765
3.8908,0.304279,0.239111,16,32765
3.85203,0.288295,0.23591,16,32765
3.89275,0.278678,0.238557,17,32765
3.82399,0.260999,0.23356,16,32765
3.91445,0.254306,0.23933,16,32765
3.92525,0.242138,0.239506,15,32765
3.84631,0.224598,0.234671,15,32765
3.85699,0.212543,0.235204,16,32765
3.86764,0.200397,0.235763,16,32765
3.87824,0.188294,0.236451,16,32765
3.86887,0.175251,0.235704,16,32765
3.89934,0.163879,0.237443,17,32765
3.9497,0.15322,0.24089,17,32765
3.84046,0.136118,0.234121,17,32765
3.84091,0.123341,0.233812,16,32765
3.92106,0.113065,0.239639,17,32765
3.96132,0.101326,0.241963,18,32765
3.92168,0.087624,0.240128,17,32765
3.94188,0.0752001,0.241671,17,32765
0,0,0,0,32765
0,0,0,0,32765
0,0,0,0,32765
0,0,0,0,32765
0,0,0,0,32765
0,-0,0,0,32765
0,-0,0,0,32765
0,-0,0,0,32765
2.92404,-0.0296054,0.184379,12,32765
2.63449,-0.0352479,0.166871,13,32765
3.62277,1.18817,0.236955,18,32765
3.6455,1.18278,0.238719,18,32765
3.63025,1.16503,0.23753,18,32765
3.60542,1.14427,0.236013,18,32765
3.66629,1.15041,0.239612,19,32765
3.65101,1.13236,0.238274,18,32765
3.67383,1.12623,0.238918,19,32765
3.62964,1.10004,0.235879,18,32765
3.6332,1.0883,0.235536,18,32765
3.6654,1.08509,0.23733,18,32765
3.65944,1.07014,0.235977,17,32765
3.63424,1.04967,0.233622,18,32765
3.63771,1.0377,0.233021,18,32765
3.66029,1.03129,0.23418,18,32765
3.6156,1.00585,0.230959,18,32765
3.69594,1.015,0.235472,18,32765
3.67044,0.99487,0.232795,19,32765
3.66412,0.98009,0.231612,19,32765
3.6577,0.965508,0.230427,19,32765
3.63186,0.946037,0.228481,19,32765
3.56735,0.916665,0.223209,18,32765
3.6381,0.922163,0.226866,20,32765
3.67985,0.919981,0.228718,19,32765
3.62473,0.893571,0.22456,18,32765
3.6471,0.886311,0.225211,19,32765
3.65009,0.874052,0.224597,18,32765
3.68223,0.868603,0.225396,19,32765
3.63654,0.844959,0.221831,18,32765
3.67832,0.841607,0.223752,19,32765
3.66168,0.824956,0.221731,18,32765
3.64499,0.808289,0.219833,18,32765
3.65746,0.798216,0.219795,19,32765
3.6797,0.790125,0.220105,19,32765
3.68237,0.777778,0.219293,19,32765
3.61654,0.751305,0.214929,18,32765
3.65823,0.747118,0.216327,19,32765
3.59224,0.721074,0.211537,19,32765
3.67303,0.724548,0.215299,19,32765
3.63626,0.704762,0.212265,18,32765
3.61897,0.689053,0.210614,19,32765
3.60171,0.673166,0.208448,19,32765
3.62362,0.664756,0.20869,18,32765
3.60624,0.64897,0.206872,18,32765
3.71657,0.656013,0.212533,19,32765
3.65976,0.633357,0.208282,18,32765
3.66191,0.62101,0.207834,18,32765
3.64432,0.605456,0.205813,18,32765
3.68578,0.599705,0.207349,17,32765
3.60894,0.574693,0.202266,19,32765
3.64045,0.567365,0.203304,19,32765
3.6621,0.558185,0.203853,19,32765
3.71335,0.553477,0.205704,20,32765
3.70534,0.539591,0.204405,18,32765
3.71707,0.528556,0.203973,20,32765
3.59029,0.498141,0.196363,18,32765
3.64149,0.492668,0.198113,19,32765
3.60354,0.475326,0.195429,19,32765
3.66455,0.471022,0.197946,19,32765
3.66611,0.45907,0.197169,19,32765
3.61805,0.440944,0.194414,18,32765
3.66915,0.434598,0.19619,19,32765
3.63093,0.417749,0.193511,19,32765
3.67205,0.410024,0.194744,19,32765
3.73297,0.404344,0.197535,20,32765
3.65483,0.383755,0.193249,18,32765
3.71575,0.37766,0.195406,19,32765
3.66729,0.360558,0.192585,19,32765
3.65854,0.347493,0.191629,18,32765
3.70941,0.339952,0.19395,18,32765
3.66078,0.323423,0.19097,18,32765
3.74146,0.31795,0.194807,19,32765
3.69273,0.3015,0.192135,19,32765
3.63398,0.284608,0.188837,19,32765
3.72458,0.279156,0.192762,19,32765
3.68561,0.26422,0.190898,18,32765
3.65662,0.249918,0.188656,18,32765
3.69727,0.240517,0.190991,18,32765
3.70802,0.229035,0.191097,19,32765
3.66887,0.214507,0.189068,18,32765
3.66956,0.20246,0.188997,18,32765
3.69016,0.191423,0.189977,18,32765
3.74063,0.181814,0.192622,19,32765
3.64145,0.16512,0.187355,18,32765
3.70184,0.155727,0.190355,19,32765
3.68235,0.142972,0.189711,18,32765
3.70277,0.131337,0.190664,19,32765
3.7032,0.118993,0.190366,19,32765
3.79337,0.109433,0.195922,20,32765
3.73381,0.0955308,0.19272,19,32765
3.68415,0.0823163,0.19071,18,32765
3.69437,0.070453,0.191527,19,32765
3.71453,0.0586144,0.19304,17,32765
0,0,0,12,32765
0,0,0,0,32765
0,0,0,0,32765
0,0,0,0,32765
0,-0,0,65,32765
0,-0,0,0,32765
0,-0,0,0,32765
2.67602,-0.0272745,0.143409,13,32765
0,-0,0,0,32765
3.71794,1.21537,0.257299,16,32765
3.7315,1.20651,0.255231,15,32765
3.69758,1.18212,0.250174,15,32765
3.68261,1.1639,0.246291,15,32765
3.64831,1.14026,0.24199,15,32765
3.62349,1.11974,0.237769,15,32765
3.70359,1.13134,0.24066,16,32765
3.67866,1.11075,0.237105,16,32765
3.70154,1.10436,0.236408,16,32765
3.64776,1.07543,0.231155,16,32765
3.61305,1.05222,0.227125,15,32765
3.72213,1.07068,0.231883,16,32765
3.68729,1.04759,0.228173,15,32765
3.76773,1.05694,0.231249,16,32765
3.6751,1.01788,0.22346,17,32765
3.64001,0.995224,0.219703,16,32765
3.65296,0.985925,0.218913,16,32765
3.66589,0.976535,0.218235,16,32765
3.69813,0.972134,0.218397,17,32765
3.63373,0.9424,0.213251,16,32765
3.61758,0.925403,0.210652,16,32765
3.64971,0.920867,0.210933,16,32765
3.61397,0.899443,0.207575,16,32765
3.73334,0.916166,0.212884,17,32765
3.58112,0.866377,0.20265,17,32765
3.57435,0.852072,0.200949,16,32765
3.69388,0.867544,0.206402,17,32765
3.64816,0.843998,0.202675,17,32765
3.67048,0.836352,0.202493,16,32765
3.66351,0.822106,0.201021,18,32765
3.65653,0.807793,0.199454,17,32765
3.65924,0.795642,0.198448,18,32765
3.65214,0.781399,0.197195,17,32765
3.66457,0.771126,0.1969,17,32765
3.65739,0.756927,0.195396,17,32765
3.65016,0.742732,0.19392,18,32765
3.67226,0.734437,0.193922,16,32765
3.59634,0.706776,0.188923,17,32765
3.61835,0.698434,0.189204,18,32765
3.62073,0.686183,0.18851,17,32765
3.61322,0.672243,0.187337,17,32765
3.68421,0.672959,0.190329,18,32765
3.60782,0.646725,0.185234,17,32765
3.60996,0.634796,0.184724,17,32765
3.65149,0.629465,0.185765,16,32765
3.65361,0.617183,0.185199,17,32765
3.70493,0.613115,0.187667,16,32765
3.57886,0.579911,0.17995,16,32765
3.64985,0.578977,0.182784,17,32765
3.61229,0.560758,0.180292,17,32765
3.72279,0.565111,0.185399,17,32765
3.64564,0.540982,0.180919,16,32765
3.67714,0.532885,0.181864,16,32765
3.7185,0.52616,0.183071,17,32765
3.6708,0.506828,0.180109,17,32765
3.65272,0.491858,0.178355,18,32765
3.72369,0.488819,0.181151,17,32765
3.63616,0.464917,0.176293,17,32765
3.66743,0.456524,0.177505,16,32765
3.6888,0.446805,0.177472,18,32765
3.72005,0.4381,0.17838,17,32765
3.66196,0.418918,0.175162,17,32765
3.67324,0.407998,0.175596,17,32765
3.67464,0.395646,0.174586,16,32765
3.61636,0.377373,0.170683,17,32765
3.65735,0.369403,0.172388,17,32765
3.68839,0.360218,0.173523,17,32765
3.66971,0.346087,0.171954,16,32765
3.64106,0.330912,0.169739,16,32765
3.68197,0.322267,0.170919,17,32765
3.6333,0.305541,0.168092,17,32765
3.65423,0.295109,0.16848,17,32765
3.63528,0.281572,0.167201,16,32765
3.66611,0.271847,0.16764,17,32765
3.70687,0.262668,0.168886,18,32765
3.63798,0.245641,0.165218,17,32765
3.65874,0.234849,0.165392,17,32765
3.64954,0.222256,0.164387,16,32765
3.74005,0.215373,0.16782,18,32765
3.71083,0.20162,0.165848,17,32765
3.65165,0.186257,0.162285,18,32765
3.69219,0.17607,0.163415,16,32765
3.66284,0.162735,0.161225,17,32765
3.69334,0.151899,0.161813,17,32765
3.67388,0.139169,0.160214,17,32765
3.62443,0.125434,0.157167,17,32765
3.6548,0.114706,0.15769,18,32765
3.69513,0.103921,0.158697,18,32765
3.73546,0.092506,0.159216,17,32765
3.68584,0.0790866,0.156198,17,32765
3.65615,0.0665028,0.154046,17,32765
3.66638,0.0549689,0.153463,17,32765
3.71653,0.0440152,0.154565,16,32765
0,0,0,0,32765
0,0,0,0,32765
0,0,0,0,32765
0,-0,0,0,32765
0,-0,0,0,32765
0,-0,0,0,32765
0,-0,0,0,32765
0,-0,0,0,32765
3.5201,1.15303,0.208652,19,32765
3.50494,1.13555,0.204967,17,32765
3.58486,1.14841,0.207024,19,32765
3.43647,1.08831,0.195813,18,32765
3.51625,1.10121,0.198459,19,32765
3.58667,1.1106,0.199921,18,32765
3.51397,1.07559,0.193659,17,32765
3.56531,1.0787,0.194646,18,32765
3.59765,1.07553,0.194336,19,32765
3.48627,1.0299,0.186615,19,32765
3.52809,1.02955,0.187098,18,32765
3.47398,1.00131,0.182302,18,32765
3.49652,0.995387,0.182057,20,32765
3.52873,0.991882,0.181984,20,32765
3.57058,0.990919,0.18213,19,32765
3.545,0.971194,0.179276,21,32765
3.50002,0.946541,0.175525,19,32765
3.51282,0.937633,0.174804,19,32765
3.51595,0.926094,0.173319,19,32765
3.54805,0.922017,0.173618,19,32765
3.54148,0.907747,0.17171,19,32765
3.50578,0.886313,0.168479,19,32765
3.46021,0.86289,0.165079,19,32765
3.54069,0.870618,0.167478,19,32765
3.47563,0.842527,0.162919,19,32765
3.53679,0.844791,0.164508,19,32765
3.50074,0.823813,0.161657,19,32765
3.48405,0.807626,0.159792,19,32765
3.49651,0.798285,0.159034,20,32765
3.48941,0.784581,0.1577,18,32765
3.51155,0.777294,0.157588,18,32765
3.47511,0.757093,0.15488,19,32765
3.52649,0.755996,0.156356,21,32765
3.50951,0.739944,0.154701,20,32765
3.53156,0.732316,0.154616,19,32765
3.47529,0.708532,0.151138,20,32765
3.54626,0.710622,0.153115,18,32765
3.48984,0.687181,0.149739,19,32765
3.51179,0.679181,0.149854,19,32765
3.48465,0.661674,0.147928,21,32765
3.50652,0.653654,0.148119,20,32765
3.5185,0.643931,0.147987,19,32765
3.48131,0.625251,0.145334,18,32765
3.54243,0.624118,0.147296,20,32765
3.51501,0.6071,0.145132,20,32765
3.49735,0.591917,0.143776,19,32765
3.50917,0.581828,0.144153,19,32765
3.53088,0.573227,0.143751,19,32765
3.50319,0.556769,0.141934,19,32765
3.52479,0.548211,0.14223,19,32765
3.48711,0.530335,0.140343,20,32765
3.51853,0.523103,0.141009,20,32765
3.52032,0.511115,0.140505,19,32765
3.52204,0.499293,0.139795,20,32765
3.49403,0.48332,0.138114,21,32765
3.51547,0.474256,0.138143,19,32765
3.54677,0.466457,0.138749,20,32765
3.55825,0.455794,0.138626,21,32765
3.56967,0.445171,0.138788,21,32765
3.56124,0.432144,0.137444,21,32765
3.54283,0.41799,0.13618,19,32765
3.51443,0.40277,0.134686,20,32765
3.50581,0.390103,0.134266,19,32765
3.55682,0.383648,0.13519,20,32765
3.52828,0.36884,0.133011,20,32765
3.53943,0.358128,0.133219,20,32765
3.53067,0.345422,0.132585,19,32765
3.50197,0.330847,0.130861,18,32765
3.54292,0.322553,0.131552,19,32765
3.53404,0.309854,0.130534,19,32765
3.52514,0.296954,0.129664,19,32765
3.49624,0.282829,0.128055,18,32765
3.52706,0.273649,0.128799,18,32765
3.50804,0.260558,0.127176,19,32765
3.52883,0.250464,0.12735,18,32765
3.51969,0.23804,0.126515,19,32765
3.53046,0.226978,0.126168,18,32765
3.56113,0.217214,0.126696,19,32765
3.5419,0.204279,0.125409,19,32765
3.52261,0.191684,0.124104,19,32765
3.5532,0.181504,0.124295,19,32765
3.51387,0.167808,0.122286,18,32765
3.50444,0.155916,0.121111,19,32765
3.57486,0.147225,0.122819,19,32765
3.5354,0.134095,0.12075,18,32765
3.51587,0.121825,0.119224,19,32765
3.56622,0.112052,0.12016,20,32765
3.53662,0.0995644,0.118464,18,32765
3.51699,0.0871725,0.116668,18,32765
3.53727,0.0759521,0.116477,19,32765
3.50755,0.0638293,0.114644,18,32765
3.52775,0.0528972,0.114332,19,32765
3.53793,0.041884,0.113714,18,32765
3.56806,0.0306446,0.113767,18,32765
3.5082,0.0186247,0.110797,13,32765
0,0,0,0,32765
0,-0,0,0,32765
0,-0,0,0,32765
0,-0,0,0,32765
0,-0,0,0,32765
0,-0,0,0,32765
3.5123,1.15318,0.154628,15,32765
3.47794,1.12956,0.153616,17,32765
3.54811,1.13984,0.156711,16,32765
3.51371,1.11623,0.154848,17,32765
3.50782,1.1017,0.154504,17,32765
3.50187,1.0873,0.153613,16,32765
3.49585,1.07296,0.153025,17,32765
3.48974,1.05877,0.152496,18,32765
3.49321,1.04725,0.152405,16,32765
3.53495,1.04719,0.153766,18,32765
3.49049,1.02143,0.150977,17,32765
3.51303,1.01553,0.15126,17,32765
3.50676,1.00123,0.150615,18,32765
3.51962,0.992545,0.15075,17,32765
3.53249,0.983719,0.150589,18,32765
3.49723,0.96145,0.147991,16,32765
3.50039,0.949907,0.147905,17,32765
3.49386,0.935802,0.147052,17,32765
3.54526,0.936992,0.148486,17,32765
3.52904,0.920205,0.147005,17,32765
3.48376,0.895906,0.144168,17,32765
3.5255,0.89407,0.145341,17,32765
3.50908,0.877525,0.143919,16,32765
3.53142,0.870624,0.143868,17,32765
3.41776,0.830691,0.138744,16,32765
3.47884,0.83329,0.140237,16,32765
3.51079,0.828634,0.140662,17,32765
3.48434,0.810229,0.13897,17,32765
3.50653,0.803043,0.139256,17,32765
3.51897,0.793527,0.138878,17,32765
3.54118,0.785947,0.138551,16,32765
3.49501,0.763407,0.136068,16,32765
3.50733,0.753861,0.135727,18,32765
3.50006,0.740175,0.134542,17,32765
3.56122,0.740763,0.136369,18,32765
3.52455,0.720897,0.133747,17,32765
3.52695,0.709181,0.132989,18,32765
3.49994,0.69147,0.13098,17,32765
3.5219,0.683429,0.13132,18,32765
3.58312,0.682808,0.132469,18,32765
3.53632,0.661422,0.130217,17,32765
3.52871,0.647837,0.128999,17,32765
3.55051,0.639692,0.129416,18,32765
3.4739,0.614123,0.125484,16,32765
3.52519,0.611079,0.126652,17,32765
3.5174,0.597503,0.12569,17,32765
3.549,0.590506,0.12611,17,32765
3.49186,0.56879,0.122448,17,32765
3.4148,0.544503,0.119349,16,32765
3.54497,0.553265,0.123156,17,32765
3.54684,0.541353,0.122323,17,32765
3.52891,0.526336,0.121133,17,32765
3.51095,0.511449,0.119,17,32765
3.46318,0.492636,0.1169,17,32765
3.60343,0.500277,0.12091,19,32765
3.4268,0.464223,0.114547,16,32765
3.53736,0.467147,0.117316,17,32765
3.50921,0.451388,0.115433,16,32765
3.55039,0.444666,0.115921,18,32765
3.50224,0.426732,0.114647,18,32765
3.52352,0.417456,0.114296,18,32765
3.5547,0.409142,0.114583,17,32765
3.46666,0.387393,0.110974,17,32765
3.50768,0.380244,0.111677,17,32765
3.55864,0.37383,0.112893,18,32765
3.51012,0.357134,0.111336,16,32765
3.50137,0.344431,0.110386,16,32765
3.54231,0.336662,0.111003,16,32765
3.54341,0.324989,0.110663,16,32765
3.56439,0.314984,0.11088,16,32765
3.53555,0.3005,0.110047,15,32765
3.58638,0.292526,0.110822,16,32765
3.58734,0.28059,0.110568,16,32765
3.50851,0.26272,0.108389,16,32765
3.52929,0.252808,0.108572,16,32765
3.54007,0.242005,0.108659,17,32765
3.50096,0.2278,0.107331,16,32765
3.57152,0.220719,0.109338,17,32765
3.56225,0.208381,0.108803,17,32765
3.56291,0.196758,0.108855,17,32765
3.61345,0.187606,0.110327,17,32765
3.53419,0.17172,0.107814,16,32765
3.59464,0.162854,0.109803,17,32765
3.54524,0.148779,0.107926,16,32765
3.57566,0.138329,0.109222,17,32765
3.54612,0.125423,0.108585,16,32765
3.61644,0.11607,0.110782,17,32765
3.48691,0.100597,0.106909,17,32765
3.57713,0.0915506,0.110241,17,32765
3.48747,0.0778318,0.107662,16,32765
3.64759,0.0694166,0.112912,17,32765
3.56784,0.0559922,0.110766,16,32765
3.57798,0.0445115,0.111629,16,32765
3.52812,0.0324325,0.110519,15,32765
3.60815,0.0215331,0.113616,14,32765
0,0,0,0,32765
0,-0,0,0,32765
0,-0,0,0,32765
0,-0,0,0,32765
0,-0,0,0,32765
0,-0,0,0,32765
3.37036,1.10902,0.114974,19,32765
3.31687,1.07962,0.113659,18,32765
3.31078,1.06594,0.113478,17,32765
3.35233,1.0673,0.114606,18,32765
3.37489,1.06227,0.115328,19,32765
3.40699,1.06015,0.115846,19,32765
3.35312,1.03139,0.113735,18,32765
3.35644,1.02054,0.113626,19,32765
3.33108,1.00081,0.112567,17,32765
3.36309,0.998442,0.113241,18,32765
3.35682,0.984443,0.112239,18,32765
3.35046,0.970629,0.111395,18,32765
3.38247,0.967831,0.112128,19,32765
3.32791,0.940501,0.109952,18,32765
3.34061,0.932284,0.109726,18,32765
3.36299,0.926528,0.109437,19,32765
3.4239,0.931142,0.111233,19,32765
3.35939,0.901711,0.10861,18,32765
3.3334,0.882878,0.107111,18,32765
3.37501,0.881919,0.107709,19,32765
3.40703,0.878038,0.107828,19,32765
3.34215,0.849376,0.105277,18,32765
3.33528,0.835833,0.104377,18,32765
3.34778,0.8271,0.103877,18,32765
3.3505,0.816065,0.103502,18,32765
3.38238,0.811896,0.103553,19,32765
3.38508,0.800649,0.102828,18,32765
3.30985,0.771278,0.0999665,18,32765
3.38063,0.77584,0.101551,19,32765
3.30523,0.746896,0.0984898,18,32765
3.36632,0.748705,0.0991891,19,32765
3.40789,0.745938,0.0997783,19,32765
3.39084,0.730348,0.0985076,18,32765
3.39327,0.719091,0.0977243,19,32765
3.42501,0.713918,0.0981567,20,32765
3.38823,0.694461,0.0959538,19,32765
3.35135,0.675276,0.0941235,19,32765
3.34383,0.662001,0.092986,19,32765
3.34607,0.650657,0.0926107,19,32765
3.38754,0.646878,0.0927075,18,32765
3.37009,0.631636,0.0917526,19,32765
3.39187,0.624002,0.0914635,19,32765
3.37425,0.60919,0.0906458,19,32765
3.36642,0.596348,0.0893489,19,32765
3.28962,0.571417,0.0866899,19,32765
3.38024,0.575383,0.0884397,18,32765
3.41177,0.568838,0.0886011,19,32765
3.394,0.553982,0.0865715,20,32765
3.36623,0.537856,0.0854884,20,32765
3.37788,0.528264,0.0850937,20,32765
3.29072,0.503286,0.0820807,19,32765
3.33198,0.497976,0.0825849,18,32765
3.29412,0.48084,0.0802401,19,32765
3.37491,0.481053,0.0817536,19,32765
3.33691,0.464214,0.0801775,19,32765
3.37806,0.458546,0.0807498,19,32765
3.43907,0.455083,0.0813211,19,32765
3.43069,0.442178,0.0802088,20,32765
3.35281,0.420766,0.0775832,18,32765
3.41374,0.416782,0.079296,18,32765
3.39527,0.403066,0.0778703,18,32765
3.41648,0.394018,0.0776727,18,32765
3.29856,0.369342,0.0742695,17,32765
3.37929,0.367052,0.0755104,17,32765
3.33078,0.350587,0.0740569,18,32765
3.32197,0.338656,0.0738536,18,32765
3.38279,0.33342,0.0745669,18,32765
3.35403,0.319392,0.0733052,19,32765
3.41481,0.313805,0.0742821,18,32765
3.38596,0.299797,0.0732471,19,32765
3.36703,0.286729,0.0729082,18,32765
3.39789,0.277685,0.0728201,18,32765
3.40877,0.267132,0.0727923,19,32765
3.44952,0.258792,0.0739161,19,32765
3.42043,0.245472,0.072856,18,32765
3.38132,0.231585,0.0717962,19,32765
3.36211,0.219171,0.0712721,19,32765
3.42268,0.21191,0.0724129,20,32765
3.40341,0.199452,0.0717712,21,32765
3.41402,0.188875,0.0720317,20,32765
3.38467,0.17604,0.0713502,20,32765
3.39523,0.165256,0.0714884,20,32765
3.46566,0.15728,0.0731153,20,32765
3.36629,0.141506,0.070674,19,32765
3.41668,0.132394,0.0720896,18,32765
3.39711,0.120342,0.0719348,18,32765
3.41747,0.109851,0.0724098,18,32765
3.37783,0.0975908,0.0716654,18,32765
3.46807,0.088879,0.0741309,18,32765
3.39837,0.0759362,0.0728231,17,32765
3.36861,0.0641751,0.0724701,17,32765
3.42878,0.0538538,0.0740764,17,32765
3.43892,0.042801,0.0748241,17,32765
3.47902,0.0319761,0.0761364,17,32765
3.47909,0.0207331,0.076708,18,32765
3.39915,0.00905559,0.0753079,16,32765
0,-0,0,0,32765
0,-0,0,0,32765
0,-0,0,0,32765
0,-0,0,0,32765
0,-0,0,0,32765
3.39,1.11191,0.128311,17,32765
3.41271,1.10703,0.12654,17,32765
3.46396,1.11119,0.125932,17,32765
3.41996,1.08497,0.12178,17,32765
3.37583,1.05901,0.117861,17,32765
3.41745,1.05999,0.117552,17,32765
3.42092,1.04896,0.115622,17,32765
3.30002,1.00019,0.10957,15,32765
3.38962,1.01487,0.11015,16,32765
3.41223,1.00912,0.109334,15,32765
3.40604,0.994918,0.107306,17,32765
3.38048,0.975596,0.104864,16,32765
3.41246,0.973038,0.103874,17,32765
3.36754,0.948422,0.100904,16,32765
3.39956,0.945417,0.100331,16,32765
3.37381,0.926136,0.0982422,16,32765
3.45413,0.93576,0.0986328,16,32765
3.36065,0.898583,0.0946793,16,32765
3.30563,0.872201,0.0919683,16,32765
3.35689,0.873977,0.0915523,17,32765
3.37915,0.867848,0.0911721,16,32765
3.35296,0.849308,0.0890492,16,32765
3.37514,0.843194,0.0885448,16,32765
3.39734,0.836865,0.0877869,16,32765
3.34182,0.811528,0.085293,17,32765
3.34451,0.800464,0.0842447,17,32765
3.38611,0.798487,0.0840982,17,32765
3.37902,0.785017,0.0827396,17,32765
3.33294,0.762487,0.0806698,16,32765
3.44278,0.775492,0.0821255,17,32765
3.34778,0.742328,0.0789481,17,32765
3.36,0.733399,0.0783471,17,32765
3.36242,0.722329,0.0772961,17,32765
3.35506,0.709018,0.076118,17,32765
3.38681,0.703771,0.0765053,17,32765
3.3402,0.682361,0.0745195,17,32765
3.3425,0.671148,0.0730857,16,32765
3.38398,0.667696,0.0733714,16,32765
3.35678,0.650618,0.0718176,17,32765
3.38839,0.645118,0.0718512,17,32765
3.35124,0.626383,0.0701379,17,32765
3.36315,0.617043,0.0697617,17,32765
3.33571,0.600422,0.0681744,17,32765
3.34756,0.590968,0.0680087,17,32765
3.37909,0.58482,0.0680131,16,32765
3.38104,0.573489,0.0677434,16,32765
3.30404,0.549175,0.0651229,16,32765
3.35525,0.546025,0.0645348,17,32765
3.34721,0.533125,0.0638302,18,32765
3.38853,0.527945,0.0637885,17,32765
3.3903,0.516488,0.0635174,18,32765
3.34259,0.497638,0.0620135,17,32765
3.36405,0.489211,0.0618266,17,32765
3.35576,0.476665,0.0615562,17,32765
3.38705,0.46959,0.0615349,17,32765
3.32917,0.450126,0.0598604,17,32765
3.40006,0.448076,0.0610207,17,32765
3.35199,0.430028,0.0601674,17,32765
3.41295,0.426213,0.0611388,17,32765
3.3846,0.411203,0.0593704,16,32765
3.34623,0.395291,0.0582056,17,32765
3.33761,0.382963,0.0576903,16,32765
3.37861,0.376339,0.0577741,16,32765
3.34009,0.360816,0.0567693,16,32765
3.42083,0.357984,0.0578014,17,32765
3.35238,0.339518,0.0561193,16,32765
3.42318,0.334971,0.0565657,16,32765
3.35461,0.317014,0.0549093,16,32765
3.35565,0.305868,0.054494,16,32765
3.34669,0.293828,0.0540003,16,32765
3.4473,0.291078,0.0548697,16,32765
3.38847,0.274703,0.0531505,17,32765
3.41927,0.265841,0.0533822,17,32765
3.38026,0.251485,0.0519788,16,32765
3.34119,0.23741,0.0507979,17,32765
3.3719,0.228403,0.0504362,16,32765
3.4425,0.221642,0.0508707,17,32765
3.40329,0.207881,0.049733,17,32765
3.384,0.195491,0.0490818,16,32765
3.4146,0.185902,0.0487406,17,32765
3.37526,0.172622,0.0474319,16,32765
3.42576,0.163797,0.0473214,16,32765
3.39632,0.151335,0.0462414,16,32765
3.3868,0.139987,0.0456114,17,32765
3.42722,0.130585,0.0451601,17,32765
3.36767,0.117378,0.043814,16,32765
3.39803,0.10724,0.0431999,17,32765
3.38838,0.0957736,0.0425646,16,32765
3.44867,0.0859028,0.0422597,17,32765
3.37897,0.0729579,0.0407326,16,32765
3.3792,0.0618749,0.0399635,17,32765
3.41938,0.0514492,0.0395179,16,32765
3.37955,0.0399079,0.0378076,15,32765
3.35967,0.0288018,0.036868,16,32765
3.36976,0.0179481,0.0358628,16,32765
3.48981,0.00728553,0.0360104,16,32765
3.39983,-0.0039806,0.0341143,16,32765
3.36981,-0.0148417,0.0326697,16,32765
3.42975,-0.0260634,0.0321567,15,32765
0,-0,0,0,32765
0,-0,0,0,32765
3.31428,1.08953,0.0926109,18,32765
3.2038,1.04161,0.0870876,17,32765
3.22628,1.03728,0.0853949,17,32765
3.26776,1.03903,0.0840863,18,32765
3.233,1.01649,0.0809745,18,32765
3.22675,1.0031,0.079185,19,32765
3.24914,0.998529,0.0778193,18,32765
3.26197,0.990882,0.0762142,18,32765
3.26535,0.979868,0.0740171,19,32765
3.23032,0.957472,0.0717853,19,32765
3.25274,0.952276,0.0705667,19,32765
3.21742,0.930627,0.0682711,19,32765
3.24925,0.928583,0.0670871,19,32765
3.22341,0.909874,0.0650482,19,32765
3.24567,0.90465,0.0640615,19,32765
3.23906,0.891144,0.0626832,19,32765
3.22277,0.875043,0.0605779,18,32765
3.19668,0.856658,0.0588924,19,32765
3.23818,0.856319,0.0585459,18,32765
3.22165,0.840649,0.0565053,19,32765
3.22443,0.829969,0.0556375,18,32765
3.27564,0.831581,0.0551631,19,32765
3.20077,0.801422,0.0528896,18,32765
3.24224,0.800446,0.0523203,18,32765
3.18659,0.775563,0.050436,18,32765
3.21833,0.771985,0.0498872,19,32765
3.23064,0.763526,0.0489623,18,32765
3.21369,0.748274,0.0476036,18,32765
3.19672,0.732954,0.0464722,18,32765
3.19918,0.722225,0.0454125,18,32765
3.18207,0.707156,0.0443255,18,32765
3.21371,0.703029,0.0439372,19,32765
3.24535,0.698731,0.0433222,18,32765
3.18899,0.675422,0.0416319,17,32765
3.19127,0.66461,0.0413683,18,32765
3.22289,0.659856,0.0408986,19,32765
3.2055,0.645067,0.0392738,17,32765
3.21746,0.636248,0.0388493,19,32765
3.2196,0.625412,0.0379697,19,32765
3.27077,0.624103,0.0379718,19,32765
3.22372,0.603881,0.0365538,19,32765
3.19622,0.587711,0.0356655,19,32765
3.19819,0.576941,0.0347293,18,32765
3.27889,0.580123,0.0352239,18,32765
3.18231,0.551977,0.0336042,17,32765
3.23344,0.54966,0.0338655,18,32765
3.22539,0.537282,0.0327456,19,32765
3.24695,0.529563,0.0314351,19,32765
3.16973,0.505968,0.0301824,18,32765
3.21095,0.501378,0.0298045,18,32765
3.22252,0.492006,0.0296376,19,32765
3.24396,0.484013,0.0292576,19,32765
3.28517,0.478785,0.0290727,19,32765
3.24714,0.462246,0.0286359,18,32765
3.26848,0.454141,0.0282636,19,32765
3.27991,0.444433,0.0277623,19,32765
3.21199,0.424214,0.0270924,18,32765
3.20352,0.411874,0.0270427,18,32765
3.27434,0.409792,0.0275352,18,32765
3.18637,0.387961,0.0256208,18,32765
3.2075,0.379725,0.0253308,18,32765
3.21869,0.370119,0.0250782,18,32765
3.25966,0.363875,0.0248054,19,32765
3.23103,0.349789,0.0242635,19,32765
3.27197,0.343145,0.0242559,19,32765
3.22336,0.327154,0.0234002,19,32765
3.27421,0.321084,0.0230728,19,32765
3.26531,0.309239,0.0225103,19,32765
3.27628,0.299276,0.0221729,19,32765
3.26731,0.287473,0.0217808,19,32765
3.31807,0.280766,0.0214023,19,32765
3.24923,0.263978,0.0202158,18,32765
3.24012,0.25245,0.0199285,18,32765
3.25092,0.242379,0.0192385,18,32765
3.26169,0.232254,0.018743,18,32765
3.22254,0.21875,0.0177329,18,32765
3.24321,0.209254,0.0172677,18,32765
3.28381,0.201008,0.0169512,18,32765
3.27448,0.189562,0.0165514,18,32765
3.24514,0.177048,0.0156627,18,32765
3.22573,0.165321,0.0148601,17,32765
3.30618,0.15841,0.0144441,18,32765
3.23675,0.144525,0.0135036,17,32765
3.27716,0.135737,0.013192,16,32765
3.2676,0.124761,0.0122082,17,32765
3.25799,0.113789,0.0116327,18,32765
3.28834,0.10399,0.0107679,18,32765
3.22869,0.0914447,0.0100871,18,32765
3.26897,0.08159,0.00920871,18,32765
3.28922,0.0711604,0.00861303,18,32765
3.27944,0.0601647,0.00784033,18,32765
3.23962,0.0488364,0.00687444,18,32765
3.22977,0.0382082,0.00566037,18,32765
3.29987,0.0283363,0.00507979,18,32765
3.25995,0.0173869,0.00393969,18,32765
3.23999,0.00676474,0.00286688,18,32765
3.25,-0.00382756,0.00195095,19,32765
3.29997,-0.01458,0.000861035,18,32765
3.24991,-0.0247646,-0.000189194,18,32765
3.22981,-0.0349417,-0.0016211,17,32765
3.23968,-0.0454118,-0.00335753,17,32765
3.11488,1.02683,0.0389268,15,32765
3.17527,1.03522,0.0399269,16,32765
3.21667,1.03721,0.0404052,16,32765
3.1724,1.01154,0.0398101,16,32765
3.18524,1.0041,0.0400882,16,32765
3.24576,1.01163,0.040595,16,32765
3.20125,0.986379,0.0395673,16,32765
3.1757,0.967341,0.0393978,16,32765
3.21715,0.968495,0.0392493,17,32765
3.19161,0.94924,0.038602,17,32765
3.23314,0.949839,0.0389075,16,32765
3.2171,0.933437,0.0384361,16,32765
3.16253,0.906175,0.0367275,16,32765
3.27135,0.925661,0.0378746,17,32765
3.15883,0.882569,0.0358047,15,32765
3.21952,0.888222,0.0364779,16,32765
3.24173,0.882888,0.0359076,16,32765
3.23494,0.869719,0.0351717,16,32765
3.21845,0.853989,0.034435,16,32765
3.22125,0.84337,0.0339899,16,32765
3.19499,0.825184,0.0332279,16,32765
3.24623,0.82668,0.0329495,16,32765
3.20053,0.80346,0.0322691,15,32765
3.26149,0.806992,0.0319608,17,32765
3.25446,0.793719,0.0312082,16,32765
3.23764,0.778229,0.0304888,17,32765
3.10402,0.735077,0.0285809,15,32765
3.22329,0.752108,0.0287954,17,32765
3.19655,0.734652,0.0277339,16,32765
3.20875,0.726156,0.0273552,16,32765
3.2795,0.730579,0.0272833,16,32765
3.24288,0.710949,0.0259267,17,32765
3.24525,0.70007,0.025571,16,32765
3.1987,0.678688,0.0245641,16,32765
3.17159,0.661866,0.0236014,16,32765
3.23259,0.663182,0.0228562,16,32765
3.24462,0.654265,0.022523,17,32765
3.19772,0.63381,0.0215102,16,32765
3.26852,0.636561,0.0212935,17,32765
3.21173,0.614206,0.0203459,17,32765
3.2433,0.60879,0.0195631,18,32765
3.23552,0.595925,0.0188181,17,32765
3.20799,0.579733,0.0178478,16,32765
3.20988,0.569156,0.0175393,16,32765
3.27089,0.568683,0.0163805,17,32765
3.30233,0.562889,0.0158722,17,32765
3.24502,0.541962,0.0152206,16,32765
3.21724,0.526116,0.0131655,16,32765
3.26835,0.523267,0.0124786,17,32765
3.27009,0.512276,0.0124454,16,32765
3.22236,0.493843,0.0111633,16,32765
3.20421,0.480162,0.0103603,16,32765
3.28497,0.480919,0.010042,16,32765
3.26679,0.466881,0.00918135,17,32765
3.20895,0.447397,0.00826265,16,32765
3.23026,0.439256,0.00802849,16,32765
3.25154,0.431051,0.00760448,16,32765
3.28272,0.424007,0.00700056,16,32765
3.26433,0.410136,0.00715836,16,32765
3.22597,0.39445,0.00631799,17,32765
3.267,0.388321,0.00600919,16,32765
3.24841,0.375099,0.00533108,16,32765
3.22978,0.361955,0.00474044,16,32765
3.3105,0.359865,0.00422058,17,32765
3.27189,0.344666,0.00363647,16,32765
3.23321,0.329873,0.00314413,16,32765
3.30396,0.325908,0.00256431,17,32765
3.25525,0.310202,0.00234217,16,32765
3.25627,0.299367,0.00194869,16,32765
3.28713,0.291212,0.00149021,16,32765
3.29805,0.280998,0.000990141,17,32765
3.26907,0.267496,0.000862409,17,32765
3.31979,0.260534,0.000502096,17,32765
3.28075,0.246491,0.000221155,17,32765
3.31147,0.237829,3.64665e-05,17,32765
3.21247,0.220048,-0.000204094,16,32765
3.27305,0.213384,-0.000445205,16,32765
3.28372,0.203236,-0.000529626,16,32765
3.2644,0.191377,-0.000349166,16,32765
3.22507,0.178466,-0.000447248,16,32765
3.25559,0.169494,-0.000478462,16,32765
3.26613,0.15911,-0.000911283,15,32765
3.25664,0.14796,-0.000687252,16,32765
3.27709,0.138106,-0.000620118,15,32765
3.27753,0.127335,-0.000526843,16,32765
3.27793,0.116509,-0.000403546,16,32765
3.33827,0.107543,-0.000114281,16,32765
3.31862,0.0958809,-0.000261458,16,32765
3.28892,0.0841586,-2.68352e-05,15,32765
3.23919,0.0722674,0.000227312,16,32765
3.3194,0.0633238,0.00060418,15,32765
3.36958,0.0533003,0.000972934,16,32765
3.27974,0.0412324,0.00123887,17,32765
3.31985,0.0309516,0.00188479,16,32765
3.32994,0.0200954,0.00255296,16,32765
3.28999,0.00908481,0.00286617,16,32765
3.35,-0.00182983,0.00369317,17,32765
3.32997,-0.0126879,0.00451341,16,32765
3.31991,-0.0235032,0.00532284,16,32765
3.36982,-0.0346957,0.00652432,17,32765
3.30969,-0.0447297,0.00759298,14,32765
3.0194,0.997779,0.00783095,18,32765
3.0987,1.01272,0.00830711,18,32765
3.09246,0.999575,0.00827989,19,32765
3.07665,0.983389,0.00822956,19,32765
3.11802,0.985285,0.00848489,19,32765
3.13075,0.97814,0.00830314,19,32765
3.07658,0.950253,0.00773552,19,32765
3.09876,0.946175,0.00796224,20,32765
3.11141,0.938915,0.00738227,19,32765
3.07619,0.917111,0.00700353,19,32765
3.11762,0.918098,0.00693648,19,32765
3.08227,0.89646,0.006619,19,32765
3.1237,0.897192,0.00569201,19,32765
3.08818,0.875919,0.00554397,18,32765
3.05254,0.854908,0.00476472,17,32765
3.08423,0.852925,0.0048257,18,32765
3.10632,0.848024,0.00409846,18,32765
3.0608,0.824858,0.00343808,18,32765
3.08282,0.819945,0.00295371,18,32765
3.07584,0.807211,0.00251796,18,32765
3.11723,0.80701,0.00210338,19,32765
3.11996,0.796406,0.00135038,18,32765
3.07417,0.773563,0.00114669,18,32765
3.1059,0.770311,0.000303748,18,32765
3.14732,0.769402,-0.000329811,18,32765
3.11098,0.749548,-0.000839367,18,32765
3.0843,0.732129,-0.00145503,18,32765
3.04775,0.712826,-0.00225183,17,32765
3.11832,0.718364,-0.00308443,18,32765
3.10121,0.703474,-0.0035143,18,32765
3.08405,0.688655,-0.00410844,17,32765
3.05705,0.671787,-0.00504348,17,32765
3.09839,0.669961,-0.00544875,19,32765
3.11043,0.66151,-0.00607195,18,32765
3.07347,0.642898,-0.00671131,18,32765
3.04625,0.626421,-0.00776247,17,32765
3.14636,0.635943,-0.00840361,18,32765
3.14845,0.625509,-0.00906699,18,32765
3.13089,0.611186,-0.00966165,18,32765
3.0642,0.587365,-0.00998881,18,32765
3.06618,0.576894,-0.0109065,17,32765
3.1173,0.575496,-0.0117431,17,32765
3.0405,0.550752,-0.0122047,17,32765
3.06199,0.544204,-0.0125791,17,32765
3.09335,0.539075,-0.0141027,17,32765
3.12469,0.533857,-0.0148594,17,32765
3.13632,0.525035,-0.0152624,19,32765
3.05913,0.501434,-0.0167015,17,32765
3.10028,0.497523,-0.0177611,18,32765
3.14146,0.493277,-0.0180201,18,32765
3.08377,0.473713,-0.0187281,18,32765
3.13477,0.470859,-0.0197478,18,32765
3.09677,0.45443,-0.0200406,18,32765
3.1478,0.45093,-0.0211327,18,32765
3.08,0.430425,-0.0213899,18,32765
3.09134,0.421352,-0.0217324,17,32765
3.08282,0.409643,-0.0221123,18,32765
3.05443,0.395445,-0.0225264,18,32765
3.08555,0.388583,-0.0225574,18,32765
3.08682,0.378321,-0.023279,18,32765
3.06821,0.365548,-0.023493,18,32765
3.09922,0.358711,-0.0243339,18,32765
3.08053,0.346039,-0.0247108,18,32765
3.0916,0.336859,-0.0253857,17,32765
3.13248,0.330755,-0.0262235,18,32765
3.1236,0.319439,-0.0265738,17,32765
3.10474,0.306978,-0.0270136,18,32765
3.16547,0.302357,-0.0277122,19,32765
3.10671,0.28629,-0.0275652,17,32765
3.09769,0.275076,-0.0279263,18,32765
3.0687,0.262074,-0.028127,18,32765
3.11939,0.255851,-0.0286974,17,32765
3.09032,0.243098,-0.0287705,18,32765
3.131,0.235796,-0.0294045,17,32765
3.13176,0.225454,-0.0295815,19,32765
3.17239,0.217817,-0.0301953,18,32765
3.1232,0.204098,-0.0299473,18,32765
3.08393,0.191324,-0.029643,17,32765
3.12447,0.183609,-0.0298574,18,32765
3.15501,0.175004,-0.0302441,18,32765
3.11562,0.162594,-0.0298875,18,32765
3.15609,0.154117,-0.0306878,18,32765
3.17656,0.144668,-0.0306665,19,32765
3.11708,0.131678,-0.0300203,18,32765
3.16745,0.123355,-0.0304115,18,32765
3.12787,0.111444,-0.0299103,18,32765
3.14822,0.101666,-0.0298219,18,32765
3.11855,0.0903202,-0.029677,17,32765
3.13883,0.0805147,-0.0296457,18,32765
3.15907,0.0706538,-0.0295872,18,32765
3.14929,0.0602283,-0.0291415,17,32765
3.12948,0.0496272,-0.0286226,17,32765
3.15962,0.0398245,-0.0286158,18,32765
3.21973,0.0300978,-0.0285474,19,32765
3.14982,0.019062,-0.0273002,18,32765
3.17987,0.00881066,-0.0272279,19,32765
3.15989,-0.00172083,-0.0263259,18,32765
3.09988,-0.0118299,-0.0250419,17,32765
3.19982,-0.022697,-0.0250565,18,32765
3.15974,-0.0326003,-0.0236918,18,32765
3.23962,-0.0438767,-0.0231318,19,32765
3.15337,1.03839,0.0195238,16,32765
3.18525,1.03749,0.017359,17,32765
3.15053,1.01492,0.0146292,16,32765
3.13473,0.998705,0.0129672,16,32765
3.15705,0.994482,0.0108916,17,32765
3.1603,0.984123,0.00911792,17,32765
3.12529,0.961998,0.00689773,17,32765
3.12847,0.951611,0.00501429,17,32765
3.07409,0.924139,0.0037257,16,32765
3.14421,0.934002,0.00195143,17,32765
3.14719,0.923889,0.000685098,16,32765
3.07334,0.891403,-0.00121227,17,32765
3.13393,0.897803,-0.00192584,17,32765
3.1273,0.884587,-0.00350713,17,32765
3.06284,0.855222,-0.00491195,16,32765
3.06568,0.844978,-0.006157,16,32765
3.09738,0.842795,-0.00752336,16,32765
3.09046,0.830041,-0.00878537,15,32765
3.15115,0.835315,-0.0102077,16,32765
3.10554,0.812171,-0.011349,16,32765
3.0598,0.789343,-0.0122109,16,32765
3.04304,0.774153,-0.0134918,16,32765
3.06501,0.768843,-0.0143654,15,32765
3.08694,0.763502,-0.0155119,16,32765
3.07974,0.750903,-0.0166523,17,32765
