x, y, z, intensity, ring
1.38278,-0.130765,-0.0539539,15,32765
1.36244,-0.133533,-0.0531281,15,32765
1.3421,-0.136129,-0.0523776,15,32765
1.32176,-0.138537,-0.0514918,16,32765
1.30142,-0.140834,-0.0506395,16,32765
1.28108,-0.142971,-0.049829,16,32765
1.34015,-0.154151,-0.0521795,17,32765
1.29001,-0.152814,-0.0500975,16,32765
1.28949,-0.157154,-0.0501103,16,32765
1.26912,-0.159099,-0.0492134,16,32765
1.28839,-0.165985,-0.0498831,17,32765
1.27792,-0.169032,-0.0494338,17,32765
1.22784,-0.166648,-0.0474277,17,32765
1.25695,-0.174927,-0.0486974,17,32765
1.22668,-0.174942,-0.0474632,16,32765
1.25575,-0.183448,-0.0484517,17,32765
1.21558,-0.181808,-0.0469334,16,32765
1.22484,-0.187482,-0.0471501,16,32765
1.21432,-0.190091,-0.0467977,16,32765
1.20381,-0.192617,-0.0463702,16,32765
1.22287,-0.199927,-0.0469784,16,32765
1.18276,-0.197498,-0.0454386,16,32765
1.18209,-0.201492,-0.0453958,16,32765
1.17157,-0.203753,-0.0448619,17,32765
1.19056,-0.211168,-0.0454918,17,32765
1.16036,-0.20981,-0.0442219,16,32765
1.14982,-0.211884,-0.0437871,17,32765
1.13927,-0.213945,-0.0434989,17,32765
1.15818,-0.221574,-0.0438764,16,32765
1.17703,-0.229376,-0.0444783,17,32765
1.15665,-0.229444,-0.0437371,17,32765
1.13627,-0.229454,-0.0427892,17,32765
1.1355,-0.233297,-0.0426358,17,32765
1.12494,-0.235018,-0.0421986,17,32765
1.13393,-0.24086,-0.042408,18,32765
1.13313,-0.244609,-0.0422354,17,32765
1.11278,-0.244171,-0.0413294,17,32765
1.11196,-0.247914,-0.0411351,17,32765
1.11113,-0.251606,-0.0409375,17,32765
1.10056,-0.253062,-0.0404193,17,32765
1.09,-0.254389,-0.0398386,17,32765
1.09888,-0.260306,-0.0400226,17,32765
1.09803,-0.263916,-0.0397806,17,32765
1.09715,-0.267567,-0.0395085,17,32765
1.07686,-0.266428,-0.0385279,17,32765
1.06629,-0.267549,-0.0379126,17,32765
1.08477,-0.27605,-0.0383927,18,32765
1.04516,-0.269617,-0.0368231,17,32765
1.05395,-0.275572,-0.0368629,17,32765
1.03372,-0.273922,-0.0359107,17,32765
1.0618,-0.285035,-0.0366056,17,32765
1.04157,-0.283301,-0.0356704,17,32765
1.04064,-0.286741,-0.0354342,18,32765
1.03969,-0.290181,-0.0350686,18,32765
1.00989,-0.285445,-0.0337672,17,32765
1.03779,-0.297018,-0.0343559,17,32765
1.02721,-0.297663,-0.0337687,17,32765
1.01665,-0.2982,-0.033119,17,32765
1.02527,-0.304347,-0.033034,17,32765
1.02429,-0.307667,-0.0325806,17,32765
1.00419,-0.305133,-0.0315573,17,32765
0.99364,-0.305484,-0.0309584,17,32765
1.00221,-0.311636,-0.0308142,18,32765
0.972627,-0.305823,-0.0294661,18,32765
0.952618,-0.302838,-0.0284253,18,32765
0.970702,-0.311975,-0.0284376,18,32765
0.998199,-0.324451,-0.0288035,18,32765
0.968684,-0.318276,-0.0274147,17,32765
1.62855,0.0269334,-0.0633596,16,32765
1.59862,0.0210392,-0.0630875,16,32765
1.55868,0.0153641,-0.0622015,14,32765
1.54871,0.0100883,-0.0624111,14,32765
1.54872,0.0049531,-0.0628581,15,32765
1.57867,-0.00024273,-0.0647451,15,32765
1.58864,-0.00559726,-0.0656144,15,32765
1.54863,-0.0106833,-0.0643328,15,32765
1.52858,-0.015647,-0.0640001,15,32765
1.50852,-0.0203942,-0.0636477,16,32765
1.45848,-0.0245167,-0.0618187,15,32765
1.50833,-0.030383,-0.064275,16,32765
1.46825,-0.0345519,-0.0627496,15,32765
1.44813,-0.0391285,-0.0622764,16,32765
1.43799,-0.0437441,-0.0621741,15,32765
1.46778,-0.0496084,-0.0637483,15,32765
1.43764,-0.0534194,-0.0627272,16,32765
1.41749,-0.0573454,-0.0619657,16,32765
1.41728,-0.0620405,-0.062185,15,32765
1.40708,-0.0662789,-0.0619209,16,32765
1.37691,-0.0694157,-0.0607901,16,32765
1.40659,-0.0756763,-0.0623421,16,32765
1.3764,-0.0786527,-0.0610605,16,32765
1.37612,-0.0833232,-0.0612783,16,32765
1.33596,-0.0853633,-0.0594101,16,32765
1.36555,-0.0918777,-0.0610253,16,32765
1.36523,-0.0964707,-0.0610489,16,32765
1.335,-0.0988455,-0.0599768,16,32765
1.34461,-0.10417,-0.0604957,16,32765
1.35422,-0.109509,-0.0608398,16,32765
1.32397,-0.111577,-0.0595588,16,32765
1.31363,-0.115168,-0.0591798,17,32765
1.30329,-0.118672,-0.0587195,16,32765
1.32277,-0.124947,-0.0596236,16,32765
1.35218,-0.132311,-0.060939,12,32765
1.45111,-0.14698,-0.06546,11,32765
1.49034,-0.156062,-0.0673025,12,32765
1.43022,-0.154653,-0.0645439,12,32765
1.34033,-0.149504,-0.0605698,13,32765
1.28028,-0.147137,-0.0578099,14,32765
1.29962,-0.153779,-0.058605,15,32765
1.24952,-0.152083,-0.0563813,15,32765
1.22918,-0.153746,-0.0554142,16,32765
1.2683,-0.162966,-0.0570715,16,32765
1.23804,-0.163261,-0.0556235,16,32765
1.21769,-0.164739,-0.0546795,17,32765
1.23692,-0.17162,-0.0555351,17,32765
1.20666,-0.171627,-0.0540181,17,32765
1.21595,-0.177227,-0.0543614,17,32765
1.20546,-0.179908,-0.0537761,17,32765
1.18509,-0.181045,-0.0527759,16,32765
1.21408,-0.189712,-0.0540332,17,32765
1.1937,-0.190691,-0.0531106,16,32765
1.14375,-0.186687,-0.0507921,16,32765
1.15298,-0.19217,-0.0511369,16,32765
1.15232,-0.196083,-0.0510123,16,32765
1.1615,-0.201696,-0.0513355,16,32765
1.14115,-0.202137,-0.0501356,16,32765
1.1208,-0.20244,-0.0491896,16,32765
1.13977,-0.20981,-0.05003,16,32765
1.1096,-0.208128,-0.0486817,17,32765
1.1089,-0.211885,-0.0484785,17,32765
1.11799,-0.21749,-0.0488626,17,32765
1.08785,-0.215463,-0.04742,17,32765
1.11651,-0.225042,-0.0485715,17,32765
1.11575,-0.22881,-0.0484724,17,32765
1.09542,-0.228486,-0.047415,17,32765
1.0751,-0.228025,-0.0464477,17,32765
1.04503,-0.225332,-0.0451175,17,32765
1.08332,-0.237381,-0.0466331,17,32765
1.11176,-0.247576,-0.0479653,17,32765
1.09144,-0.246901,-0.0468999,17,32765
1.05165,-0.241636,-0.0451602,17,32765
1.0703,-0.249698,-0.0459167,17,32765
1.07919,-0.255545,-0.0462328,17,32765
1.0492,-0.252112,-0.0448444,16,32765
1.03867,-0.25317,-0.0444231,17,32765
1.04753,-0.259002,-0.044694,17,32765
1.07573,-0.269805,-0.0458366,17,32765
1.0361,-0.263536,-0.0441268,17,32765
1.01586,-0.262029,-0.0432343,17,32765
1.03433,-0.270434,-0.0439522,17,32765
1.05275,-0.278951,-0.0447893,18,32765
1.03254,-0.277204,-0.0438172,17,32765
1.02198,-0.277967,-0.0433877,17,32765
1.01143,-0.278682,-0.0429896,17,32765
0.991257,-0.27667,-0.0419947,17,32765
1.00957,-0.285372,-0.0428021,17,32765
0.989404,-0.28322,-0.0420171,18,32765
1.00768,-0.291973,-0.0428855,17,32765
1.01631,-0.298055,-0.0432525,17,32765
1.00578,-0.298453,-0.0428392,17,32765
0.976117,-0.293037,-0.041533,17,32765
0.965602,-0.293286,-0.0411923,17,32765
1.04104,-0.31993,-0.0445439,13,32765
0.954106,-0.296652,-0.0409792,16,32765
0.96268,-0.302713,-0.0413861,18,32765
0.971247,-0.308757,-0.0418204,18,32765
0.941742,-0.302598,-0.0407072,18,32765
0.931287,-0.302439,-0.040438,18,32765
0.930327,-0.30536,-0.0405926,18,32765
1.64785,0.0272683,-0.0796875,15,32765
1.62791,0.0214261,-0.079632,16,32765
1.578,0.0155426,-0.077889,16,32765
1.60798,0.0104484,-0.0799995,16,32765
1.57802,0.00500811,-0.0789643,16,32765
1.57799,-0.000294872,-0.0796343,16,32765
1.56797,-0.00558978,-0.0795838,16,32765
1.54795,-0.0107563,-0.0789388,16,32765
1.55787,-0.0160383,-0.079955,16,32765
1.50785,-0.0204863,-0.0778762,16,32765
1.49778,-0.0252902,-0.0776464,15,32765
1.48768,-0.030092,-0.0774633,16,32765
1.47758,-0.0349079,-0.0771216,15,32765
1.48741,-0.0403405,-0.0780335,15,32765
1.46728,-0.0447966,-0.0773197,16,32765
1.44715,-0.0490827,-0.0765426,15,32765
1.50683,-0.0561821,-0.0800031,15,32765
1.46672,-0.059536,-0.0779972,15,32765
1.44655,-0.0635301,-0.0771597,15,32765
1.4164,-0.0669338,-0.075738,15,32765
1.4361,-0.072631,-0.0769992,15,32765
1.4159,-0.0764173,-0.0761615,16,32765
1.40566,-0.0805749,-0.0756708,17,32765
1.37546,-0.0835406,-0.0742782,16,32765
1.38515,-0.0887768,-0.0747209,17,32765
1.3649,-0.0921122,-0.0739305,16,32765
1.3845,-0.0981264,-0.0750334,17,32765
1.36423,-0.101312,-0.0742241,16,32765
1.33401,-0.103655,-0.0726692,16,32765
1.36351,-0.110586,-0.0741911,15,32765
1.36313,-0.115214,-0.0742537,13,32765
1.53182,-0.134689,-0.0835476,12,32765
1.43192,-0.130764,-0.0781089,12,32765
1.48117,-0.140314,-0.0808292,12,32765
1.49063,-0.14628,-0.0813387,11,32765
1.53979,-0.156411,-0.0840923,12,32765
1.68821,-0.177289,-0.0922854,11,32765
1.5387,-0.166858,-0.0840706,11,32765
1.56789,-0.175385,-0.0857674,11,32765
1.53754,-0.177205,-0.084057,11,32765
1.53694,-0.182375,-0.0839369,11,32765
0,-0,-0,0,32765
1.51588,-0.190141,-0.0827798,11,32765
1.53505,-0.197796,-0.0837037,11,32765
1.55419,-0.205527,-0.0846447,11,32765
1.37538,-0.186594,-0.0748788,12,32765
1.49342,-0.207789,-0.0813021,11,32765
1.54214,-0.219957,-0.0837584,11,32765
1.46233,-0.213732,-0.0793429,12,32765
1.36285,-0.203962,-0.0738194,12,32765
1.30292,-0.199598,-0.0704789,13,32765
1.27263,-0.199414,-0.0688116,13,32765
1.19307,-0.191119,-0.0644997,14,32765
1.20227,-0.196782,-0.0649021,15,32765
1.19176,-0.199184,-0.0642734,16,32765
1.1714,-0.199879,-0.0630839,17,32765
1.17072,-0.203858,-0.0629697,17,32765
1.1602,-0.206079,-0.0621047,17,32765
1.13985,-0.206448,-0.0609686,17,32765
1.14897,-0.212087,-0.061471,17,32765
1.13844,-0.214125,-0.0608892,17,32765
1.15733,-0.221749,-0.0617264,16,32765
1.13698,-0.221793,-0.0606339,17,32765
1.13623,-0.225663,-0.0604697,17,32765
1.13547,-0.229493,-0.0603368,17,32765
1.15426,-0.237357,-0.061274,17,32765
1.11436,-0.233075,-0.0589858,17,32765
1.13311,-0.240989,-0.0598929,17,32765
1.12253,-0.242707,-0.0593079,17,32765
1.11197,-0.244328,-0.058616,17,32765
1.10138,-0.245938,-0.0581724,17,32765
1.10055,-0.249647,-0.057946,17,32765
1.08997,-0.251129,-0.0573656,17,32765
1.09885,-0.257064,-0.0577952,17,32765
1.08828,-0.258405,-0.0571809,17,32765
1.07772,-0.259676,-0.0565271,18,32765
1.09626,-0.267944,-0.0575386,17,32765
1.08568,-0.269174,-0.0568793,18,32765
1.07509,-0.270386,-0.0562719,17,32765
1.04515,-0.266571,-0.0546918,17,32765
1.04425,-0.270095,-0.0546217,17,32765
1.06268,-0.278614,-0.055524,17,32765
1.0521,-0.279549,-0.0550341,18,32765
1.04155,-0.280394,-0.054377,17,32765
1.04062,-0.283818,-0.0543559,18,32765
1.0493,-0.289917,-0.0548701,17,32765
1.00987,-0.282644,-0.0526765,17,32765
1.02815,-0.291429,-0.053671,18,32765
1.01757,-0.292091,-0.0531999,18,32765
1.01662,-0.295381,-0.0532522,17,32765
1.00607,-0.295871,-0.0527081,17,32765
0.995549,-0.296239,-0.0522003,17,32765
0.994602,-0.299417,-0.0521158,17,32765
0.955407,-0.290998,-0.0501764,16,32765
1.00216,-0.308842,-0.0527701,16,32765
1.2109,-0.377545,-0.0639695,13,32765
1.1811,-0.372433,-0.0624539,13,32765
0.980095,-0.312442,-0.0519011,14,32765
0.969606,-0.312425,-0.0515168,16,32765
0.96862,-0.315446,-0.0516638,16,32765
0.967614,-0.318492,-0.0518239,17,32765
1.60649,0.0290806,-0.102144,15,32765
1.59664,0.0233853,-0.101003,16,32765
1.57678,0.0175797,-0.0992179,15,32765
1.57686,0.0122112,-0.0988268,16,32765
1.61684,0.00707417,-0.100944,15,32765
1.55699,0.00157883,-0.0968099,16,32765
1.56697,-0.00363052,-0.09735,16,32765
1.55699,-0.00883474,-0.0964473,16,32765
1.52703,-0.0138396,-0.0942208,16,32765
1.47709,-0.0183733,-0.0909118,15,32765
1.487,-0.0235015,-0.0914836,16,32765
1.50689,-0.0288363,-0.0924436,16,32765
1.44692,-0.0325505,-0.0886308,15,32765
1.4568,-0.0376537,-0.0890478,16,32765
1.45667,-0.0425756,-0.0889161,16,32765
1.44654,-0.0472717,-0.0882047,16,32765
1.40648,-0.0507572,-0.0856323,15,32765
1.39633,-0.0551825,-0.0849816,16,32765
1.39615,-0.0598547,-0.0847822,16,32765
1.35606,-0.0627139,-0.0823019,15,32765
1.33591,-0.0662867,-0.0809555,15,32765
1.37556,-0.0728869,-0.0832334,15,32765
1.44507,-0.0814269,-0.0873852,16,32765
1.37504,-0.0820744,-0.0832362,16,32765
1.38472,-0.0873447,-0.0837227,16,32765
1.32467,-0.0880426,-0.0800092,17,32765
1.35424,-0.0946252,-0.0817166,16,32765
1.36387,-0.099911,-0.0822697,16,32765
1.43321,-0.109825,-0.0863541,14,32765
1.40298,-0.112294,-0.0845607,12,32765
0,-0,-0,0,32765
0,-0,-0,0,32765
0,-0,-0,0,32765
0,-0,-0,0,32765
0,-0,-0,0,32765
0,-0,-0,0,32765
0,-0,-0,0,32765
0,-0,-0,0,32765
0,-0,-0,0,32765
0,-0,-0,0,32765
0,-0,-0,0,32765
0,-0,-0,0,32765
0,-0,-0,0,32765
0,-0,-0,0,32765
0,-0,-0,0,32765
0,-0,-0,0,32765
0,-0,-0,0,32765
0,-0,-0,0,32765
0,-0,-0,0,32765
0,-0,-0,0,32765
0,-0,-0,0,32765
0,-0,-0,0,32765
0,-0,-0,0,32765
0,-0,-0,0,32765
0,-0,-0,0,32765
1.24989,-0.21229,-0.0748948,14,32765
1.21966,-0.211397,-0.0731167,14,32765
1.15996,-0.205086,-0.0695887,15,32765
1.11014,-0.200168,-0.0664704,15,32765
1.09966,-0.202096,-0.0656895,17,32765
1.11861,-0.209437,-0.0667679,17,32765
1.10811,-0.211259,-0.0660834,17,32765
1.09761,-0.213016,-0.0653295,17,32765
1.08711,-0.214771,-0.0646217,17,32765
1.08638,-0.218484,-0.0644121,17,32765
1.08563,-0.222212,-0.0643403,17,32765
1.09465,-0.227923,-0.0647763,17,32765
1.07435,-0.227493,-0.0634357,17,32765
1.08335,-0.233169,-0.0638426,17,32765
1.06307,-0.232527,-0.0624774,17,32765
1.07203,-0.238319,-0.0628814,17,32765
1.06148,-0.239759,-0.0621868,17,32765
1.06069,-0.243339,-0.061785,17,32765
1.03071,-0.240076,-0.059986,17,32765
1.04936,-0.248045,-0.0609247,17,32765
1.04855,-0.251517,-0.0606721,17,32765
1.04773,-0.254986,-0.0604474,17,32765
1.03719,-0.256071,-0.0596228,17,32765
1.04603,-0.261956,-0.0599339,17,32765
1.02582,-0.260517,-0.0584693,17,32765
1.03464,-0.266401,-0.0587406,17,32765
1.02412,-0.267256,-0.0578987,17,32765
1.02325,-0.270612,-0.0576194,17,32765
1.01274,-0.271382,-0.0567239,18,32765
1.01185,-0.274712,-0.056455,17,32765
1.00134,-0.275386,-0.0555793,17,32765
0.981195,-0.273341,-0.0542356,17,32765
1.00913,-0.284732,-0.055461,17,32765
0.998623,-0.28526,-0.054585,17,32765
0.988112,-0.285752,-0.0536676,17,32765
0.987194,-0.288995,-0.053201,17,32765
0.986271,-0.292181,-0.0529103,17,32765
0.975773,-0.292513,-0.0519848,17,32765
0.965296,-0.292737,-0.0510747,16,32765
0.993021,-0.304638,-0.0520159,15,32765
1.13514,-0.352246,-0.0590004,12,32765
1.12448,-0.352979,-0.05796,13,32765
0.942464,-0.299241,-0.0481374,18,32765
0.960536,-0.308404,-0.0485603,18,32765
0.969078,-0.314538,-0.0485071,18,32765
0.920675,-0.301975,-0.0454779,18,32765
1.61543,0.0292389,-0.118025,15,32765
1.64548,0.0240828,-0.119689,16,32765
1.62564,0.0180925,-0.117699,15,32765
1.61575,0.0124667,-0.116576,16,32765
1.60584,0.00696708,-0.115475,15,32765
1.58593,0.00153652,-0.113637,15,32765
1.60588,-0.00380692,-0.114984,16,32765
1.55601,-0.00892598,-0.111131,15,32765
1.54602,-0.0141211,-0.110042,15,32765
1.53601,-0.019228,-0.109093,15,32765
1.53594,-0.0244101,-0.109049,16,32765
1.5259,-0.029347,-0.108069,16,32765
1.50585,-0.0340343,-0.106511,16,32765
1.47583,-0.0383132,-0.104198,16,32765
1.4757,-0.0433121,-0.104064,16,32765
1.47555,-0.0484129,-0.10396,16,32765
1.44548,-0.0523665,-0.101709,16,32765
1.45526,-0.0577277,-0.102365,16,32765
1.43514,-0.0617518,-0.100758,16,32765
1.47479,-0.0684493,-0.103493,16,32765
1.40482,-0.0699509,-0.0984553,16,32765
1.41455,-0.0752117,-0.0990106,16,32765
1.38441,-0.0782742,-0.0968514,17,32765
1.39409,-0.0834911,-0.0976185,17,32765
1.3739,-0.0869494,-0.096108,17,32765
1.37361,-0.0915945,-0.0960044,17,32765
1.36334,-0.0955702,-0.0952105,17,32765
1.38291,-0.101631,-0.0965517,16,32765
1.46214,-0.112399,-0.101987,14,32765
0,-0,-0,0,32765
0,-0,-0,0,32765
0,-0,-0,0,32765
0,-0,-0,0,32765
0,-0,-0,0,32765
0,-0,-0,0,32765
0,-0,-0,0,32765
0,-0,-0,0,32765
0,-0,-0,0,32765
0,-0,-0,0,32765
0,-0,-0,0,32765
0,-0,-0,0,32765
0,-0,-0,0,32765
0,-0,-0,0,32765
0,-0,-0,0,32765
0,-0,-0,0,32765
0,-0,-0,0,32765
0,-0,-0,0,32765
0,-0,-0,0,32765
0,-0,-0,0,32765
0,-0,-0,0,32765
0,-0,-0,0,32765
0,-0,-0,0,32765
0,-0,-0,0,32765
0,-0,-0,0,32765
0,-0,-0,0,32765
1.4359,-0.244591,-0.0998267,12,32765
1.37609,-0.239203,-0.0957136,12,32765
1.35562,-0.240376,-0.0943572,12,32765
0,-0,-0,0,32765
0,-0,-0,0,32765
1.48063,-0.27802,-0.102632,11,32765
0,-0,-0,0,32765
1.3123,-0.255415,-0.0907572,12,32765
1.10592,-0.219117,-0.0764069,14,32765
1.11495,-0.224876,-0.0768673,17,32765
1.11418,-0.228713,-0.076793,17,32765
1.11341,-0.232495,-0.0766463,16,32765
1.13214,-0.24042,-0.0777966,16,32765
1.1411,-0.246303,-0.0782877,16,32765
1.1013,-0.24158,-0.075388,16,32765
1.11022,-0.247516,-0.0758793,16,32765
1.08991,-0.246887,-0.0744213,17,32765
1.0891,-0.250572,-0.074008,17,32765
1.09798,-0.256477,-0.0745632,17,32765
1.09714,-0.260083,-0.0743606,17,32765
1.05749,-0.254387,-0.071473,17,32765
1.06635,-0.260262,-0.0718993,17,32765
1.06549,-0.263811,-0.0716266,17,32765
1.05494,-0.264943,-0.0707264,17,32765
1.06375,-0.270922,-0.0710069,17,32765
1.06286,-0.274451,-0.0707181,17,32765
1.05232,-0.275402,-0.0697736,17,32765
1.05143,-0.27886,-0.0694859,18,32765
1.0409,-0.279725,-0.0684859,17,32765
1.03999,-0.283157,-0.0682089,18,32765
1.02945,-0.283927,-0.0672291,17,32765
1.01891,-0.284659,-0.0663146,17,32765
0.998771,-0.282614,-0.0646967,17,32765
1.01706,-0.291357,-0.0655859,17,32765
0.996952,-0.289133,-0.0639517,17,32765
1.01518,-0.298036,-0.0647009,17,32765
1.00466,-0.298479,-0.0637937,17,32765
0.99415,-0.298874,-0.0627658,17,32765
1.01231,-0.307872,-0.0635521,17,32765
1.07813,-0.331694,-0.0671228,14,32765
1.18193,-0.367814,-0.0731169,13,32765
1.24741,-0.392686,-0.0766392,11,32765
0.989307,-0.315011,-0.0603281,12,32765
0.969305,-0.312108,-0.0586126,15,32765
0.996819,-0.324465,-0.0597864,15,32765
1.01482,-0.333802,-0.0602063,15,32765
1.57588,0.0281156,-0.110573,15,32765
1.61581,0.0233789,-0.114066,15,32765
1.56594,0.0174235,-0.111475,15,32765
1.61583,0.0125708,-0.115521,16,32765
1.57593,0.00691398,-0.113184,15,32765
1.54596,0.00153671,-0.111856,16,32765
1.53595,-0.00370713,-0.111547,16,32765
1.50598,-0.00869462,-0.109776,16,32765
1.50591,-0.0136797,-0.110259,16,32765
1.49584,-0.0185859,-0.110058,16,32765
1.50572,-0.0237494,-0.111037,16,32765
1.47569,-0.0282575,-0.109206,16,32765
1.50548,-0.0339701,-0.11173,16,32765
1.39567,-0.0361947,-0.103885,15,32765
1.4354,-0.0420349,-0.107055,15,32765
1.41531,-0.0461969,-0.10566,16,32765
1.38521,-0.0498719,-0.103889,16,32765
1.4249,-0.0561121,-0.10687,16,32765
1.39479,-0.0596731,-0.104889,15,32765
1.36469,-0.0630469,-0.102721,16,32765
1.37441,-0.068207,-0.103681,16,32765
1.35424,-0.0717829,-0.102328,16,32765
1.34402,-0.0757538,-0.101799,16,32765
1.35371,-0.0808588,-0.102561,16,32765
1.33351,-0.0841176,-0.101303,16,32765
1.34317,-0.089295,-0.102145,17,32765
1.31301,-0.0917513,-0.0999196,18,32765
1.29281,-0.0947703,-0.0982856,18,32765
1.34218,-0.103001,-0.102173,18,32765
1.48097,-0.118729,-0.112777,11,32765
0,-0,-0,0,32765
0,-0,-0,0,32765
0,-0,-0,0,32765
0,-0,-0,0,32765
0,-0,-0,0,32765
0,-0,-0,0,32765
0,-0,-0,0,32765
0,-0,-0,0,32765
0,-0,-0,0,32765
0,-0,-0,0,32765
0,-0,-0,0,32765
0,-0,-0,0,32765
0,-0,-0,0,32765
0,-0,-0,0,32765
0,-0,-0,0,32765
0,-0,-0,0,32765
0,-0,-0,0,32765
0,-0,-0,0,32765
0,-0,-0,0,32765
0,-0,-0,0,32765
0,-0,-0,0,32765
0,-0,-0,0,32765
0,-0,-0,0,32765
0,-0,-0,0,32765
0,-0,-0,0,32765
0,-0,-0,0,32765
0,-0,-0,0,32765
0,-0,-0,0,32765
0,-0,-0,0,32765
1.59882,-0.294151,-0.119002,11,32765
1.29394,-0.242584,-0.0962506,11,32765
1.19516,-0.228258,-0.0888378,12,32765
1.06712,-0.207557,-0.0791736,16,32765
1.06643,-0.211167,-0.0789346,17,32765
1.06571,-0.214777,-0.0789183,17,32765
1.05522,-0.216369,-0.0780521,17,32765
1.08377,-0.226077,-0.0801522,16,32765
1.08302,-0.229724,-0.0800198,16,32765
1.06275,-0.22914,-0.0784327,16,32765
1.06198,-0.232728,-0.078315,16,32765
1.05147,-0.234128,-0.0774494,16,32765
1.05069,-0.237676,-0.0772615,17,32765
1.05959,-0.243509,-0.0779397,17,32765
1.04907,-0.244777,-0.0771099,17,32765
1.02882,-0.243755,-0.0756124,17,32765
1.0377,-0.249525,-0.0762482,17,32765
1.03688,-0.252968,-0.0760943,17,32765
1.01667,-0.251623,-0.0746127,17,32765
1.02553,-0.257361,-0.0751967,17,32765
1.01501,-0.25828,-0.074433,17,32765
1.01416,-0.261635,-0.0743525,17,32765
1.00364,-0.262466,-0.0735635,17,32765
1.01241,-0.26836,-0.074163,17,32765
1.01153,-0.2717,-0.0741337,17,32765
0.991364,-0.269836,-0.0727096,17,32765
0.99047,-0.273118,-0.0726353,17,32765
0.99916,-0.279101,-0.0733625,17,32765
0.998239,-0.282402,-0.0732643,18,32765
0.968537,-0.277443,-0.0711463,17,32765
1.01551,-0.294568,-0.074623,16,32765
1.03368,-0.303518,-0.0760764,14,32765
1.09006,-0.323949,-0.0802147,13,32765
1.07945,-0.324578,-0.0795443,13,32765
1.08796,-0.330904,-0.0803041,14,32765
0.943879,-0.290384,-0.0697761,14,32765
0.923889,-0.287491,-0.0683996,16,32765
0.922952,-0.290464,-0.068481,17,32765
0.941009,-0.299498,-0.0700207,17,32765
0.902066,-0.290242,-0.0673582,17,32765
0.939076,-0.305428,-0.0703617,17,32765
0.909668,-0.299025,-0.0684715,17,32765
1.64453,0.0293291,-0.130994,16,32765
1.65453,0.0239126,-0.132497,16,32765
1.61465,0.0179249,-0.130264,16,32765
1.5748,0.0121979,-0.127531,15,32765
1.54489,0.00671111,-0.125614,16,32765
1.60463,0.00151093,-0.131329,16,32765
1.59463,-0.00394687,-0.130941,16,32765
1.5846,-0.00926033,-0.130546,15,32765
1.55463,-0.0142458,-0.128581,16,32765
1.55452,-0.0194527,-0.129131,16,32765
1.50461,-0.0238783,-0.125237,16,32765
1.51445,-0.029161,-0.126451,16,32765
1.49439,-0.0338929,-0.125096,16,32765
1.46436,-0.0381586,-0.122902,16,32765
1.4642,-0.0430742,-0.123108,16,32765
1.45408,-0.0476699,-0.122364,16,32765
1.43396,-0.0518445,-0.121165,16,32765
1.44373,-0.0570859,-0.121998,16,32765
1.42359,-0.0611475,-0.120581,16,32765
1.40346,-0.0650896,-0.118976,16,32765
1.41317,-0.0703965,-0.120037,15,32765
1.37311,-0.0730538,-0.116807,16,32765
1.42257,-0.080475,-0.121275,17,32765
1.38251,-0.0828768,-0.117891,16,32765
1.39215,-0.0881289,-0.118999,17,32765
1.36201,-0.0908662,-0.116536,16,32765
1.39151,-0.0975745,-0.119135,17,32765
1.38124,-0.101601,-0.118156,18,32765
1.3312,-0.102507,-0.114011,18,32765
1.33084,-0.107053,-0.114019,19,32765
1.35032,-0.113289,-0.115719,19,32765
1.3003,-0.113546,-0.111511,16,32765
1.34952,-0.122456,-0.115707,12,32765
0,-0,-0,0,32765
0,-0,-0,0,32765
0,-0,-0,0,32765
0,-0,-0,0,32765
0,-0,-0,0,32765
0,-0,-0,0,32765
0,-0,-0,0,32765
0,-0,-0,0,32765
0,-0,-0,0,32765
0,-0,-0,0,32765
0,-0,-0,0,32765
0,-0,-0,0,32765
0,-0,-0,0,32765
0,-0,-0,0,32765
0,-0,-0,0,32765
0,-0,-0,0,32765
0,-0,-0,0,32765
0,-0,-0,0,32765
0,-0,-0,0,32765
0,-0,-0,0,32765
0,-0,-0,0,32765
0,-0,-0,0,32765
0,-0,-0,0,32765
0,-0,-0,0,32765
0,-0,-0,0,32765
0,-0,-0,0,32765
1.18586,-0.218834,-0.0997008,13,32765
1.09697,-0.206277,-0.0921833,17,32765
1.11585,-0.213753,-0.0937157,18,32765
1.09557,-0.213731,-0.0918679,17,32765
1.09486,-0.217447,-0.0916219,17,32765
1.10389,-0.223138,-0.0924224,17,32765
1.1129,-0.22888,-0.0930897,17,32765
1.09261,-0.228602,-0.0913873,17,32765
1.10159,-0.234363,-0.092068,17,32765
1.06184,-0.229629,-0.0886631,17,32765
1.10001,-0.241783,-0.0917943,17,32765
1.08947,-0.243316,-0.0908288,17,32765
1.07894,-0.244796,-0.0898242,18,32765
1.08781,-0.25074,-0.0905946,18,32765
1.05786,-0.247565,-0.0880515,17,32765
1.05701,-0.251182,-0.0879793,17,32765
1.07555,-0.259398,-0.0895126,17,32765
1.03596,-0.253499,-0.0861325,17,32765
1.06414,-0.264157,-0.0884846,17,32765
1.04395,-0.262766,-0.0867462,17,32765
1.04308,-0.266215,-0.0866897,17,32765
1.03255,-0.267174,-0.0858044,17,32765
1.03166,-0.270599,-0.0857205,17,32765
1.0404,-0.276601,-0.0864101,17,32765
1.0106,-0.272264,-0.0839797,17,32765
1.0193,-0.27827,-0.0847664,17,32765
0.999166,-0.27634,-0.0830913,17,32765
0.988636,-0.276988,-0.0823134,18,32765
0.978132,-0.277543,-0.0814173,18,32765
0.977212,-0.280766,-0.0814119,18,32765
0.966699,-0.28125,-0.0805697,18,32765
0.965765,-0.284428,-0.0806114,18,32765
0.974386,-0.290443,-0.08133,18,32765
0.963899,-0.290703,-0.0805615,17,32765
0.962965,-0.293768,-0.0806102,17,32765
0.962015,-0.296855,-0.0806486,18,32765
0.970565,-0.302926,-0.081481,17,32765
0.950564,-0.300056,-0.0799664,17,32765
0.959071,-0.306169,-0.0808954,17,32765
0.958083,-0.309199,-0.0810716,17,32765
0.94761,-0.309138,-0.080437,17,32765
0.937146,-0.308993,-0.0798811,17,32765
1.6522,0.0315066,-0.157595,15,32765
1.58268,0.0247939,-0.150412,15,32765
1.60271,0.0197162,-0.151744,15,32765
1.56298,0.0138942,-0.147642,15,32765
1.59293,0.00878059,-0.149988,15,32765
1.58301,0.00339203,-0.148852,15,32765
1.54324,-0.0019368,-0.144629,15,32765
1.5532,-0.00714214,-0.145339,15,32765
1.55319,-0.0123153,-0.145036,15,32765
1.51336,-0.0170222,-0.140919,16,32765
1.50336,-0.0220404,-0.139729,16,32765
1.48338,-0.0268145,-0.137723,16,32765
1.46339,-0.0314534,-0.135636,15,32765
1.49316,-0.0372185,-0.138178,16,32765
1.39351,-0.0394629,-0.128781,15,32765
1.48295,-0.0470534,-0.136932,16,32765
1.42309,-0.050009,-0.131238,15,32765
1.39308,-0.053678,-0.128259,15,32765
1.40284,-0.0588046,-0.129113,16,32765
1.39272,-0.0630766,-0.127863,16,32765
1.36266,-0.066334,-0.125092,15,32765
1.37239,-0.0716047,-0.125825,16,32765
1.38209,-0.0768627,-0.126535,15,32765
1.36194,-0.0804331,-0.124664,16,32765
1.31199,-0.0819013,-0.119874,16,32765
1.32165,-0.0869569,-0.120719,16,32765
1.33129,-0.0921762,-0.121523,16,32765
1.31112,-0.0952185,-0.119598,17,32765
1.32072,-0.100529,-0.12034,17,32765
1.32038,-0.105063,-0.120253,18,32765
1.3101,-0.108758,-0.119208,18,32765
1.29981,-0.112397,-0.118203,17,32765
1.27959,-0.114998,-0.116315,15,32765
1.29902,-0.121186,-0.118117,12,32765
0,-0,-0,0,32765
0,-0,-0,0,32765
0,-0,-0,0,32765
0,-0,-0,0,32765
0,-0,-0,0,32765
0,-0,-0,0,32765
0,-0,-0,0,32765
0,-0,-0,0,32765
0,-0,-0,0,32765
0,-0,-0,0,32765
0,-0,-0,0,32765
0,-0,-0,0,32765
0,-0,-0,0,32765
0,-0,-0,0,32765
0,-0,-0,0,32765
0,-0,-0,0,32765
0,-0,-0,0,32765
0,-0,-0,0,32765
0,-0,-0,0,32765
0,-0,-0,0,32765
0,-0,-0,0,32765
0,-0,-0,0,32765
0,-0,-0,0,32765
0,-0,-0,0,32765
0,-0,-0,0,32765
1.11682,-0.205319,-0.100735,13,32765
1.09653,-0.205513,-0.0989044,18,32765
1.08605,-0.207392,-0.0978558,17,32765
1.09514,-0.212906,-0.0987127,17,32765
1.06511,-0.210786,-0.0959761,17,32765
1.05465,-0.212386,-0.0949293,17,32765
1.07346,-0.21996,-0.0964785,18,32765
1.06295,-0.221587,-0.0955294,18,32765
1.05246,-0.22314,-0.094538,17,32765
1.06146,-0.228795,-0.0952027,17,32765
1.0607,-0.232324,-0.0950535,17,32765
1.04047,-0.231584,-0.0931706,18,32765
1.03971,-0.235078,-0.0930051,17,32765
0.990378,-0.227418,-0.0884969,17,32765
1.02843,-0.239774,-0.0918189,17,32765
1.03736,-0.245475,-0.0923494,17,32765
1.02687,-0.246604,-0.0912811,18,32765
1.02604,-0.250065,-0.0911326,17,32765
1.02522,-0.253478,-0.0909134,17,32765
1.00507,-0.25203,-0.0889353,17,32765
0.994603,-0.252898,-0.0877985,17,32765
1.00342,-0.25871,-0.0884505,17,32765
1.00257,-0.262054,-0.0881576,17,32765
1.00173,-0.265364,-0.0878733,17,32765
1.00085,-0.268689,-0.0877441,17,32765
0.980764,-0.266769,-0.0856548,17,32765
0.979887,-0.27004,-0.0854328,17,32765
0.979015,-0.273306,-0.0850534,19,32765
0.958969,-0.271061,-0.0830935,19,32765
0.948527,-0.271449,-0.0819242,19,32765
0.976396,-0.28284,-0.0839828,19,32765
0.927666,-0.272021,-0.0796229,18,32765
0.984102,-0.292155,-0.0841895,19,32765
0.964085,-0.28964,-0.0821497,18,32765
0.982249,-0.298556,-0.0833779,18,32765
0.943232,-0.289929,-0.0797205,17,32765
0.942316,-0.292988,-0.0793621,18,32765
0.941394,-0.296064,-0.0788918,17,32765
0.930972,-0.296104,-0.0775453,17,32765
0.949045,-0.305197,-0.0785344,18,32765
0.948125,-0.308196,-0.0779317,17,32765
0.918776,-0.301856,-0.0750532,17,32765
1.69042,0.0322025,-0.177349,15,32765
1.67069,0.0261251,-0.174696,16,32765
1.6211,0.0198818,-0.16893,15,32765
1.62119,0.0143363,-0.168586,15,32765
1.60139,0.00873835,-0.166039,16,32765
1.59149,0.00330743,-0.164808,16,32765
1.59154,-0.00211453,-0.164315,16,32765
1.57165,-0.00735675,-0.162035,16,32765
1.5816,-0.0126852,-0.162752,15,32765
1.57164,-0.0178354,-0.161315,16,32765
1.52187,-0.0224783,-0.155944,15,32765
1.56158,-0.0284134,-0.159857,16,32765
1.52172,-0.0329015,-0.155536,16,32765
1.49178,-0.0373886,-0.152261,16,32765
1.50161,-0.0427439,-0.153076,15,32765
1.49153,-0.0475574,-0.151933,15,32765
1.44166,-0.0508991,-0.146686,16,32765
1.45145,-0.0561791,-0.147462,16,32765
1.45125,-0.0610993,-0.147398,15,32765
1.47095,-0.066902,-0.149064,16,32765
1.39122,-0.0680041,-0.140974,16,32765
1.391,-0.0728686,-0.140791,16,32765
1.37089,-0.076541,-0.13858,16,32765
1.41035,-0.0836153,-0.142544,16,32765
1.3803,-0.0864943,-0.13928,16,32765
1.37008,-0.0904822,-0.138212,17,32765
1.38962,-0.0965719,-0.140106,16,32765
1.35953,-0.0990961,-0.136988,16,32765
1.30959,-0.100042,-0.131826,17,32765
1.34892,-0.107718,-0.135731,17,32765
1.30889,-0.109044,-0.131598,16,32765
1.31843,-0.114409,-0.132492,17,32765
1.24867,-0.112611,-0.125437,18,32765
1.28791,-0.120565,-0.129416,18,32765
1.26771,-0.123034,-0.127138,17,32765
1.26728,-0.127395,-0.127125,17,32765
1.24705,-0.129725,-0.125089,17,32765
1.28618,-0.138281,-0.128947,16,32765
1.23624,-0.137274,-0.123914,14,32765
1.31488,-0.150507,-0.131671,12,32765
0,-0,-0,0,32765
0,-0,-0,0,32765
0,-0,-0,0,32765
0,-0,-0,0,32765
0,-0,-0,0,32765
0,-0,-0,0,32765
0,-0,-0,0,32765
0,-0,-0,0,32765
0,-0,-0,0,32765
0,-0,-0,0,32765
0,-0,-0,0,32765
0,-0,-0,0,32765
0,-0,-0,0,32765
0,-0,-0,0,32765
0,-0,-0,0,32765
0,-0,-0,0,32765
0,-0,-0,0,32765
0,-0,-0,0,32765
0,-0,-0,0,32765
1.09615,-0.202154,-0.109469,15,32765
1.11501,-0.209635,-0.111359,15,32765
1.10453,-0.211583,-0.110213,16,32765
1.10382,-0.215268,-0.110187,17,32765
1.1031,-0.218988,-0.110091,17,32765
1.08286,-0.218751,-0.107971,17,32765
1.07238,-0.220427,-0.106789,17,32765
1.09112,-0.228169,-0.108656,17,32765
1.09034,-0.231894,-0.108536,18,32765
1.07984,-0.233484,-0.107352,17,32765
1.07907,-0.237084,-0.1072,17,32765
1.04913,-0.234239,-0.104162,17,32765
1.05806,-0.239973,-0.104957,17,32765
1.06697,-0.245767,-0.105745,17,32765
1.05646,-0.247074,-0.10463,17,32765
1.04598,-0.248285,-0.103331,17,32765
1.04517,-0.251778,-0.103121,17,32765
1.00565,-0.245855,-0.0991557,17,32765
1.03383,-0.256399,-0.101794,17,32765
1.0523,-0.264692,-0.103421,17,32765
1.05145,-0.268181,-0.103123,18,32765
1.03129,-0.26672,-0.101024,18,32765
1.01116,-0.265116,-0.0988391,17,32765
1.01993,-0.271021,-0.0994902,17,32765
0.999804,-0.269239,-0.0974831,17,32765
0.998945,-0.272555,-0.097073,17,32765
0.978856,-0.270591,-0.0949836,18,32765
1.00675,-0.281917,-0.0973863,17,32765
1.01543,-0.287909,-0.0980035,18,32765
1.01452,-0.291232,-0.0976409,18,32765
1.01361,-0.294527,-0.0971999,18,32765
0.974447,-0.286622,-0.0932758,18,32765
1.01169,-0.301272,-0.0965642,18,32765
0.963057,-0.290224,-0.0916038,17,32765
0.981199,-0.299158,-0.0930188,17,32765
0.95174,-0.293447,-0.0898855,17,32765
0.941306,-0.293577,-0.0886277,17,32765
0.959382,-0.302652,-0.089938,17,32765
0.920484,-0.293671,-0.0858319,17,32765
0.948027,-0.305809,-0.0878928,17,32765
0.928166,-0.302637,-0.0855441,17,32765
0.936714,-0.308697,-0.0858649,17,32765
1.60152,0.0303327,-0.162198,15,32765
1.58165,0.0245278,-0.160859,15,32765
1.5916,0.0192468,-0.162565,15,32765
1.59163,0.0138397,-0.162902,16,32765
1.56176,0.00824377,-0.160434,16,32765
1.57169,0.00292985,-0.161845,16,32765
1.53183,-0.00237672,-0.158391,16,32765
1.56162,-0.00769749,-0.161817,16,32765
1.52177,-0.0125867,-0.157945,16,32765
1.52169,-0.0177026,-0.158295,15,32765
1.51164,-0.0226605,-0.157586,15,32765
1.48171,-0.0271856,-0.154605,15,32765
1.43185,-0.0310681,-0.149806,15,32765
1.43171,-0.0359166,-0.150063,15,32765
1.4912,-0.0425484,-0.156521,16,32765
1.47116,-0.047057,-0.154524,16,32765
1.39145,-0.0492852,-0.146395,16,32765
1.43101,-0.0555801,-0.15072,16,32765
1.41093,-0.059529,-0.148763,15,32765
1.3809,-0.0629809,-0.14576,15,32765
1.38067,-0.0675739,-0.14592,16,32765
1.3705,-0.071706,-0.144917,16,32765
1.37022,-0.0763647,-0.145136,16,32765
1.35011,-0.0798278,-0.142973,16,32765
1.35973,-0.0851216,-0.144217,16,32765
1.31974,-0.0871439,-0.14001,16,32765
1.32934,-0.0923479,-0.141196,17,32765
1.30918,-0.0954451,-0.13905,17,32765
1.29893,-0.0990749,-0.138068,16,32765
1.29859,-0.103432,-0.138086,16,32765
1.28832,-0.106925,-0.137115,17,32765
1.25824,-0.108677,-0.133895,16,32765
1.24795,-0.112071,-0.132911,17,32765
1.24757,-0.11634,-0.132786,17,32765
1.24714,-0.120684,-0.132915,17,32765
1.22694,-0.122935,-0.13075,17,32765
1.2562,-0.130161,-0.133861,18,32765
1.2162,-0.130187,-0.129644,17,32765
1.22566,-0.135347,-0.130574,17,32765
1.24494,-0.141778,-0.132716,16,32765
1.24446,-0.146024,-0.132627,15,32765
1.25384,-0.151477,-0.133566,13,32765
1.45068,-0.18035,-0.154628,11,32765
0,-0,-0,0,32765
0,-0,-0,0,32765
0,-0,-0,0,32765
0,-0,-0,11,32765
0,-0,-0,0,32765
0,-0,-0,0,32765
1.2493,-0.1856,-0.133072,11,32765
1.29783,-0.197389,-0.138149,11,32765
0,-0,-0,0,32765
1.40449,-0.223582,-0.149368,12,32765
0,-0,-0,0,32765
1.31465,-0.218568,-0.139756,11,32765
1.3041,-0.221362,-0.138641,11,32765
1.33276,-0.230911,-0.141501,12,32765
1.2732,-0.225105,-0.135241,12,32765
1.38012,-0.248832,-0.146475,11,32765
1.26188,-0.231988,-0.133934,12,32765
1.1829,-0.22157,-0.125515,13,32765
1.104,-0.210652,-0.117111,14,32765
1.08376,-0.210615,-0.114946,15,32765
1.03426,-0.204616,-0.109677,16,32765
1.06283,-0.214062,-0.112594,16,32765
1.03287,-0.211694,-0.109426,17,32765
1.02241,-0.213162,-0.108324,17,32765
1.02169,-0.216641,-0.108196,17,32765
1.05987,-0.228475,-0.112171,17,32765
1.02023,-0.22356,-0.10794,17,32765
1.0389,-0.231338,-0.109893,17,32765
1.02841,-0.232677,-0.108819,17,32765
1.00822,-0.231737,-0.106682,17,32765
1.01714,-0.237401,-0.107597,17,32765
1.01633,-0.240889,-0.107499,17,32765
1.00585,-0.241983,-0.106377,17,32765
1.00504,-0.245348,-0.106281,17,32765
1.00421,-0.248759,-0.106175,17,32765
0.993737,-0.249668,-0.105131,17,32765
0.983256,-0.25057,-0.104035,17,32765
1.0017,-0.258805,-0.105941,17,32765
0.981589,-0.257107,-0.103825,17,32765
0.980729,-0.260392,-0.103759,17,32765
0.979874,-0.263628,-0.103671,17,32765
0.998187,-0.272148,-0.105634,17,32765
0.987704,-0.272798,-0.104506,17,32765
0.958047,-0.268053,-0.101452,17,32765
1.02416,-0.290213,-0.108487,16,32765
0.946709,-0.271643,-0.100263,15,32765
0.936257,-0.271979,-0.0992469,17,32765
0.916269,-0.269449,-0.0971999,17,32765
0.924917,-0.275305,-0.0981615,17,32765
0.924,-0.278382,-0.0981217,17,32765
0.923097,-0.281386,-0.0980536,17,32765
0.941175,-0.290263,-0.100187,17,32765
0.921258,-0.287351,-0.0980446,17,32765
0.929816,-0.293293,-0.0991064,16,32765
0.96677,-0.30838,-0.103237,17,32765
0.927916,-0.299256,-0.0990876,17,32765
0.908007,-0.296065,-0.0973059,17,32765
0.888171,-0.292702,-0.0952758,16,32765
1.68936,0.0319567,-0.187212,15,32765
1.63969,0.0253735,-0.182407,15,32765
1.63969,0.0197581,-0.183122,15,32765
1.61983,0.0140002,-0.181245,15,32765
1.6198,0.00844972,-0.181853,15,32765
1.56015,0.00279667,-0.175545,15,32765
1.6197,-0.00264475,-0.182935,16,32765
1.56996,-0.00788116,-0.177666,16,32765
1.5699,-0.013142,-0.177924,16,32765
1.55987,-0.0183178,-0.177156,16,32765
1.50015,-0.022667,-0.170709,15,32765
1.52985,-0.0282655,-0.174233,15,32765
1.5893,-0.0347037,-0.181454,16,32765
1.49975,-0.0378448,-0.171516,16,32765
1.46979,-0.0421687,-0.168311,15,32765
1.43984,-0.0462956,-0.164986,15,32765
1.46943,-0.0523067,-0.168636,16,32765
1.47915,-0.0577255,-0.169923,16,32765
1.41938,-0.0601634,-0.163217,16,32765
1.40923,-0.0645622,-0.162218,15,32765
1.42883,-0.070238,-0.164668,15,32765
1.40874,-0.0740229,-0.162428,15,32765
1.38861,-0.0777148,-0.160362,17,32765
1.40818,-0.0836047,-0.16259,16,32765
1.35829,-0.0853759,-0.157058,16,32765
1.3679,-0.0906842,-0.158208,16,32765
1.35765,-0.0946858,-0.157197,16,32765
1.35733,-0.0993389,-0.157157,17,32765
1.34707,-0.103141,-0.156083,16,32765
1.33681,-0.10688,-0.154954,16,32765
1.32654,-0.11051,-0.153891,16,32765
1.30637,-0.113254,-0.151536,16,32765
1.28618,-0.11593,-0.149312,16,32765
1.32536,-0.124045,-0.153773,17,32765
1.31501,-0.127712,-0.152761,17,32765
1.2355,-0.124238,-0.143516,16,32765
1.23508,-0.12843,-0.143465,16,32765
1.26427,-0.135813,-0.146907,17,32765
1.26382,-0.140054,-0.146777,17,32765
1.22385,-0.139865,-0.142226,17,32765
1.21351,-0.142889,-0.140991,17,32765
1.22289,-0.148251,-0.142026,17,32765
1.22236,-0.152491,-0.14205,17,32765
1.22185,-0.156674,-0.141891,16,32765
1.19177,-0.156962,-0.138406,16,32765
1.20108,-0.162321,-0.139495,16,32765
1.22021,-0.169128,-0.141696,16,32765
1.19012,-0.169083,-0.138305,16,32765
1.20923,-0.175997,-0.140297,16,32765
1.24791,-0.186019,-0.144964,15,32765
1.2571,-0.191837,-0.145949,14,32765
1.20737,-0.188508,-0.140098,13,32765
1.21652,-0.194306,-0.141132,12,32765
1.19625,-0.195284,-0.138726,13,32765
1.17598,-0.196163,-0.136389,14,32765
1.12634,-0.191822,-0.130644,16,32765
1.11591,-0.193979,-0.129283,16,32765
1.12502,-0.199563,-0.130401,17,32765
1.09502,-0.198081,-0.126833,17,32765
1.12366,-0.207256,-0.130163,17,32765
1.09367,-0.205529,-0.126661,17,32765
1.09298,-0.209233,-0.126557,16,32765
1.07276,-0.209161,-0.124204,15,32765
1.05257,-0.208918,-0.121853,16,32765
1.07134,-0.216482,-0.123921,15,32765
1.06087,-0.218143,-0.122723,15,32765
1.06986,-0.223781,-0.123774,15,32765
1.05939,-0.225364,-0.122515,14,32765
1.06835,-0.231052,-0.123491,14,32765
1.07727,-0.236826,-0.124492,14,32765
1.09587,-0.244816,-0.126626,14,32765
1.12411,-0.255153,-0.129935,14,32765
1.09419,-0.25231,-0.126483,15,32765
1.05464,-0.246951,-0.121889,15,32765
1.03446,-0.24598,-0.119553,16,32765
1.02397,-0.247141,-0.118335,16,32765
1.0135,-0.248212,-0.117121,17,32765
1.03195,-0.256455,-0.119243,17,32765
1.02145,-0.257461,-0.118103,17,32765
1.02058,-0.260923,-0.118024,17,32765
1.01011,-0.261821,-0.116775,17,32765
0.980397,-0.257625,-0.113359,18,32765
0.989138,-0.263473,-0.114403,18,32765
0.997865,-0.269336,-0.115423,18,32765
0.996962,-0.272693,-0.115353,18,32765
0.957755,-0.265381,-0.110806,18,32765
0.975999,-0.273959,-0.113012,17,32765
0.936852,-0.266331,-0.108518,17,32765
0.96463,-0.277681,-0.111724,17,32765
0.944626,-0.275298,-0.109507,17,32765
0.981844,-0.289667,-0.113908,17,32765
0.942795,-0.281535,-0.109432,17,32765
0.951369,-0.287556,-0.110495,17,32765
0.950434,-0.290658,-0.110424,17,32765
0.930474,-0.287894,-0.108325,18,32765
0.920074,-0.287913,-0.107101,18,32765
0.909663,-0.287868,-0.106046,18,32765
0.918185,-0.293834,-0.107231,17,32765
0.936162,-0.302897,-0.109339,18,32765
0.916261,-0.299729,-0.107372,17,32765
0.924744,-0.305748,-0.108475,17,32765
1.63677,0.0328759,-0.2059,16,32765
1.60718,0.0267094,-0.201656,15,32765
1.61724,0.0213259,-0.20247,15,32765
1.56772,0.0153339,-0.195998,15,32765
1.57775,0.010039,-0.196721,16,32765
1.53809,0.00452565,-0.1917,15,32765
1.57784,-0.000821345,-0.196249,14,32765
1.56793,-0.00624128,-0.194835,15,32765
1.54807,-0.0114902,-0.192238,14,32765
1.5282,-0.0165525,-0.189553,16,32765
1.52815,-0.0217411,-0.189418,15,32765
1.4884,-0.0262855,-0.184333,15,32765
1.5181,-0.0319979,-0.187743,15,32765
1.45846,-0.0357588,-0.180343,15,32765
1.44841,-0.0404421,-0.179065,15,32765
1.43837,-0.0450761,-0.177667,15,32765
1.45806,-0.0506686,-0.180002,16,32765
1.40832,-0.0537014,-0.173676,16,32765
1.3982,-0.0580644,-0.172489,15,32765
1.398,-0.0628127,-0.172515,15,32765
1.37798,-0.0666243,-0.169793,16,32765
1.35791,-0.0703386,-0.167398,16,32765
1.36758,-0.0755641,-0.168533,16,32765
1.35741,-0.0796633,-0.16734,16,32765
1.33734,-0.0830058,-0.164737,16,32765
1.34696,-0.088191,-0.165928,16,32765
1.30705,-0.0899951,-0.160974,16,32765
1.29686,-0.0937182,-0.159608,17,32765
1.29652,-0.0981353,-0.159667,16,32765
1.32586,-0.105029,-0.163266,16,32765
1.29582,-0.107201,-0.15955,16,32765
1.28556,-0.110891,-0.158196,16,32765
1.27528,-0.114448,-0.157077,17,32765
1.28478,-0.119738,-0.158148,17,32765
1.25473,-0.121233,-0.154433,16,32765
1.27407,-0.127512,-0.156812,17,32765
1.22427,-0.126726,-0.150638,16,32765
1.24358,-0.133024,-0.153014,16,32765
1.23325,-0.1362,-0.151788,17,32765
1.23279,-0.140413,-0.151731,17,32765
1.25203,-0.146965,-0.154055,17,32765
1.2121,-0.146487,-0.149173,17,32765
1.18205,-0.146952,-0.145477,17,32765
1.18157,-0.150998,-0.145238,16,32765
1.21058,-0.158908,-0.148826,16,32765
1.21987,-0.164368,-0.14997,17,32765
1.22914,-0.169914,-0.151104,16,32765
1.17942,-0.167195,-0.14493,16,32765
1.16902,-0.169835,-0.143692,16,32765
1.1881,-0.176738,-0.145894,17,32765
1.16787,-0.177812,-0.143404,16,32765
1.18688,-0.184918,-0.145671,16,32765
1.12742,-0.179621,-0.138444,16,32765
1.09741,-0.178755,-0.134675,17,32765
1.09681,-0.182524,-0.134494,17,32765
1.10598,-0.187944,-0.135589,17,32765
1.10536,-0.191699,-0.135416,17,32765
1.07539,-0.190222,-0.131742,17,32765
1.06498,-0.192109,-0.130459,17,32765
1.05459,-0.193902,-0.128995,17,32765
1.05394,-0.19751,-0.128811,17,32765
1.05328,-0.201127,-0.128672,17,32765
1.06236,-0.206597,-0.129683,17,32765
1.06167,-0.210193,-0.129547,17,32765
1.03178,-0.207884,-0.12573,17,32765
1.0311,-0.211429,-0.125457,17,32765
1.0401,-0.216989,-0.12656,17,32765
1.01995,-0.216453,-0.123917,17,32765
1.00952,-0.217864,-0.122507,16,32765
1.0088,-0.221275,-0.122306,16,32765
1.01776,-0.226872,-0.123261,16,32765
0.987963,-0.223715,-0.119499,15,32765
0.958198,-0.220379,-0.115716,15,32765
1.0155,-0.237188,-0.122483,15,32765
1.00506,-0.238297,-0.12108,15,32765
1.04292,-0.250985,-0.125399,16,32765
1.01315,-0.24744,-0.121665,16,32765
0.983419,-0.243669,-0.117948,16,32765
0.992269,-0.24938,-0.11879,17,32765
0.962606,-0.245292,-0.114985,18,32765
0.971441,-0.250947,-0.115879,18,32765
0.970642,-0.254177,-0.115538,19,32765
0.912213,-0.24211,-0.108397,18,32765
0.959406,-0.258063,-0.113768,18,32765
0.949,-0.258652,-0.112244,18,32765
0.957749,-0.264463,-0.113029,18,32765
0.956903,-0.267666,-0.11266,17,32765
0.946477,-0.268165,-0.111219,17,32765
0.916958,-0.263121,-0.107496,17,32765
0.925687,-0.268894,-0.108167,17,32765
0.924832,-0.271952,-0.107835,17,32765
0.895399,-0.266492,-0.10413,17,32765
0.904085,-0.27226,-0.104903,17,32765
0.912755,-0.278081,-0.10559,18,32765
0.902405,-0.278109,-0.104027,17,32765
0.920526,-0.286983,-0.1057,17,32765
0.900671,-0.284021,-0.103075,17,32765
0.918749,-0.29293,-0.104841,17,32765
0.898924,-0.289832,-0.102141,17,32765
0.90749,-0.295844,-0.102655,17,32765
0.86882,-0.286319,-0.0978383,16,32765
1.67439,0.0335722,-0.2267,15,32765
1.68448,0.0279181,-0.227517,15,32765
1.68462,0.0221224,-0.227068,15,32765
1.62526,0.0157921,-0.218783,15,32765
1.63529,0.0102843,-0.219581,15,32765
1.59568,0.00456164,-0.214182,15,32765
1.58583,-0.000973557,-0.212451,15,32765
1.59575,-0.00651668,-0.213596,16,32765
1.58583,-0.0119496,-0.212135,16,32765
1.60563,-0.0175881,-0.214556,16,32765
1.52629,-0.0219165,-0.203826,15,32765
1.51632,-0.0269939,-0.202333,16,32765
1.49644,-0.0317682,-0.199416,15,32765
1.54587,-0.0381517,-0.205979,15,32765
1.53583,-0.0431459,-0.204603,15,32765
1.42671,-0.044969,-0.189913,15,32765
1.49591,-0.0522693,-0.199026,15,32765
1.44623,-0.0554367,-0.192226,15,32765
1.43612,-0.0599407,-0.190947,15,32765
1.4062,-0.0634905,-0.187022,15,32765
1.41591,-0.0687833,-0.188056,16,32765
1.42556,-0.0741841,-0.189422,16,32765
1.37582,-0.0763622,-0.182756,16,32765
1.37554,-0.0810845,-0.182785,16,32765
1.36539,-0.0851143,-0.181306,16,32765
1.34531,-0.0884586,-0.178649,16,32765
1.37468,-0.0950487,-0.182511,17,32765
1.3546,-0.0982952,-0.179732,16,32765
1.34436,-0.102171,-0.17848,16,32765
1.344,-0.106894,-0.178422,16,32765
1.30411,-0.108316,-0.173113,16,32765
1.33337,-0.115467,-0.176905,16,32765
1.32307,-0.1192,-0.175696,16,32765
1.28319,-0.120052,-0.170305,16,32765
1.27292,-0.123461,-0.168928,17,32765
1.25276,-0.125855,-0.166256,16,32765
1.2622,-0.131144,-0.167466,16,32765
1.26175,-0.135473,-0.16741,16,32765
1.22187,-0.135444,-0.162167,16,32765
1.2411,-0.141882,-0.164725,16,32765
1.22093,-0.143841,-0.162009,17,32765
1.20075,-0.145645,-0.159366,16,32765
1.21992,-0.152211,-0.161918,16,32765
1.19976,-0.153876,-0.159063,16,32765
1.19923,-0.157984,-0.15902,17,32765
1.18887,-0.160764,-0.157652,17,32765
1.18831,-0.164855,-0.157578,17,32765
1.16812,-0.166181,-0.154845,16,32765
1.18717,-0.173081,-0.157416,16,32765
1.16698,-0.174209,-0.154603,16,32765
1.17619,-0.179708,-0.155823,17,32765
1.14619,-0.179203,-0.151789,17,32765
1.14556,-0.18315,-0.151785,17,32765
1.15473,-0.188745,-0.152915,17,32765
1.14431,-0.19109,-0.15143,17,32765
1.13389,-0.193353,-0.150027,17,32765
1.13325,-0.197214,-0.149848,18,32765
1.12283,-0.199297,-0.148474,18,32765
1.12215,-0.203119,-0.148383,18,32765
1.1215,-0.206911,-0.148098,18,32765
1.13055,-0.212591,-0.149188,18,32765
1.11035,-0.21275,-0.146469,17,32765
1.09991,-0.214631,-0.144996,17,32765
1.07002,-0.212566,-0.141009,17,32765
1.04016,-0.210284,-0.136909,17,32765
1.06861,-0.219865,-0.140464,17,32765
1.06786,-0.223536,-0.140381,17,32765
1.07682,-0.229295,-0.141363,18,32765
1.06636,-0.230908,-0.139846,17,32765
1.05591,-0.232389,-0.138363,17,32765
1.04546,-0.233832,-0.136866,17,32765
1.01568,-0.230765,-0.132817,17,32765
1.04393,-0.240902,-0.136318,17,32765
1.01416,-0.237669,-0.132284,17,32765
1.02304,-0.243371,-0.133303,17,32765
1.00296,-0.242177,-0.130462,17,32765
1.0118,-0.247938,-0.131466,17,32765
1.01099,-0.251339,-0.131217,17,32765
1.01019,-0.254731,-0.130896,17,32765
0.999773,-0.255613,-0.12929,18,32765
0.979746,-0.253936,-0.126545,19,32765
1.00773,-0.264768,-0.129913,19,32765
0.968525,-0.257911,-0.124668,19,32765
1.00602,-0.271502,-0.129254,18,32765
0.947722,-0.259163,-0.121481,17,32765
0.956458,-0.264983,-0.122359,18,32765
0.946054,-0.26551,-0.120769,18,32765
0.935649,-0.265977,-0.119239,17,32765
0.944332,-0.271875,-0.120091,17,32765
0.924432,-0.26942,-0.117215,17,32765
0.971182,-0.286528,-0.122908,17,32765
0.941744,-0.281214,-0.118903,18,32765
0.931365,-0.281403,-0.117356,17,32765
0.94949,-0.29023,-0.119316,18,32765
0.929631,-0.287447,-0.116452,17,32765
0.919269,-0.287538,-0.114746,18,32765
0.93731,-0.296552,-0.116647,17,32765
0.92695,-0.29652,-0.115061,17,32765
0.926041,-0.299561,-0.114506,18,32765
0.915687,-0.299501,-0.112769,18,32765
0.924214,-0.305578,-0.113358,18,32765
1.69492,0.0338912,-0.224035,15,32765
1.63543,0.0272166,-0.217055,15,32765
1.61558,0.0213872,-0.215295,15,32765
1.63537,0.0160915,-0.218622,15,32765
1.56593,0.0100905,-0.210132,15,32765
1.53615,0.00472316,-0.206693,15,32765
1.56582,-0.000428084,-0.211171,15,32765
1.55584,-0.00574394,-0.210332,15,32765
1.59538,-0.0112375,-0.216179,15,32765
1.54574,-0.0161364,-0.209846,15,32765
1.46636,-0.0202897,-0.199461,15,32765
1.51577,-0.0261804,-0.206499,15,32765
1.46609,-0.0304619,-0.200094,15,32765
1.47584,-0.0358275,-0.201792,15,32765
1.47565,-0.0409674,-0.202173,15,32765
1.46556,-0.0457179,-0.201111,15,32765
1.44557,-0.0500008,-0.198565,15,32765
1.40575,-0.0534306,-0.193445,15,32765
1.43524,-0.0594135,-0.197598,15,32765
1.43501,-0.0643119,-0.197778,15,32765
1.37538,-0.0663036,-0.18983,15,32765
1.38501,-0.0714242,-0.191448,16,32765
1.36497,-0.0749991,-0.188735,16,32765
1.35481,-0.0790013,-0.187452,16,32765
1.36441,-0.0842463,-0.188894,17,32765
1.33444,-0.0870082,-0.184934,16,32765
1.31435,-0.09024,-0.182286,16,32765
1.34366,-0.0969213,-0.186506,16,32765
1.28405,-0.0970628,-0.178293,16,32765
1.29358,-0.102268,-0.179709,16,32765
1.25374,-0.103419,-0.174153,16,32765
1.29287,-0.111127,-0.179584,16,32765
1.25299,-0.112023,-0.174244,16,32765
1.24275,-0.115373,-0.172818,16,32765
1.28177,-0.12347,-0.178416,17,32765
1.25177,-0.124947,-0.174273,17,32765
1.21193,-0.125231,-0.168614,16,32765
1.26073,-0.13472,-0.175536,17,32765
1.25045,-0.137975,-0.173911,17,32765
1.20075,-0.136673,-0.167117,16,32765
1.2003,-0.140762,-0.166962,16,32765
1.19981,-0.144836,-0.166976,17,32765
1.16,-0.144045,-0.161409,16,32765
1.16935,-0.149248,-0.162596,16,32765
1.15902,-0.152016,-0.161109,15,32765
1.16833,-0.157345,-0.162325,15,32765
1.12855,-0.155903,-0.156748,16,32765
1.13784,-0.161171,-0.157919,16,32765
1.12751,-0.163593,-0.156379,15,32765
1.13675,-0.16898,-0.157588,16,32765
1.0872,-0.165503,-0.150668,16,32765
1.11602,-0.173883,-0.154453,17,32765
1.09586,-0.17466,-0.151613,16,32765
1.12462,-0.18315,-0.155553,17,32765
1.10447,-0.183713,-0.152649,17,32765
1.08432,-0.184185,-0.149764,17,32765
1.09346,-0.189644,-0.15091,17,32765
1.07328,-0.190058,-0.148142,17,32765
1.0629,-0.192007,-0.146526,17,32765
1.06226,-0.195653,-0.146371,18,32765
1.07137,-0.201055,-0.147472,18,32765
1.06097,-0.202835,-0.145918,17,32765
1.0603,-0.20644,-0.145781,17,32765
1.03044,-0.204304,-0.141588,17,32765
1.03946,-0.209831,-0.142785,17,32765
1.03876,-0.213408,-0.142576,17,32765
1.01864,-0.212912,-0.139754,18,32765
1.01793,-0.216411,-0.139578,17,32765
1.03658,-0.224073,-0.142073,17,32765
1.03585,-0.227591,-0.14181,17,32765
1.01574,-0.226762,-0.139108,17,32765
0.995653,-0.225796,-0.13635,17,32765
0.985245,-0.226954,-0.134851,17,32765
0.965195,-0.225755,-0.132037,17,32765
0.993378,-0.235927,-0.13579,18,32765
0.992579,-0.239279,-0.135763,17,32765
0.97253,-0.237906,-0.132992,17,32765
0.971747,-0.241205,-0.132774,17,32765
0.961343,-0.242011,-0.131339,17,32765
0.970148,-0.247682,-0.132538,17,32765
0.988523,-0.255877,-0.135088,16,32765
0.958912,-0.251649,-0.131,15,32765
0.967643,-0.257428,-0.132275,18,32765
0.947638,-0.255529,-0.129566,17,32765
0.91809,-0.250875,-0.125592,17,32765
0.907719,-0.251277,-0.124121,18,32765
0.897346,-0.251611,-0.122727,17,32765
0.896516,-0.254577,-0.122678,17,32765
