x, y, z, intensity, ring
1.60064,0.353223,0.262295,16,32765
1.56326,0.339523,0.255621,15,32765
1.58371,0.338444,0.258678,16,32765
1.59453,0.335182,0.260031,16,32765
1.56672,0.32384,0.254762,15,32765
1.56778,0.318767,0.254658,16,32765
1.58822,0.317554,0.257539,16,32765
1.56994,0.308526,0.253995,16,32765
1.59036,0.307088,0.257001,17,32765
1.54292,0.29256,0.248797,16,32765
1.57309,0.292804,0.253086,16,32765
1.61295,0.294673,0.259148,17,32765
1.55562,0.278886,0.249557,17,32765
1.53713,0.270293,0.246091,17,32765
1.55755,0.268534,0.248836,17,32765
1.56821,0.265032,0.250154,16,32765
1.58864,0.263094,0.252803,16,32765
1.56027,0.253147,0.247911,16,32765
1.5709,0.249609,0.249112,17,32765
1.562,0.242922,0.247304,17,32765
1.55308,0.236233,0.245422,16,32765
1.56368,0.232498,0.246702,16,32765
1.58402,0.230062,0.249681,16,32765
1.53594,0.217794,0.24154,17,32765
1.57583,0.218031,0.247638,17,32765
1.57661,0.212823,0.247225,17,32765
1.54796,0.203748,0.242305,17,32765
1.57803,0.202539,0.246797,17,32765
1.57869,0.197393,0.246721,17,32765
1.55979,0.18984,0.243119,17,32765
1.5604,0.184815,0.243064,17,32765
1.61015,0.18526,0.250371,17,32765
1.55182,0.173422,0.241182,16,32765
1.53276,0.16618,0.237968,17,32765
1.53337,0.1611,0.237566,17,32765
1.53389,0.156103,0.237528,17,32765
1.55411,0.152979,0.240279,17,32765
1.55461,0.147868,0.240226,18,32765
1.56495,0.143635,0.241649,17,32765
1.52608,0.134975,0.235269,18,32765
1.54621,0.131684,0.238286,17,32765
1.54666,0.126608,0.238165,17,32765
1.54709,0.121521,0.238013,16,32765
1.54749,0.116545,0.237913,17,32765
1.538,0.110762,0.236428,17,32765
1.57781,0.108553,0.242316,16,32765
1.54856,0.101466,0.237833,17,32765
1.5489,0.096459,0.237732,17,32765
1.53933,0.0908346,0.236261,17,32765
1.54953,0.0862997,0.23748,17,32765
1.53991,0.0807926,0.236097,17,32765
1.5303,0.0752334,0.234572,17,32765
1.56014,0.0716337,0.239241,17,32765
1.55049,0.0660957,0.237708,17,32765
1.55069,0.0610253,0.237783,17,32765
1.53111,0.0553229,0.234802,17,32765
1.53126,0.0503217,0.234966,17,32765
1.51164,0.0447625,0.232035,17,32765
1.52165,0.0400451,0.233626,17,32765
1.5514,0.035714,0.238277,16,32765
1.5416,0.0304963,0.236923,17,32765
1.54168,0.0255738,0.237029,17,32765
1.53183,0.0205708,0.235725,17,32765
1.55161,0.0158829,0.239045,16,32765
1.52197,0.0106324,0.234737,17,32765
1.51206,0.00558523,0.233526,17,32765
1.53177,0.000590322,0.237037,17,32765
1.54163,-0.00442974,0.238688,17,32765
1.51187,-0.00920614,0.234636,17,32765
1.53156,-0.0143137,0.237948,17,32765
1.5314,-0.0192206,0.238655,17,32765
1.52253,0.496559,0.244403,17,32765
1.53343,0.49482,0.246275,17,32765
1.54441,0.49294,0.247812,17,32765
1.53652,0.48504,0.246448,16,32765
1.51921,0.474113,0.243582,16,32765
1.53019,0.472067,0.24512,16,32765
1.55062,0.472913,0.248085,16,32765
1.53319,0.46227,0.245025,16,32765
1.51572,0.451736,0.241935,16,32765
1.53615,0.452428,0.244873,16,32765
1.54708,0.450232,0.246431,16,32765
1.52006,0.436975,0.241808,17,32765
1.5215,0.431995,0.241706,17,32765
1.53246,0.429623,0.243093,17,32765
1.52437,0.421964,0.241356,17,32765
1.53529,0.419583,0.242759,17,32765
1.51757,0.409465,0.239595,18,32765
1.52849,0.407046,0.240873,17,32765
1.53941,0.404545,0.242174,18,32765
1.53121,0.396963,0.240477,18,32765
1.51338,0.38706,0.237229,17,32765
1.50507,0.379689,0.235586,17,32765
1.50635,0.374722,0.235368,17,32765
1.5172,0.37217,0.236654,18,32765
1.50883,0.364845,0.234967,18,32765
1.50046,0.357524,0.233248,18,32765
1.51128,0.354821,0.234603,17,32765
1.52213,0.351971,0.235892,18,32765
1.51369,0.34476,0.234043,17,32765
1.5245,0.341984,0.235289,18,32765
1.52565,0.337034,0.234929,18,32765
1.50749,0.327755,0.231615,17,32765
1.50859,0.322726,0.231521,18,32765
1.50002,0.31564,0.229825,17,32765
1.51083,0.312607,0.230786,18,32765
1.52154,0.309679,0.232164,18,32765
1.50318,0.300854,0.228958,18,32765
1.49452,0.293997,0.227097,18,32765
1.4955,0.289055,0.226975,18,32765
1.51595,0.287724,0.22956,18,32765
1.51697,0.282629,0.229169,17,32765
1.5082,0.275796,0.227525,18,32765
1.51887,0.272552,0.228773,17,32765
1.51008,0.26578,0.226966,17,32765
1.52076,0.262428,0.228069,18,32765
1.5119,0.255744,0.226379,17,32765
1.5128,0.250754,0.225942,17,32765
1.52342,0.247381,0.227166,18,32765
1.50472,0.239296,0.223919,17,32765
1.50554,0.234337,0.223668,17,32765
1.50636,0.229313,0.223341,17,32765
1.48759,0.221361,0.22019,17,32765
1.47855,0.21491,0.218643,17,32765
1.48912,0.211315,0.21967,18,32765
1.49964,0.207642,0.221062,18,32765
1.51018,0.204002,0.222112,18,32765
1.50108,0.197715,0.220365,18,32765
1.49191,0.191614,0.218822,18,32765
1.51218,0.189199,0.221628,18,32765
1.49322,0.18185,0.218236,18,32765
1.49381,0.177032,0.218183,18,32765
1.50427,0.173174,0.219304,18,32765
1.47532,0.16496,0.214976,17,32765
1.5054,0.163295,0.219117,18,32765
1.49615,0.157263,0.217293,18,32765
1.5065,0.153382,0.218685,18,32765
1.49719,0.147434,0.216972,18,32765
1.48782,0.141564,0.215494,18,32765
1.45873,0.133926,0.211122,17,32765
1.46907,0.129964,0.212258,17,32765
1.48921,0.126854,0.21509,18,32765
1.48964,0.121958,0.214973,17,32765
1.49005,0.11705,0.214827,18,32765
1.46082,0.110019,0.210465,17,32765
1.50066,0.108067,0.216182,17,32765
1.48127,0.101897,0.213174,17,32765
1.51122,0.0989971,0.217497,18,32765
1.49179,0.0928727,0.214556,18,32765
1.47232,0.0868428,0.211756,17,32765
1.47264,0.0819718,0.211475,17,32765
1.48276,0.0777407,0.21302,18,32765
1.4929,0.0733329,0.214428,18,32765
1.46345,0.0671257,0.210289,18,32765
1.48344,0.0631601,0.213113,18,32765
1.47374,0.0579124,0.211763,17,32765
1.49369,0.0538772,0.214652,18,32765
1.47405,0.0483413,0.211968,17,32765
1.46429,0.0432529,0.210642,18,32765
1.47431,0.0386832,0.212138,17,32765
1.48432,0.0340446,0.213658,18,32765
1.4844,0.0292316,0.213815,18,32765
1.47457,0.0243208,0.212491,18,32765
1.47461,0.0196548,0.212698,17,32765
1.45483,0.0147389,0.210105,18,32765
1.46473,0.0100703,0.211784,18,32765
1.46472,0.00523998,0.212088,18,32765
1.47456,0.000388516,0.213962,18,32765
1.47453,-0.00442458,0.214078,17,32765
1.48433,-0.00923544,0.216044,18,32765
1.47436,-0.0139828,0.214839,18,32765
1.46432,-0.018589,0.214073,17,32765
1.66319,0.540384,0.273282,17,32765
1.61801,0.520056,0.26456,16,32765
1.63868,0.520821,0.266569,16,32765
1.62166,0.509651,0.262456,16,32765
1.62352,0.504313,0.261271,16,32765
1.64413,0.504908,0.263634,15,32765
1.62694,0.493893,0.259879,15,32765
1.63813,0.49152,0.260447,15,32765
1.62084,0.480666,0.25678,15,32765
1.63201,0.478185,0.257479,15,32765
1.61469,0.467363,0.253675,15,32765
1.60682,0.459354,0.251437,15,32765
1.57034,0.443312,0.244955,15,32765
1.61951,0.451469,0.251703,16,32765
1.63063,0.44878,0.252476,16,32765
1.61309,0.438309,0.248819,16,32765
1.60502,0.43051,0.246928,16,32765
1.60652,0.425272,0.246266,16,32765
1.59838,0.417549,0.244392,16,32765
1.60942,0.414784,0.245171,17,32765
1.60126,0.407102,0.243198,16,32765
1.59306,0.399474,0.241219,16,32765
1.60408,0.396552,0.242024,16,32765
1.60542,0.391303,0.241667,16,32765
1.6164,0.388314,0.242613,16,32765
1.58883,0.376206,0.237915,16,32765
1.59974,0.373322,0.238904,16,32765
1.60104,0.368052,0.238368,16,32765
1.59261,0.360694,0.236638,16,32765
1.60349,0.357629,0.23773,17,32765
1.5854,0.348094,0.234375,16,32765
1.60595,0.346998,0.236883,16,32765
1.57815,0.335333,0.232137,17,32765
1.58899,0.332077,0.233291,16,32765
1.60952,0.330842,0.235783,16,32765
1.63002,0.329604,0.238322,16,32765
1.59231,0.31662,0.232163,16,32765
1.60308,0.313336,0.233379,15,32765
1.60416,0.308078,0.232914,16,32765
1.60521,0.30274,0.23272,16,32765
1.52833,0.28301,0.221393,16,32765
1.52932,0.277956,0.220954,16,32765
1.54977,0.276344,0.223474,16,32765
1.57022,0.27463,0.225993,16,32765
1.55165,0.266075,0.222909,16,32765
1.57206,0.264242,0.22563,16,32765
1.58272,0.260718,0.226764,17,32765
1.55428,0.250744,0.222321,17,32765
1.56492,0.247204,0.223426,17,32765
1.55597,0.24053,0.221806,17,32765
1.56659,0.236795,0.222959,16,32765
1.52821,0.225779,0.217252,17,32765
1.55839,0.224843,0.22126,17,32765
1.56898,0.221039,0.222334,17,32765
1.55992,0.214428,0.220806,16,32765
1.57047,0.210546,0.221988,16,32765
1.56136,0.20407,0.220446,16,32765
1.55224,0.197632,0.21885,16,32765
1.56274,0.193724,0.220033,17,32765
1.55356,0.187414,0.218464,17,32765
1.53453,0.180007,0.215447,17,32765
1.56466,0.178378,0.219394,17,32765
1.55543,0.172085,0.217759,16,32765
1.53631,0.164852,0.214871,17,32765
1.56644,0.162804,0.218775,17,32765
1.5473,0.155643,0.215736,17,32765
1.54782,0.150531,0.215596,17,32765
1.54838,0.145326,0.215181,17,32765
1.53901,0.139294,0.213672,17,32765
1.54937,0.135037,0.214765,17,32765
1.57945,0.132436,0.218632,17,32765
1.55027,0.124912,0.214409,17,32765
1.55071,0.119836,0.214071,17,32765
1.58075,0.117001,0.218049,17,32765
1.55153,0.109711,0.213579,17,32765
1.53213,0.103255,0.21072,17,32765
1.57206,0.100697,0.215815,17,32765
1.54277,0.093667,0.211377,17,32765
1.553,0.0892112,0.212456,17,32765
1.53354,0.083066,0.209401,17,32765
1.5635,0.0796546,0.213376,16,32765
1.53408,0.0732357,0.209127,17,32765
1.54426,0.0687213,0.210119,17,32765
1.5544,0.0641316,0.21127,17,32765
1.54476,0.0586655,0.209439,17,32765
1.50537,0.0522702,0.203793,17,32765
1.52538,0.0479837,0.206153,17,32765
1.5355,0.0432186,0.207031,17,32765
1.52577,0.038035,0.205356,17,32765
1.54576,0.0334581,0.207633,18,32765
1.54591,0.0284106,0.207253,17,32765
1.53611,0.023277,0.205712,17,32765
1.55606,0.018499,0.207926,17,32765
1.53635,0.0133465,0.204835,18,32765
1.53645,0.00843455,0.204325,17,32765
1.56628,0.00366042,0.207719,17,32765
1.55645,-0.0012987,0.205828,17,32765
1.53667,-0.00625106,0.202718,18,32765
1.49706,-0.0108809,0.196986,17,32765
1.54668,-0.0162132,0.202787,18,32765
1.53679,-0.0208628,0.200832,18,32765
1.55245,0.505076,0.239378,17,32765
1.52592,0.49111,0.23408,16,32765
1.53708,0.489178,0.234523,17,32765
1.51047,0.475338,0.22923,18,32765
1.53109,0.476236,0.230977,18,32765
1.54217,0.474224,0.23177,18,32765
1.52485,0.463512,0.228245,18,32765
1.54542,0.464314,0.230192,18,32765
1.51852,0.450914,0.225339,17,32765
1.50109,0.440401,0.221784,18,32765
1.51214,0.438252,0.222429,18,32765
1.53271,0.438738,0.224515,18,32765
1.5247,0.430985,0.222605,18,32765
1.53573,0.428667,0.223356,18,32765
1.50858,0.415725,0.218539,17,32765
1.51002,0.410828,0.217879,17,32765
1.52097,0.408487,0.218861,18,32765
1.53196,0.406052,0.219607,18,32765
1.51416,0.39605,0.216474,17,32765
1.52514,0.393558,0.217195,17,32765
1.53608,0.391024,0.218069,17,32765
1.5182,0.38118,0.214845,17,32765
1.52917,0.378505,0.215586,16,32765
1.53045,0.373492,0.215245,16,32765
1.53174,0.368431,0.214771,17,32765
1.50406,0.356573,0.210372,17,32765
1.51492,0.35396,0.211291,17,32765
1.51615,0.34896,0.210783,17,32765
1.52697,0.346246,0.211843,17,32765
1.49913,0.334754,0.207501,18,32765
1.51965,0.334055,0.209708,17,32765
1.51111,0.326893,0.208043,17,32765
1.52198,0.323777,0.208928,18,32765
1.52309,0.318676,0.208668,18,32765
1.51447,0.311664,0.207007,18,32765
1.5155,0.306799,0.206726,18,32765
1.4971,0.298028,0.20362,18,32765
1.49809,0.293147,0.203433,17,32765
1.49911,0.288225,0.202998,18,32765
1.4806,0.279549,0.200183,17,32765
1.50102,0.278258,0.202773,18,32765
1.50199,0.273285,0.202343,17,32765
1.49317,0.266538,0.200744,18,32765
1.51361,0.265011,0.203087,18,32765
1.52429,0.261659,0.204125,18,32765
1.50561,0.253335,0.201428,18,32765
1.50646,0.248411,0.201174,18,32765
1.49752,0.241831,0.199632,18,32765
1.51793,0.24002,0.201958,19,32765
1.48935,0.230457,0.197834,18,32765
1.49995,0.22694,0.198904,18,32765
1.50071,0.221927,0.198774,18,32765
1.51129,0.21825,0.199908,18,32765
1.50223,0.211829,0.198306,18,32765
1.48331,0.204079,0.195581,17,32765
1.51349,0.203084,0.199268,17,32765
1.51417,0.198071,0.199118,17,32765
1.51485,0.193032,0.198914,16,32765
1.51551,0.188021,0.198717,17,32765
1.50629,0.181855,0.197247,17,32765
1.50692,0.176903,0.197001,17,32765
1.4878,0.169741,0.194238,16,32765
1.48839,0.164784,0.193995,16,32765
1.52839,0.164113,0.199002,17,32765
1.47963,0.153881,0.192368,17,32765
1.49004,0.149974,0.193373,16,32765
1.50042,0.146004,0.194518,17,32765
1.4812,0.139095,0.191562,17,32765
1.49155,0.135065,0.192704,17,32765
1.48215,0.129236,0.191164,18,32765
1.48259,0.124365,0.190941,18,32765
1.49289,0.120331,0.192095,18,32765
1.47354,0.113906,0.189229,18,32765
1.48381,0.109852,0.190394,18,32765
1.47431,0.104269,0.188762,18,32765
1.48456,0.100059,0.189895,18,32765
1.47503,0.0944829,0.188308,18,32765
1.46548,0.0889677,0.186696,18,32765
1.4757,0.0847562,0.187695,18,32765
1.47601,0.0799273,0.187359,18,32765
1.47627,0.0751802,0.187286,18,32765
1.49635,0.0713955,0.189607,19,32765
1.4867,0.0661136,0.188007,18,32765
1.48693,0.0612936,0.18782,18,32765
1.47727,0.0560404,0.186104,18,32765
1.46756,0.0508881,0.184586,17,32765
1.46776,0.0460939,0.184277,18,32765
1.47788,0.0415111,0.185078,18,32765
1.46813,0.0365052,0.18351,18,32765
1.46828,0.0316805,0.183139,18,32765
1.47835,0.0270597,0.184014,18,32765
1.48837,0.0224356,0.185043,18,32765
1.46864,0.0173356,0.18216,18,32765
1.45882,0.0125421,0.180509,17,32765
1.45891,0.00787037,0.180025,17,32765
1.47885,0.00330814,0.181945,18,32765
1.45906,-0.00137087,0.178963,17,32765
1.46904,-0.00613815,0.179714,18,32765
1.45914,-0.0107741,0.178012,18,32765
1.46911,-0.0155775,0.178537,18,32765
1.43935,-0.019721,0.174305,17,32765
1.61187,0.525428,0.223376,16,32765
1.62299,0.523199,0.224893,16,32765
1.61518,0.514979,0.223791,16,32765
1.63567,0.515905,0.226523,16,32765
1.61838,0.504879,0.223731,16,32765
1.60104,0.493868,0.221091,16,32765
1.61207,0.491594,0.222613,16,32765
1.62318,0.489169,0.223825,16,32765
1.59629,0.475402,0.219654,16,32765
1.62638,0.478599,0.223479,16,32765
1.62794,0.473367,0.223256,16,32765
1.60084,0.45993,0.219458,15,32765
1.63097,0.462842,0.223219,15,32765
1.61344,0.452104,0.220236,16,32765
1.61494,0.446742,0.220218,15,32765
1.59732,0.436143,0.217334,16,32765
1.60832,0.433514,0.218575,16,32765
1.581,0.42061,0.214518,15,32765
1.59198,0.418019,0.215521,16,32765
1.61254,0.417829,0.21802,16,32765
1.58511,0.405184,0.213867,16,32765
1.60568,0.40486,0.216265,17,32765
1.61667,0.402009,0.217201,16,32765
1.59873,0.392028,0.214433,16,32765
1.60969,0.389054,0.215499,16,32765
1.60135,0.381413,0.213999,16,32765
1.58334,0.371542,0.211199,16,32765
1.62327,0.375148,0.215971,16,32765
1.57616,0.358776,0.209532,16,32765
1.6064,0.360091,0.213069,16,32765
1.60763,0.354831,0.212669,16,32765
1.57002,0.341223,0.207365,15,32765
1.58091,0.338071,0.208129,16,32765
1.54325,0.324614,0.202775,16,32765
1.54439,0.319371,0.202405,17,32765
1.56491,0.318157,0.204764,16,32765
1.53678,0.307196,0.200811,16,32765
1.57678,0.309791,0.205434,16,32765
1.56807,0.302758,0.203949,16,32765
1.55935,0.295721,0.202404,16,32765
1.57988,0.294155,0.204556,16,32765
1.59063,0.290747,0.205544,16,32765
1.54282,0.276629,0.198928,16,32765
1.58286,0.278385,0.203591,16,32765
1.55447,0.268065,0.199639,16,32765
1.58474,0.267878,0.203077,17,32765
1.58565,0.262706,0.202768,16,32765
1.59634,0.259012,0.203736,16,32765
1.56784,0.249006,0.199674,16,32765
1.5589,0.242175,0.198173,16,32765
1.54993,0.235456,0.196663,16,32765
1.60962,0.239082,0.203882,16,32765
1.61045,0.233726,0.203493,15,32765
1.58177,0.224275,0.199473,16,32765
1.57271,0.217612,0.198058,16,32765
1.59312,0.215042,0.200299,16,32765
1.53484,0.201983,0.192495,16,32765
1.57491,0.201914,0.19721,16,32765
1.55589,0.194335,0.194544,16,32765
1.53686,0.186826,0.191691,16,32765
1.53749,0.18183,0.191478,17,32765
1.53808,0.176829,0.191426,17,32765
1.54854,0.172845,0.192471,17,32765
1.53929,0.166647,0.190838,17,32765
1.5596,0.163537,0.193133,17,32765
1.5503,0.157323,0.191616,17,32765
1.55081,0.152223,0.191631,17,32765
1.58096,0.149974,0.195101,17,32765
1.54193,0.141227,0.190052,17,32765
1.56218,0.137867,0.192316,18,32765
1.56264,0.132704,0.192249,17,32765
1.5433,0.12588,0.189655,17,32765
1.53383,0.119954,0.18832,17,32765
1.54413,0.115692,0.189425,17,32765
1.54452,0.110631,0.189285,17,32765
1.56469,0.106998,0.191592,17,32765
1.56502,0.101978,0.191602,17,32765
1.55546,0.0962491,0.19024,17,32765
1.52604,0.0894673,0.186547,17,32765
1.54615,0.0855851,0.188905,17,32765
1.55634,0.0811109,0.190111,17,32765
1.55659,0.0760689,0.190096,17,32765
1.53699,0.0700901,0.187725,17,32765
1.56696,0.0663287,0.19138,17,32765
1.53742,0.0599936,0.187754,18,32765
1.54751,0.0553334,0.189092,17,32765
1.53775,0.0499957,0.187984,16,32765
1.52795,0.0447035,0.187002,17,32765
1.54794,0.0402199,0.189388,17,32765
1.53813,0.0348684,0.188246,18,32765
1.51837,0.029501,0.185991,17,32765
1.55813,0.0252021,0.19103,18,32765
1.54826,0.0200128,0.189954,17,32765
1.53836,0.0149414,0.189021,17,32765
1.5483,0.00999012,0.190452,18,32765
1.52843,0.00495458,0.188335,17,32765
1.51848,3.96119e-05,0.187371,16,32765
1.52834,-0.00478469,0.189064,17,32765
1.55805,-0.00982252,0.193097,18,32765
1.53812,-0.01478,0.190985,17,32765
1.52805,-0.0197106,0.190483,18,32765
1.50977,0.492895,0.19405,17,32765
1.53969,0.497099,0.197888,17,32765
1.54125,0.492149,0.198083,18,32765
1.5333,0.484343,0.196976,17,32765
1.53483,0.479534,0.19681,18,32765
1.52688,0.471695,0.195573,17,32765
1.50938,0.460962,0.193344,17,32765
1.5204,0.458872,0.194467,17,32765
1.50289,0.448245,0.191806,17,32765
1.5234,0.448953,0.194143,17,32765
1.5344,0.446819,0.195146,17,32765
1.51673,0.436397,0.192834,17,32765
1.51816,0.431454,0.192686,18,32765
1.52918,0.429111,0.193545,18,32765
1.51147,0.41872,0.191108,17,32765
1.51289,0.413679,0.190845,17,32765
1.52383,0.411323,0.191995,17,32765
1.506,0.401223,0.189433,17,32765
1.52653,0.401396,0.191561,18,32765
1.52783,0.396436,0.191469,18,32765
1.51954,0.388964,0.190015,18,32765
1.5112,0.381567,0.188629,18,32765
1.51248,0.376622,0.188293,17,32765
1.51372,0.371694,0.18812,17,32765
1.52462,0.368999,0.189104,18,32765
1.50655,0.359322,0.186513,17,32765
1.5271,0.358832,0.18869,17,32765
1.51867,0.351447,0.18714,17,32765
1.52951,0.348624,0.188321,18,32765
1.521,0.341401,0.186826,17,32765
1.50277,0.332126,0.184073,17,32765
1.50385,0.327273,0.183901,16,32765
1.49529,0.320179,0.182226,16,32765
1.49638,0.315166,0.181986,17,32765
1.49749,0.310073,0.181627,16,32765
1.53746,0.312978,0.186161,16,32765
1.50929,0.302085,0.182491,17,32765
1.51033,0.297111,0.18205,17,32765
1.50156,0.290282,0.180667,17,32765
1.51231,0.287157,0.18157,16,32765
1.5133,0.282108,0.181208,17,32765
1.49471,0.273551,0.178611,17,32765
1.50544,0.270256,0.179475,18,32765
1.51615,0.266976,0.180282,17,32765
1.49748,0.258547,0.177781,17,32765
1.49837,0.253579,0.177471,17,32765
1.51882,0.25193,0.179494,18,32765
1.50988,0.245268,0.178068,18,32765
1.50092,0.238652,0.176612,18,32765
1.50175,0.233562,0.176368,18,32765
1.49273,0.227022,0.174962,18,32765
1.48368,0.22062,0.17358,18,32765
1.51394,0.219959,0.176663,19,32765
1.48518,0.210806,0.172942,18,32765
1.4859,0.205818,0.172775,18,32765
1.47675,0.199543,0.171414,18,32765
1.507,0.198523,0.174463,18,32765
1.49783,0.192225,0.173113,18,32765
1.47875,0.184883,0.170644,18,32765
1.47939,0.180015,0.170268,18,32765
1.48986,0.176365,0.171197,18,32765
1.49043,0.17151,0.171147,18,32765
1.48114,0.165471,0.169839,18,32765
1.4916,0.161626,0.170577,18,32765
1.48227,0.15556,0.169302,18,32765
1.51248,0.15361,0.172401,19,32765
1.48331,0.145712,0.169035,18,32765
1.4739,0.139923,0.167729,18,32765
1.48426,0.136043,0.16869,18,32765
1.48472,0.13112,0.168525,18,32765
1.48516,0.126204,0.168462,18,32765
1.5054,0.12286,0.170552,18,32765
1.47609,0.115501,0.167071,18,32765
1.49629,0.112163,0.169207,18,32765
1.49667,0.10725,0.169071,18,32765
1.46728,0.100374,0.165599,17,32765
1.46759,0.0956584,0.165609,17,32765
1.47783,0.091466,0.166586,17,32765
1.45829,0.0855068,0.164294,17,32765
1.49825,0.082937,0.168703,17,32765
1.48859,0.0775751,0.16758,17,32765
1.45906,0.0712892,0.164215,17,32765
1.47913,0.0674294,0.166498,16,32765
1.48927,0.0630091,0.167636,16,32765
1.47954,0.0576958,0.166526,17,32765
1.47971,0.0528611,0.166647,16,32765
1.46993,0.0477347,0.165628,17,32765
1.45019,0.0423644,0.163609,16,32765
1.49999,0.0388993,0.169171,18,32765
1.4703,0.0332488,0.165879,17,32765
1.48031,0.0286707,0.167169,17,32765
1.48038,0.0238449,0.167337,17,32765
1.45063,0.0186447,0.1641,17,32765
1.47052,0.0141665,0.166619,17,32765
1.49041,0.00949031,0.169075,17,32765
1.47053,0.0046337,0.167133,18,32765
1.4705,-0.0001033,0.167385,18,32765
1.47045,-0.0047536,0.167835,17,32765
1.50019,-0.00961956,0.171574,18,32765
1.46037,-0.0141992,0.167359,18,32765
1.48011,-0.0192697,0.170343,17,32765
1.62282,0.527974,0.214677,16,32765
1.59634,0.513591,0.209851,16,32765
1.636,0.520325,0.213658,16,32765
1.59046,0.500189,0.206493,16,32765
1.63004,0.506948,0.210656,17,32765
1.61281,0.495916,0.207119,17,32765
1.6335,0.496517,0.208721,16,32765
1.61619,0.485504,0.20544,17,32765
1.59879,0.474654,0.202412,16,32765
1.61947,0.475073,0.203989,16,32765
1.60199,0.464322,0.201068,16,32765
1.62269,0.464577,0.202617,16,32765
1.58607,0.448425,0.197186,16,32765
1.60676,0.448534,0.198853,16,32765
1.57961,0.435261,0.194657,16,32765
1.60985,0.437855,0.197664,16,32765
1.60177,0.43,0.195763,16,32765
1.58404,0.419678,0.192866,16,32765
1.59505,0.417095,0.193508,17,32765
1.60608,0.414442,0.19402,16,32765
1.5786,0.401881,0.190039,16,32765
1.62812,0.408895,0.195285,17,32765
1.60058,0.39643,0.191317,16,32765
1.60194,0.39121,0.190623,16,32765
1.58396,0.381259,0.187919,16,32765
1.64326,0.389762,0.194395,16,32765
1.61555,0.377592,0.190586,16,32765
1.6459,0.378883,0.19355,16,32765
1.6375,0.371261,0.191949,15,32765
1.57088,0.350673,0.183719,15,32765
1.62063,0.356132,0.188747,15,32765
1.58298,0.342404,0.183923,15,32765
1.57446,0.335061,0.182229,15,32765
1.56586,0.327869,0.1808,16,32765
1.6059,0.330739,0.184963,16,32765
1.60702,0.325421,0.184651,16,32765
1.60811,0.320138,0.18435,16,32765
1.57019,0.307167,0.17959,16,32765
1.57126,0.30196,0.17903,16,32765
1.5625,0.294923,0.177847,17,32765
1.55372,0.288005,0.176374,17,32765
1.59379,0.290058,0.180549,17,32765
1.55565,0.277766,0.175765,17,32765
1.55657,0.272629,0.175644,17,32765
1.56731,0.269132,0.176339,17,32765
1.56822,0.263875,0.176261,17,32765
1.55931,0.257037,0.174882,17,32765
1.57,0.253369,0.175811,17,32765
1.56107,0.246527,0.174309,17,32765
1.55208,0.239779,0.173062,17,32765
1.58239,0.239017,0.17608,17,32765
1.56351,0.230879,0.173835,17,32765
1.56432,0.22563,0.173499,17,32765
1.55523,0.219057,0.17227,17,32765
1.57567,0.21666,0.174119,17,32765
1.57642,0.211411,0.173836,17,32765
1.57711,0.206218,0.173754,17,32765
1.54824,0.197176,0.170238,17,32765
1.55876,0.193295,0.171195,17,32765
1.52982,0.184556,0.167558,17,32765
1.53046,0.179477,0.16728,17,32765
1.56068,0.17786,0.170407,17,32765
1.5514,0.171588,0.169156,17,32765
1.56187,0.167547,0.169992,17,32765
1.56244,0.162356,0.169794,16,32765
1.58278,0.15917,0.171707,16,32765
1.55364,0.151041,0.168217,17,32765
1.55418,0.145832,0.167788,16,32765
1.54477,0.139812,0.166522,16,32765
1.57496,0.137273,0.169543,16,32765
1.54571,0.129533,0.166141,16,32765
1.53625,0.123612,0.164767,16,32765
1.53669,0.118467,0.164476,16,32765
1.56684,0.115606,0.167439,16,32765
1.55731,0.109821,0.166244,16,32765
1.52792,0.10275,0.162778,17,32765
1.53819,0.0984614,0.163634,17,32765
1.53854,0.0934285,0.163321,17,32765
1.52895,0.0878394,0.161898,17,32765
1.5491,0.0839232,0.16383,17,32765
1.53947,0.0783401,0.162431,17,32765
1.53974,0.0733854,0.1622,18,32765
1.54995,0.0687888,0.162849,18,32765
1.56014,0.0641062,0.163531,17,32765
1.5405,0.0582115,0.161155,18,32765
1.54072,0.0531069,0.160832,18,32765
1.54093,0.048064,0.160428,17,32765
1.53116,0.0427772,0.159103,18,32765
1.54126,0.0380266,0.159922,17,32765
1.55137,0.033245,0.160471,18,32765
1.54155,0.0280283,0.15914,18,32765
1.51184,0.0226591,0.155661,18,32765
1.54179,0.0181604,0.158256,17,32765
1.5419,0.013296,0.157714,18,32765
1.51211,0.00826028,0.154437,17,32765
1.54204,0.00333681,0.156874,18,32765
1.52219,-0.0016674,0.154424,17,32765
1.53218,-0.00663876,0.154852,17,32765
1.54216,-0.0114504,0.155295,18,32765
1.54218,-0.0162315,0.154662,18,32765
1.54219,-0.0211827,0.153945,18,32765
1.52999,0.498551,0.187042,17,32765
1.53173,0.493576,0.186004,18,32765
1.52402,0.485469,0.183774,17,32765
1.52569,0.480569,0.182825,17,32765
1.52729,0.475734,0.182118,17,32765
1.53842,0.473779,0.182211,18,32765
1.52101,0.463047,0.179185,18,32765
1.51309,0.455239,0.177264,18,32765
1.52414,0.453194,0.177797,17,32765
1.51616,0.445454,0.175905,18,32765
1.5081,0.437783,0.174308,17,32765
1.52872,0.438349,0.175718,17,32765
1.53023,0.433302,0.175078,16,32765
1.52215,0.425569,0.173312,16,32765
1.51406,0.417838,0.171603,16,32765
1.52508,0.415433,0.172184,17,32765
1.53611,0.413002,0.172572,17,32765
1.52791,0.405423,0.17096,17,32765
1.52926,0.400498,0.170455,17,32765
1.52099,0.393078,0.168763,17,32765
1.52231,0.388136,0.168284,17,32765
1.53325,0.385649,0.168834,17,32765
1.53456,0.380648,0.168352,16,32765
1.51655,0.370909,0.165578,17,32765
1.51781,0.365881,0.165186,18,32765
1.51906,0.360837,0.164817,17,32765
1.53964,0.360381,0.166556,18,32765
1.51181,0.348528,0.162991,17,32765
1.513,0.343535,0.162563,17,32765
1.51416,0.338504,0.162293,17,32765
1.52505,0.335616,0.162729,18,32765
1.4873,0.322173,0.158298,18,32765
1.50788,0.321353,0.159825,18,32765
1.51869,0.318449,0.160561,18,32765
1.51002,0.311437,0.159222,18,32765
1.51107,0.306428,0.158929,18,32765
1.5121,0.30145,0.158646,17,32765
1.51313,0.29642,0.158365,18,32765
1.50439,0.289513,0.156807,18,32765
1.5249,0.288227,0.158773,19,32765
1.50631,0.279602,0.156387,18,32765
1.49745,0.272899,0.155125,18,32765
1.49839,0.267907,0.154784,18,32765
1.47968,0.259512,0.152646,18,32765
1.50999,0.259638,0.155284,18,32765
1.51086,0.254564,0.155208,18,32765
1.4921,0.246283,0.152927,18,32765
1.51258,0.244423,0.154775,18,32765
1.52327,0.24087,0.155386,18,32765
1.48475,0.229673,0.151231,17,32765
1.51505,0.229137,0.153979,17,32765
1.49612,0.221206,0.151925,18,32765
1.51659,0.219019,0.153598,18,32765
1.49761,0.211203,0.15147,18,32765
1.49833,0.206277,0.151154,18,32765
1.48918,0.199953,0.149892,17,32765
1.4997,0.196329,0.150807,18,32765
1.51025,0.192564,0.151547,18,32765
1.50101,0.186349,0.150434,18,32765
1.51154,0.182557,0.151042,18,32765
1.50228,0.17637,0.149782,18,32765
1.49298,0.17033,0.14869,17,32765
1.47377,0.163177,0.146556,17,32765
1.46443,0.157259,0.145346,18,32765
1.49466,0.155473,0.148103,18,32765
1.51499,0.152505,0.149838,18,32765
1.50561,0.146515,0.148597,18,32765
1.48631,0.139596,0.146231,18,32765
1.48679,0.134687,0.146041,19,32765
1.49716,0.130607,0.146843,18,32765
1.45793,0.12228,0.142761,17,32765
1.46828,0.118237,0.143437,18,32765
1.47862,0.114077,0.144126,17,32765
1.48893,0.109936,0.144883,18,32765
1.46944,0.103694,0.142825,17,32765
1.4698,0.0989018,0.142546,18,32765
1.48006,0.0947924,0.143316,18,32765
1.49033,0.0905446,0.143974,18,32765
1.47077,0.0845321,0.141699,18,32765
1.49094,0.0807985,0.14345,18,32765
1.48129,0.0753967,0.142159,17,32765
1.4716,0.0701466,0.140983,17,32765
1.45197,0.0644406,0.138706,18,32765
1.50194,0.0617062,0.143108,18,32765
1.48226,0.055994,0.140931,18,32765
1.45262,0.0500451,0.137788,18,32765
1.44286,0.044972,0.136467,18,32765
1.46293,0.0408288,0.138071,18,32765
1.48298,0.0365372,0.139744,18,32765
1.46323,0.031297,0.137413,18,32765
1.46335,0.0265387,0.137126,18,32765
1.45351,0.0217094,0.13581,17,32765
1.48348,0.0173882,0.138141,17,32765
1.44375,0.0123586,0.133925,16,32765
1.46372,0.00789527,0.135556,16,32765
1.47374,0.00307923,0.135893,15,32765
1.47378,-0.00173272,0.135481,15,32765
1.46386,-0.00646861,0.13401,15,32765
1.49376,-0.0112276,0.1362,15,32765
1.52365,-0.016184,0.1383,16,32765
1.49378,-0.0206707,0.134893,16,32765
1.59823,0.522046,0.170962,16,32765
1.6283,0.526074,0.17405,16,32765
1.62049,0.517805,0.173182,16,32765
1.60318,0.506572,0.171167,15,32765
1.61432,0.504295,0.172237,16,32765
1.62547,0.501957,0.173125,16,32765
1.60803,0.49095,0.171154,16,32765
1.60958,0.485849,0.171145,16,32765
1.59211,0.474973,0.16876,16,32765
1.60321,0.472567,0.169688,16,32765
1.61431,0.470027,0.170779,16,32765
1.59676,0.459254,0.168319,16,32765
1.60784,0.456735,0.169256,16,32765
1.59017,0.446126,0.167125,16,32765
1.63959,0.45421,0.171855,16,32765
1.60267,0.438378,0.167803,16,32765
1.62335,0.438347,0.1694,16,32765
1.57674,0.420135,0.16424,16,32765
1.59741,0.419914,0.165946,16,32765
1.60845,0.417075,0.166844,17,32765
1.55203,0.396908,0.160568,16,32765
1.57261,0.396773,0.162426,16,32765
1.58358,0.39406,0.163038,16,32765
1.62352,0.398431,0.166816,17,32765
1.57649,0.381448,0.16151,16,32765
1.59713,0.38083,0.163222,17,32765
1.57903,0.370969,0.161076,16,32765
1.58999,0.367931,0.161769,16,32765
1.58153,0.360432,0.160459,16,32765
1.57302,0.353011,0.159304,16,32765
1.57424,0.347776,0.158836,16,32765
1.59484,0.346846,0.160569,17,32765
1.55709,0.333212,0.156312,17,32765
1.58742,0.334228,0.159045,17,32765
1.55931,0.322939,0.155783,16,32765
1.57991,0.321682,0.157483,17,32765
1.57124,0.314438,0.156279,17,32765
1.58211,0.311003,0.156842,16,32765
1.59296,0.307585,0.157416,17,32765
1.57443,0.2986,0.155227,16,32765
1.58522,0.295182,0.156024,16,32765
1.59601,0.29182,0.156508,16,32765
1.58721,0.284763,0.15512,16,32765
1.59798,0.28126,0.155693,16,32765
1.5597,0.269193,0.151604,16,32765
1.5508,0.262303,0.15037,16,32765
1.53204,0.253909,0.148249,17,32765
1.56239,0.253577,0.150771,16,32765
1.54358,0.245221,0.148713,16,32765
1.58378,0.246154,0.152133,17,32765
1.52556,0.231868,0.146283,16,32765
1.56573,0.232597,0.149932,17,32765
1.5764,0.228806,0.150403,16,32765
1.55745,0.220856,0.148199,18,32765
1.57792,0.218397,0.149852,17,32765
1.55893,0.210469,0.147763,18,32765
1.56953,0.206545,0.148406,18,32765
1.5505,0.198731,0.146116,18,32765
1.56104,0.194863,0.146925,17,32765
1.5518,0.188564,0.145838,18,32765
1.54255,0.182324,0.144611,17,32765
1.55305,0.17843,0.145219,18,32765
1.54376,0.172175,0.144081,18,32765
1.56414,0.169214,0.145685,17,32765
1.5548,0.162985,0.144638,18,32765
1.54546,0.156814,0.143429,18,32765
1.55588,0.152672,0.14434,18,32765
1.55639,0.147497,0.144198,17,32765
1.53704,0.140595,0.142227,17,32765
1.53753,0.135505,0.141897,17,32765
1.53798,0.130448,0.141768,17,32765
1.54833,0.126274,0.14254,18,32765
1.53883,0.120373,0.141442,17,32765
1.53921,0.115371,0.14145,17,32765
1.54953,0.111032,0.142222,18,32765
1.55984,0.106588,0.142959,18,32765
1.57012,0.102146,0.14389,17,32765
1.54063,0.095154,0.141104,17,32765
1.55087,0.0907254,0.141981,18,32765
1.55117,0.0856321,0.141958,18,32765
1.56138,0.0810325,0.142872,17,32765
1.5318,0.0744906,0.140116,17,32765
1.54198,0.069904,0.141092,18,32765
1.53226,0.0644584,0.140091,17,32765
1.53246,0.0594469,0.140117,17,32765
1.55254,0.0551936,0.142026,17,32765
1.54274,0.0498593,0.141259,17,32765
1.54288,0.0448156,0.141414,17,32765
1.55298,0.0400016,0.142284,17,32765
1.54313,0.0346788,0.141567,17,32765
1.55317,0.0297971,0.142694,17,32765
1.5632,0.0249045,0.143799,17,32765
1.55332,0.0196817,0.142907,17,32765
1.56329,0.01474,0.144213,16,32765
1.53345,0.00950901,0.141558,17,32765
1.5434,0.00454953,0.142809,16,32765
1.54336,-0.000395856,0.143285,16,32765
1.55329,-0.00546374,0.144398,16,32765
1.56318,-0.0105025,0.14577,16,32765
1.54319,-0.0153216,0.144328,16,32765
1.55303,-0.0204452,0.145878,17,32765
1.54264,0.50477,0.14961,17,32765
1.50635,0.487527,0.145987,18,32765
1.53636,0.491776,0.148878,18,32765
1.53794,0.4868,0.148887,18,32765
1.50151,0.469866,0.145264,17,32765
1.51256,0.467894,0.146066,18,32765
1.52357,0.46596,0.147036,18,32765
1.50598,0.455355,0.145189,17,32765
1.5361,0.459045,0.147598,18,32765
1.5185,0.44836,0.145686,18,32765
1.5391,0.448886,0.147595,17,32765
1.52146,0.438336,0.145343,18,32765
1.5229,0.433335,0.145275,18,32765
1.52431,0.428368,0.145164,18,32765
1.51614,0.420714,0.143969,18,32765
1.5079,0.413142,0.143027,17,32765
1.51889,0.410823,0.143552,17,32765
1.52988,0.408326,0.144316,17,32765
1.49275,0.393049,0.140407,17,32765
1.51334,0.393061,0.142123,16,32765
1.51468,0.387993,0.141848,16,32765
1.52559,0.385541,0.142618,16,32765
1.49788,0.373342,0.139547,17,32765
1.53778,0.378003,0.14296,17,32765
1.51,0.365953,0.139935,17,32765
1.53061,0.365557,0.141469,17,32765
1.52213,0.358178,0.140413,16,32765
1.52335,0.353076,0.140129,17,32765
1.50513,0.343568,0.138036,17,32765
1.53543,0.345122,0.140541,18,32765
1.53661,0.340002,0.140083,18,32765
1.49881,0.326476,0.136323,18,32765
1.5194,0.325657,0.137761,18,32765
1.51074,0.318581,0.136688,18,32765
1.4923,0.309544,0.134604,18,32765
1.51287,0.308512,0.136126,19,32765
1.49439,0.29952,0.134149,18,32765
1.51498,0.298266,0.135512,18,32765
1.49645,0.289394,0.133393,18,32765
1.50721,0.286287,0.134018,18,32765
1.47879,0.275782,0.131251,18,32765
1.50912,0.276349,0.133405,18,32765
1.51006,0.27133,0.132998,18,32765
1.51098,0.266345,0.132634,18,32765
1.50206,0.259632,0.131514,18,32765
1.51277,0.25625,0.1321,18,32765
1.49398,0.247965,0.130172,18,32765
1.50466,0.244565,0.130712,19,32765
1.46613,0.233254,0.12714,18,32765
1.49647,0.23292,0.129351,19,32765
1.49726,0.227892,0.129174,18,32765
1.48817,0.221389,0.128204,18,32765
1.4988,0.21785,0.128604,18,32765
1.49953,0.21294,0.128292,18,32765
1.49038,0.206567,0.127237,18,32765
1.49108,0.201585,0.12703,18,32765
1.48189,0.195278,0.125913,18,32765
1.49246,0.19155,0.126346,18,32765
1.50298,0.187866,0.127065,18,32765
1.49371,0.181745,0.126077,18,32765
1.48443,0.175683,0.124955,18,32765
1.49492,0.171972,0.125481,18,32765
1.46579,0.163686,0.122786,17,32765
1.50597,0.163125,0.12587,17,32765
1.48669,0.156036,0.124095,16,32765
1.48723,0.151088,0.123818,16,32765
1.4778,0.145182,0.122984,15,32765
1.47829,0.140257,0.122848,15,32765
1.52837,0.13996,0.126838,15,32765
1.47922,0.130509,0.122403,14,32765
1.50944,0.128164,0.12474,14,32765
1.49993,0.122454,0.123781,15,32765
1.45066,0.11359,0.119509,15,32765
1.50071,0.112593,0.123609,16,32765
1.47126,0.105521,0.12102,15,32765
1.52134,0.104048,0.124937,16,32765
1.51172,0.0984281,0.124141,16,32765
1.50209,0.092845,0.123271,15,32765
1.49244,0.0873684,0.122423,17,32765
1.48277,0.0819079,0.121584,17,32765
1.48303,0.0770084,0.121589,17,32765
1.48328,0.072164,0.121563,16,32765
1.46359,0.0663735,0.119994,16,32765
1.47376,0.062012,0.120723,16,32765
1.45404,0.05641,0.119117,16,32765
1.47413,0.052402,0.120833,16,32765
1.47428,0.0476334,0.12097,17,32765
1.47441,0.0428043,0.121118,17,32765
1.46459,0.0376934,0.120261,17,32765
1.46469,0.0328753,0.120445,17,32765
1.4847,0.0284329,0.122288,17,32765
1.43495,0.0228033,0.118359,16,32765
1.46491,0.0184933,0.120847,17,32765
1.45496,0.0136416,0.120389,17,32765
1.45499,0.00893656,0.120484,17,32765
1.47492,0.00425123,0.122452,17,32765
1.45496,-0.000477488,0.121246,16,32765
1.44497,-0.00519533,0.120591,17,32765
1.45487,-0.00989728,0.121838,17,32765
1.44484,-0.0144758,0.121392,17,32765
1.47463,-0.0195559,0.124492,18,32765
1.61839,0.527585,0.162994,17,32765
1.61074,0.519247,0.160907,16,32765
1.6315,0.520108,0.161493,17,32765
1.63324,0.514894,0.160617,16,32765
1.62547,0.506696,0.15879,16,32765
1.6272,0.501379,0.157892,17,32765
1.60987,0.490271,0.155099,17,32765
1.64015,0.493659,0.156894,16,32765
1.57499,0.468491,0.149784,16,32765
1.58611,0.4662,0.15001,16,32765
1.63554,0.474841,0.153688,17,32765
1.60843,0.461249,0.150322,16,32765
1.60041,0.453285,0.148745,17,32765
1.60193,0.448095,0.148078,16,32765
1.61302,0.445575,0.148382,16,32765
1.61456,0.440281,0.147449,16,32765
1.62565,0.437609,0.147886,16,32765
1.62714,0.432268,0.147211,16,32765
1.61897,0.424352,0.145815,15,32765
1.63007,0.421512,0.145939,15,32765
1.63151,0.416103,0.145404,16,32765
1.60391,0.403499,0.142344,15,32765
1.57625,0.391099,0.139176,16,32765
1.59692,0.390685,0.140343,16,32765
1.56917,0.378486,0.137355,16,32765
1.58016,0.375587,0.137554,16,32765
1.5426,0.36134,0.133898,16,32765
1.57295,0.362962,0.136019,16,32765
1.60334,0.364375,0.137935,16,32765
1.54621,0.346031,0.132654,16,32765
1.59607,0.351595,0.136192,17,32765
1.607,0.348421,0.136609,17,32765
1.59844,0.341011,0.135316,17,32765
1.57033,0.329512,0.132648,16,32765
1.60073,0.330363,0.134609,17,32765
1.57255,0.319031,0.131893,17,32765
1.57364,0.313818,0.131485,17,32765
1.56491,0.30671,0.130326,17,32765
1.53659,0.295835,0.127596,17,32765
1.54737,0.292603,0.128165,17,32765
1.57777,0.292877,0.130218,16,32765
1.56894,0.285902,0.129201,17,32765
1.58952,0.284177,0.130685,16,32765
1.55122,0.272008,0.126951,17,32765
1.57178,0.270257,0.128299,17,32765
1.55304,0.261682,0.126434,18,32765
1.5736,0.259828,0.127538,17,32765
1.56464,0.253006,0.126463,17,32765
1.55563,0.24626,0.125563,17,32765
1.5466,0.239572,0.124592,17,32765
1.53758,0.232824,0.12346,17,32765
1.56796,0.231969,0.125628,17,32765
1.54903,0.223822,0.123785,17,32765
1.54977,0.218573,0.123806,16,32765
1.58014,0.217512,0.125894,16,32765
1.56112,0.209579,0.123964,15,32765
1.58158,0.207008,0.125462,15,32765
1.60205,0.204339,0.126813,14,32765
1.60273,0.199052,0.126627,14,32765
1.62321,0.196141,0.127763,14,32765
1.62387,0.19072,0.127624,14,32765
1.6047,0.183052,0.125848,14,32765
1.52603,0.168997,0.119457,14,32765
1.52659,0.163918,0.119333,14,32765
1.51723,0.157836,0.118373,14,32765
1.49793,0.15078,0.116536,15,32765
1.50838,0.146718,0.116932,15,32765
1.52873,0.143521,0.118319,16,32765
1.50936,0.136572,0.116496,16,32765
1.50982,0.13159,0.11629,16,32765
1.54007,0.129096,0.118352,17,32765
1.57034,0.126449,0.120234,17,32765
1.53098,0.118286,0.117091,16,32765
1.53138,0.113265,0.116879,17,32765
1.53175,0.108276,0.116647,16,32765
1.53214,0.103196,0.116141,16,32765
1.5524,0.0994029,0.117379,16,32765
1.55274,0.0942801,0.117133,17,32765
1.55306,0.0891051,0.116908,16,32765
1.55337,0.0840306,0.116547,17,32765
1.5437,0.0784391,0.115518,17,32765
1.53401,0.0729152,0.114478,17,32765
1.53425,0.0679354,0.114247,16,32765
1.54445,0.0633957,0.11469,17,32765
1.53471,0.0580165,0.113617,17,32765
1.53491,0.0529678,0.113359,17,32765
1.51518,0.047284,0.111372,17,32765
1.52531,0.0425835,0.111814,17,32765
1.52548,0.0375979,0.111353,18,32765
1.52561,0.03268,0.111142,17,32765
1.53571,0.0279356,0.111458,18,32765
1.54579,0.023137,0.1118,18,32765
1.53592,0.0180227,0.110565,18,32765
1.52601,0.0129824,0.109633,18,32765
1.53605,0.00813554,0.109892,18,32765
1.50619,0.00313501,0.107187,18,32765
1.52617,-0.00171852,0.10822,17,32765
1.51622,-0.00653754,0.106916,18,32765
1.51623,-0.011391,0.106407,19,32765
1.51623,-0.0163141,0.10572,18,32765
1.53616,-0.021474,0.106512,18,32765
1.56267,0.510337,0.141798,17,32765
1.53599,0.496039,0.138138,17,32765
1.5282,0.488051,0.13606,17,32765
1.53933,0.486158,0.136079,17,32765
1.53144,0.478243,0.134397,16,32765
1.53308,0.473223,0.133551,16,32765
1.53469,0.468213,0.132648,17,32765
1.56491,0.471856,0.134205,16,32765
1.52828,0.455411,0.130228,17,32765
1.52024,0.447637,0.12876,17,32765
1.56007,0.453735,0.131197,17,32765
1.52328,0.437607,0.127343,17,32765
1.52476,0.432626,0.126692,18,32765
1.52621,0.427671,0.126056,17,32765
1.51802,0.420074,0.124714,17,32765
1.50023,0.409827,0.122268,18,32765
1.51122,0.407525,0.122641,17,32765
1.50297,0.399986,0.121237,17,32765
1.52361,0.400061,0.122297,18,32765
1.49602,0.387529,0.119291,17,32765
1.507,0.385024,0.119566,17,32765
1.50829,0.380107,0.119115,17,32765
1.50956,0.375206,0.118545,17,32765
1.51082,0.370264,0.118033,17,32765
1.51205,0.365344,0.117612,18,32765
1.5133,0.36032,0.11699,18,32765
1.50478,0.353093,0.115966,17,32765
1.49626,0.345863,0.114832,17,32765
1.50717,0.343108,0.11501,18,32765
1.51804,0.340311,0.115492,18,32765
1.49,0.328793,0.112679,17,32765
1.5106,0.328081,0.113763,17,32765
1.49221,0.318892,0.11186,17,32765
1.52257,0.320034,0.113867,17,32765
1.48459,0.306913,0.110472,16,32765
1.49541,0.303892,0.110958,16,32765
1.49644,0.298925,0.110569,16,32765
1.50723,0.2959,0.110962,16,32765
1.51802,0.292749,0.111399,16,32765
1.5288,0.289573,0.111877,16,32765
1.50037,0.278972,0.109363,16,32765
1.52092,0.27761,0.11059,16,32765
1.52185,0.272527,0.110465,16,32765
1.52278,0.267459,0.109967,17,32765
1.52368,0.262414,0.109716,17,32765
1.51473,0.255643,0.108752,17,32765
1.53528,0.253912,0.109681,17,32765
1.52629,0.247203,0.108706,17,32765
1.4877,0.235884,0.1058,17,32765
1.48849,0.230938,0.105631,17,32765
1.47943,0.224374,0.104605,18,32765
1.49994,0.222254,0.105802,17,32765
1.49082,0.21575,0.104853,17,32765
1.48167,0.209293,0.104178,17,32765
1.50214,0.207095,0.105303,18,32765
1.47319,0.198077,0.102888,17,32765
1.47384,0.1932,0.102821,17,32765
1.46458,0.187087,0.101933,17,32765
1.50481,0.18717,0.104514,17,32765
1.48564,0.179784,0.102747,18,32765
1.47633,0.173648,0.101935,17,32765
1.467,0.167589,0.10105,17,32765
1.48739,0.164955,0.102244,18,32765
1.48794,0.159995,0.102123,17,32765
1.47855,0.154029,0.101261,17,32765
1.46915,0.148089,0.100297,17,32765
1.45974,0.142182,0.0992559,17,32765
1.45028,0.13634,0.0984367,17,32765
1.45075,0.131443,0.0981615,17,32765
1.45119,0.126645,0.0979634,18,32765
1.47151,0.123506,0.0990825,19,32765
1.47193,0.118674,0.0986996,17,32765
1.43252,0.110815,0.0959387,18,32765
1.44284,0.106844,0.0964048,18,32765
1.4432,0.102134,0.0961863,18,32765
1.4336,0.0966676,0.0950499,18,32765
1.46381,0.0938315,0.0967747,17,32765
1.4442,0.0877808,0.0952293,18,32765
1.45447,0.0835303,0.0956754,19,32765
1.47468,0.0798477,0.0966427,18,32765
1.43509,0.0729832,0.0937689,19,32765
1.45527,0.0692273,0.0947916,19,32765
1.43557,0.0636105,0.093277,18,32765
1.43578,0.0589711,0.0929992,18,32765
1.4659,0.055443,0.0946182,18,32765
1.46609,0.0506113,0.0943718,17,32765
1.45631,0.0454561,0.0932354,17,32765
1.43652,0.0401044,0.0916844,17,32765
1.45662,0.0358917,0.0925171,18,32765
1.44677,0.030973,0.0916841,18,32765
1.44688,0.0262928,0.0912968,18,32765
1.437,0.021473,0.090313,18,32765
1.4371,0.0168186,0.0898319,18,32765
1.45712,0.0123421,0.0908752,18,32765
1.4472,0.00760221,0.0898222,18,32765
1.42728,0.00290028,0.088048,18,32765
1.44727,-0.00171006,0.0889128,19,32765
1.44729,-0.00632942,0.088343,19,32765
1.44729,-0.010971,0.0878574,19,32765
1.43731,-0.0155709,0.086601,19,32765
1.44727,-0.0203469,0.0866378,19,32765
1.59256,0.521286,0.119993,16,32765
1.61318,0.522362,0.121654,17,32765
1.60533,0.514173,0.120963,16,32765
1.60697,0.50901,0.121119,17,32765
1.58958,0.497804,0.119627,16,32765
1.60075,0.495504,0.120303,16,32765
1.631,0.499016,0.122185,16,32765
1.61348,0.488052,0.120785,16,32765
1.61506,0.482844,0.120633,17,32765
1.59747,0.471995,0.119178,16,32765
1.58947,0.463919,0.118146,17,32765
1.6006,0.461407,0.118638,16,32765
1.61172,0.458882,0.119082,17,32765
1.55559,0.437448,0.1148,16,32765
1.60508,0.445675,0.118278,17,32765
1.61618,0.442998,0.118812,17,32765
1.60804,0.435029,0.117738,17,32765
1.61913,0.432268,0.118191,17,32765
1.60126,0.421878,0.116532,17,32765
1.59297,0.414159,0.115778,16,32765
1.63301,0.418828,0.118119,17,32765
1.56669,0.39637,0.112978,16,32765
1.59703,0.398516,0.114827,16,32765
1.57897,0.388519,0.113198,15,32765
1.58026,0.383314,0.11296,16,32765
1.58155,0.378013,0.112694,16,32765
1.60227,0.377257,0.113646,15,32765
1.63269,0.378657,0.115447,16,32765
1.65342,0.377607,0.116619,16,32765
1.6255,0.36554,0.11419,15,32765
1.63648,0.362227,0.114552,15,32765
1.57921,0.344019,0.110191,14,32765
1.62916,0.349181,0.11321,14,32765
1.61082,0.33961,0.1115,14,32765
1.62171,0.336284,0.112045,14,32765
1.56421,0.318877,0.107599,15,32765
1.5555,0.311672,0.106607,15,32765
1.5174,0.298783,0.103574,16,32765
1.53799,0.297549,0.104599,15,32765
1.57819,0.299947,0.107043,16,32765
1.51056,0.28182,0.10196,17,32765
1.5704,0.287576,0.105546,16,32765
1.55174,0.27875,0.103931,16,32765
1.5625,0.275308,0.104362,16,32765
1.53394,0.264992,0.102026,16,32765
1.54467,0.261494,0.102491,16,32765
1.56525,0.259589,0.103409,16,32765
1.53658,0.249575,0.101171,17,32765
1.54729,0.245962,0.101542,16,32765
1.54811,0.240853,0.101279,16,32765
1.54892,0.23568,0.101045,16,32765
1.57932,0.234992,0.102595,16,32765
1.57024,0.228273,0.101636,17,32765
1.55126,0.220207,0.0999495,16,32765
1.54213,0.2136,0.0990737,16,32765
1.55276,0.209721,0.0993018,16,32765
1.54357,0.203261,0.0984425,16,32765
1.54425,0.198156,0.0981458,17,32765
1.5251,0.190654,0.0965646,17,32765
1.52572,0.185636,0.0965267,17,32765
1.52636,0.180494,0.0961578,17,32765
1.55672,0.178811,0.0977919,18,32765
1.51765,0.169186,0.0949362,18,32765
1.53806,0.166328,0.0960262,18,32765
1.53859,0.161293,0.0959913,18,32765
1.52922,0.155179,0.0949634,18,32765
1.51979,0.149186,0.0942604,18,32765
1.55009,0.147001,0.0959248,18,32765
1.5307,0.140066,0.0945783,18,32765
1.53116,0.135069,0.0944194,18,32765
1.54155,0.130805,0.0949031,18,32765
1.54198,0.125711,0.0948693,18,32765
1.55234,0.1214,0.0954,18,32765
1.5229,0.113977,0.0932666,18,32765
1.54316,0.110473,0.0945688,18,32765
1.54354,0.105351,0.0942756,18,32765
1.59367,0.103534,0.0974373,17,32765
1.53424,0.0946426,0.0936141,17,32765
1.55447,0.0907702,0.094841,17,32765
1.53482,0.0845777,0.0935953,17,32765
1.51516,0.078506,0.0923607,17,32765
1.53534,0.0745433,0.0936079,17,32765
1.51564,0.068655,0.0923378,17,32765
1.5358,0.0645456,0.0935199,17,32765
1.53599,0.0595854,0.0936794,17,32765
1.52621,0.0540938,0.0930402,17,32765
1.52639,0.0490159,0.0929174,17,32765
1.51654,0.0437301,0.0926849,17,32765
1.52666,0.03905,0.0932502,17,32765
1.52676,0.0341132,0.0934851,17,32765
1.5069,0.0287474,0.0923856,17,32765
1.54689,0.0244307,0.0950318,18,32765
1.52699,0.0190972,0.0939272,18,32765
1.49709,0.0138688,0.0923266,18,32765
1.52706,0.00928149,0.0943697,17,32765
1.52706,0.00440876,0.0946669,18,32765
1.5071,-0.000555001,0.0934873,18,32765
1.51704,-0.00549768,0.0947099,18,32765
1.50701,-0.0103662,0.0944348,17,32765
1.52689,-0.0154595,0.0962798,17,32765
1.50685,-0.0201607,0.0954454,17,32765
1.52688,0.500775,0.0998683,18,32765
1.52845,0.495905,0.100088,17,32765
1.53003,0.491019,0.100111,17,32765
1.50305,0.47703,0.0983905,17,32765
1.52365,0.478091,0.0995791,17,32765
1.49663,0.464179,0.0976735,16,32765
1.51724,0.465117,0.0986702,17,32765
1.50917,0.457386,0.0980761,16,32765
1.53933,0.461097,0.0997927,16,32765
1.5121,0.447634,0.0979062,16,32765
1.51359,0.442625,0.0976031,15,32765
1.49589,0.432052,0.0961609,15,32765
1.52611,0.435343,0.0977582,16,32765
1.53713,0.433086,0.0983434,16,32765
1.52894,0.425344,0.0976662,15,32765
1.53035,0.420272,0.0975,16,32765
1.51249,0.40996,0.0959286,17,32765
1.5235,0.407511,0.0963018,16,32765
1.49589,0.394865,0.0942378,16,32765
1.51649,0.395021,0.0954028,16,32765
1.50815,0.387533,0.0943646,17,32765
1.49975,0.380147,0.093522,17,32765
1.52036,0.380097,0.0944967,17,32765
1.51192,0.372719,0.0936668,17,32765
1.51316,0.367725,0.0934388,17,32765
1.50469,0.360314,0.0925865,17,32765
1.50593,0.355234,0.0921803,17,32765
1.50712,0.350183,0.0919352,17,32765
1.51804,0.34733,0.0923421,18,32765
1.50947,0.340075,0.0914051,17,32765
1.50088,0.332825,0.0905196,17,32765
1.502,0.327801,0.0902626,17,32765
1.47383,0.316469,0.0881588,17,32765
1.49444,0.31565,0.0889971,17,32765
1.47594,0.306614,0.0877144,17,32765
1.50633,0.307637,0.0890756,18,32765
1.49758,0.300611,0.0881884,18,32765
1.4888,0.293683,0.087268,18,32765
1.48979,0.288743,0.0869659,18,32765
1.50055,0.285705,0.0873276,18,32765
1.47209,0.275136,0.0851966,18,32765
1.5123,0.277432,0.0870955,18,32765
1.48377,0.267015,0.0851164,18,32765
1.47483,0.260323,0.0843383,18,32765
1.47571,0.255386,0.0839847,19,32765
1.46673,0.248738,0.0832455,18,32765
1.47743,0.245455,0.0834379,18,32765
1.47825,0.240524,0.0831613,18,32765
1.46921,0.23396,0.0823434,18,32765
1.47986,0.230636,0.0826439,18,32765
1.46089,0.222672,0.0813214,17,32765
1.47151,0.21933,0.0815158,17,32765
1.49202,0.217275,0.0823073,17,32765
1.48287,0.21086,0.0813721,17,32765
1.48359,0.205843,0.0811417,17,32765
1.4843,0.200816,0.0807525,18,32765
1.50477,0.198488,0.0816078,17,32765
1.46582,0.188409,0.0791784,17,32765
1.46644,0.183628,0.0788677,17,32765
1.45713,0.177585,0.0782983,17,32765
1.47758,0.175014,0.0790063,18,32765
1.48809,0.171209,0.0793078,18,32765
1.46882,0.16401,0.0778977,17,32765
1.43958,0.15593,0.0761772,18,32765
1.47981,0.155379,0.0782449,18,32765
1.45053,0.147429,0.0762817,18,32765
1.45101,0.14266,0.076199,18,32765
1.45149,0.137864,0.0760268,17,32765
1.46189,0.133976,0.0764359,18,32765
1.49217,0.13183,0.0778408,18,32765
1.44285,0.122614,0.0751249,19,32765
1.45321,0.11865,0.075611,19,32765
1.45359,0.113843,0.0755347,18,32765
1.45398,0.108975,0.0752493,18,32765
1.46428,0.104974,0.0758434,18,32765
1.45468,0.0994225,0.075051,19,32765
1.44502,0.0940028,0.0746462,18,32765
1.43536,0.0886589,0.073973,18,32765
1.47553,0.0862693,0.0760382,18,32765
1.45586,0.0803237,0.0749823,18,32765
1.45612,0.0755345,0.0749639,18,32765
1.45635,0.0707861,0.0749942,19,32765
1.46656,0.0665004,0.0754552,18,32765
