x, y, z, intensity, ring
2.91524,0.000851012,-0.380781,18,32765
2.85578,-0.00860765,-0.372616,17,32765
2.9451,-0.0187559,-0.383289,18,32765
2.88561,-0.0281068,-0.374903,18,32765
2.89556,-0.0380144,-0.375051,17,32765
5.48891,1.85095,-0.65934,17,32765
5.31527,1.77329,-0.64264,17,32765
5.09414,1.68128,-0.618922,18,32765
4.92921,1.60884,-0.602432,17,32765
4.8395,1.56208,-0.594582,17,32765
4.70232,1.5007,-0.580521,16,32765
4.73526,1.49416,-0.587172,18,32765
4.57865,1.4282,-0.570176,17,32765
4.48811,1.38369,-0.561423,17,32765
4.42588,1.34858,-0.55542,14,32765
4.45862,1.34217,-0.561604,17,32765
4.32959,1.28744,-0.547431,17,32765
4.3337,1.27251,-0.549813,16,32765
4.22337,1.22431,-0.537659,16,32765
4.18909,1.19901,-0.534782,16,32765
4.17372,1.17928,-0.535052,16,32765
4.09141,1.14109,-0.525972,16,32765
4.02798,1.10887,-0.519537,16,32765
3.90701,1.06145,-0.504997,15,32765
3.90069,1.04583,-0.505693,15,32765
3.77932,0.999579,-0.491069,16,32765
3.76319,0.981917,-0.490532,17,32765
3.64133,0.937323,-0.475616,15,32765
3.67316,0.932348,-0.480665,16,32765
3.6568,0.915203,-0.479841,16,32765
3.59231,0.885854,-0.472724,15,32765
3.54697,0.861725,-0.467832,17,32765
3.54978,0.849518,-0.468826,17,32765
3.49459,0.823654,-0.462444,17,32765
3.42956,0.79609,-0.454839,16,32765
3.49014,0.797546,-0.463586,17,32765
3.40558,0.766039,-0.453409,16,32765
3.44679,0.763013,-0.459401,16,32765
3.38143,0.73634,-0.451458,17,32765
3.345,0.71645,-0.447433,18,32765
3.31823,0.698566,-0.444696,17,32765
3.32052,0.687067,-0.445495,16,32765
3.245,0.659829,-0.436141,17,32765
3.3638,0.671926,-0.4527,17,32765
3.2979,0.647023,-0.444234,18,32765
3.23183,0.622595,-0.435927,17,32765
3.16561,0.598693,-0.427757,16,32765
3.13831,0.582526,-0.424386,17,32765
3.1597,0.575323,-0.427681,16,32765
3.09325,0.552221,-0.419263,17,32765
3.05599,0.534707,-0.414598,17,32765
3.06749,0.525836,-0.416622,17,32765
3.06917,0.515469,-0.417206,17,32765
3.02197,0.496932,-0.41093,17,32765
3.05294,0.491281,-0.415416,17,32765
3.01543,0.474336,-0.410581,17,32765
2.9974,0.46075,-0.408502,17,32765
2.93032,0.440097,-0.399583,16,32765
2.8925,0.424397,-0.394787,16,32765
2.96253,0.424416,-0.404604,17,32765
2.89523,0.404621,-0.395525,16,32765
2.93582,0.399877,-0.401479,16,32765
2.87821,0.381823,-0.393743,16,32765
2.86959,0.3706,-0.393046,15,32765
2.89045,0.3633,-0.396096,16,32765
2.88178,0.352297,-0.395134,16,32765
2.9026,0.344835,-0.398137,17,32765
2.82492,0.325938,-0.387935,16,32765
2.82598,0.31624,-0.388228,16,32765
2.85653,0.309767,-0.392815,17,32765
2.80824,0.294734,-0.386539,16,32765
2.79935,0.284053,-0.385452,16,32765
2.81014,0.27548,-0.386974,16,32765
2.77151,0.26216,-0.382199,16,32765
2.7526,0.25103,-0.379868,15,32765
2.75333,0.241698,-0.380567,16,32765
2.71457,0.229031,-0.375737,16,32765
2.72518,0.220717,-0.377162,16,32765
2.75548,0.213745,-0.381767,16,32765
2.73636,0.202939,-0.379563,16,32765
2.6777,0.18945,-0.371647,15,32765
2.69802,0.181674,-0.374962,16,32765
2.71834,0.173893,-0.377994,16,32765
2.67928,0.162397,-0.373101,15,32765
2.67975,0.15346,-0.373514,16,32765
2.62082,0.141291,-0.365861,15,32765
2.6113,0.131909,-0.36513,15,32765
2.63146,0.124038,-0.368258,15,32765
2.63179,0.11511,-0.368836,15,32765
2.5727,0.103843,-0.361151,15,32765
2.57294,0.0951844,-0.361818,15,32765
2.60283,0.0875127,-0.366747,15,32765
2.58322,0.0782674,-0.364601,15,32765
2.54381,0.068583,-0.359487,15,32765
2.58354,0.0611001,-0.365618,15,32765
2.5143,0.0509062,-0.356785,15,32765
2.54409,0.0428935,-0.361495,15,32765
2.54413,0.0343345,-0.362102,15,32765
2.5045,0.0254528,-0.357398,15,32765
2.47475,0.0170624,-0.354002,15,32765
2.4648,0.00888517,-0.353252,15,32765
2.45477,0.000767642,-0.352827,15,32765
2.46453,-0.00743158,-0.355157,14,32765
2.48414,-0.0158427,-0.359024,14,32765
2.48391,-0.0241498,-0.36018,14,32765
2.48366,-0.0323458,-0.361224,14,32765
3.76048,1.27241,-0.489628,17,32765
3.75478,1.25694,-0.491791,18,32765
3.77734,1.25093,-0.49695,19,32765
3.63964,1.19199,-0.481423,19,32765
3.60544,1.16773,-0.479188,19,32765
3.63731,1.16478,-0.485554,21,32765
3.59353,1.13778,-0.481639,22,32765
3.455,1.08139,-0.464871,18,32765
3.47722,1.07571,-0.469786,19,32765
3.40466,1.04096,-0.461323,19,32765
3.29399,0.994986,-0.447834,18,32765
3.28758,0.980948,-0.448514,18,32765
3.18609,0.938753,-0.436009,18,32765
3.19861,0.930437,-0.439092,19,32765
3.07769,0.883934,-0.423559,19,32765
3.08043,0.873371,-0.42556,19,32765
3.09273,0.865535,-0.428346,20,32765
3.03808,0.83925,-0.422052,19,32765
3.01205,0.821141,-0.419232,19,32765
3.00501,0.808477,-0.419393,19,32765
2.94053,0.780427,-0.411236,18,32765
2.89499,0.758003,-0.406045,19,32765
2.90693,0.75088,-0.408471,18,32765
2.90931,0.741033,-0.409492,19,32765
2.89238,0.726412,-0.40813,19,32765
2.7793,0.68776,-0.393194,18,32765
2.76225,0.673428,-0.391601,17,32765
2.79335,0.670833,-0.396479,18,32765
2.76658,0.654354,-0.393378,18,32765
2.74935,0.640437,-0.391711,17,32765
2.67419,0.613238,-0.38153,18,32765
2.66645,0.601896,-0.381236,18,32765
2.67807,0.594935,-0.383272,17,32765
2.65096,0.579315,-0.379978,18,32765
2.65281,0.570207,-0.380892,18,32765
2.60622,0.550621,-0.374849,18,32765
2.63712,0.547601,-0.379667,18,32765
2.60976,0.532555,-0.376339,17,32765
2.58237,0.517677,-0.372827,18,32765
2.59377,0.510701,-0.374775,18,32765
2.59541,0.501786,-0.375472,18,32765
2.54835,0.48369,-0.369264,17,32765
2.55964,0.476831,-0.371147,18,32765
2.55145,0.466255,-0.370269,18,32765
2.54321,0.455675,-0.369534,17,32765
2.56419,0.450291,-0.372892,17,32765
2.50712,0.431346,-0.364959,16,32765
2.52802,0.426138,-0.368281,17,32765
2.50012,0.412632,-0.364321,17,32765
2.50147,0.404023,-0.364729,16,32765
2.43439,0.384355,-0.355154,17,32765
2.45522,0.378811,-0.358489,16,32765
2.43689,0.367357,-0.355988,17,32765
2.45764,0.361946,-0.359316,16,32765
2.4588,0.353579,-0.35969,17,32765
2.44037,0.342344,-0.357078,17,32765
2.41206,0.329788,-0.353262,17,32765
2.41316,0.321355,-0.353532,16,32765
2.42399,0.314256,-0.355517,16,32765
2.42501,0.305978,-0.355818,16,32765
2.41617,0.296526,-0.354702,15,32765
2.41713,0.288285,-0.354958,16,32765
2.40818,0.278952,-0.354023,16,32765
2.38943,0.268451,-0.351383,16,32765
2.40011,0.261315,-0.353274,15,32765
2.35173,0.247819,-0.346452,16,32765
2.3427,0.238686,-0.345228,15,32765
2.37302,0.233586,-0.34972,16,32765
2.37372,0.225466,-0.350284,16,32765
2.34487,0.214744,-0.346255,16,32765
2.35535,0.20764,-0.348309,16,32765
2.29681,0.194619,-0.340096,15,32765
2.32703,0.189291,-0.344525,16,32765
2.26842,0.176741,-0.336184,16,32765
2.29854,0.171234,-0.341016,15,32765
2.2892,0.162702,-0.339815,16,32765
2.28967,0.154894,-0.340301,16,32765
2.28027,0.14656,-0.339074,15,32765
2.29055,0.139506,-0.34106,16,32765
2.26133,0.130139,-0.336999,15,32765
2.28142,0.123617,-0.34048,15,32765
2.26199,0.11486,-0.338095,15,32765
2.31171,0.109552,-0.345795,15,32765
2.22307,0.0977752,-0.332985,16,32765
2.1739,0.0882547,-0.326121,15,32765
2.2334,0.0831237,-0.335596,15,32765
2.2138,0.0749073,-0.333268,15,32765
2.16454,0.0660251,-0.326368,15,32765
2.22399,0.0603942,-0.335724,15,32765
2.18457,0.0520695,-0.330209,15,32765
2.14507,0.0438072,-0.325063,16,32765
2.21434,0.037701,-0.335981,15,32765
2.14517,0.029285,-0.325993,16,32765
2.16491,0.0223187,-0.329804,16,32765
2.1352,0.015014,-0.326012,15,32765
2.12527,0.0079323,-0.325078,15,32765
2.14492,0.000924125,-0.328971,15,32765
2.1349,-0.00620585,-0.328241,14,32765
2.12485,-0.0133412,-0.327589,14,32765
2.10488,-0.0202766,-0.325521,15,32765
2.13431,-0.0276255,-0.331004,14,32765
0,0,-0,0,32765
2.91182,0.977265,-0.419849,17,32765
2.91487,0.967779,-0.42066,17,32765
2.93672,0.964233,-0.424654,17,32765
2.91154,0.945212,-0.421465,16,32765
2.86739,0.920238,-0.415723,17,32765
2.85144,0.904555,-0.414113,16,32765
2.80708,0.880152,-0.408082,16,32765
2.78151,0.861959,-0.404749,16,32765
2.76533,0.846863,-0.402717,16,32765
2.78705,0.843195,-0.406173,16,32765
2.74237,0.819466,-0.399981,16,32765
2.74504,0.810077,-0.40078,16,32765
2.7287,0.795141,-0.398572,16,32765
2.77883,0.79963,-0.406329,16,32765
2.71479,0.771183,-0.397125,16,32765
2.6696,0.748565,-0.391037,16,32765
2.70067,0.747416,-0.395777,16,32765
2.68399,0.733024,-0.393693,15,32765
2.65767,0.716212,-0.390162,16,32765
2.70786,0.719723,-0.398018,16,32765
2.70062,0.707934,-0.397349,16,32765
2.61671,0.676294,-0.38515,15,32765
2.63813,0.672218,-0.388464,15,32765
2.6403,0.663279,-0.389076,15,32765
2.57519,0.637634,-0.37977,15,32765
2.58685,0.631268,-0.381867,15,32765
2.56965,0.617857,-0.379521,15,32765
2.63908,0.625016,-0.390152,15,32765
2.57365,0.600106,-0.380911,15,32765
2.55636,0.586579,-0.378726,15,32765
2.53903,0.573108,-0.376543,15,32765
2.50231,0.555577,-0.371308,15,32765
2.53313,0.553202,-0.376311,15,32765
2.53494,0.5445,-0.376835,15,32765
2.48828,0.525572,-0.370323,16,32765
2.48998,0.517009,-0.370965,15,32765
2.47223,0.504522,-0.368849,15,32765
2.49329,0.499877,-0.372226,16,32765
2.46576,0.485545,-0.368605,15,32765
2.45763,0.475079,-0.367797,16,32765
2.49805,0.473869,-0.374315,15,32765
2.46068,0.457938,-0.369117,15,32765
2.50108,0.456476,-0.375647,15,32765
2.46358,0.440896,-0.370497,15,32765
2.39681,0.420406,-0.360792,14,32765
2.42737,0.417125,-0.366004,15,32765
2.41895,0.407188,-0.365064,15,32765
2.41046,0.397249,-0.364386,15,32765
2.46055,0.396941,-0.372201,15,32765
2.4325,0.383808,-0.368399,14,32765
2.34576,0.361792,-0.355708,15,32765
2.37624,0.357963,-0.360899,15,32765
2.39696,0.352482,-0.364493,14,32765
2.36873,0.339988,-0.360433,14,32765
2.36002,0.330396,-0.359533,14,32765
2.36103,0.322207,-0.36031,15,32765
2.33266,0.310222,-0.356167,14,32765
2.37285,0.307337,-0.362692,14,32765
2.3542,0.296827,-0.36008,15,32765
2.28641,0.28041,-0.350168,14,32765
2.29712,0.27378,-0.35194,14,32765
2.31759,0.268302,-0.355514,14,32765
2.28895,0.257025,-0.351458,15,32765
2.28975,0.249233,-0.351884,14,32765
2.28069,0.240309,-0.35084,14,32765
2.27161,0.231456,-0.349712,14,32765
2.2625,0.222689,-0.348556,14,32765
2.24351,0.213157,-0.345854,14,32765
2.27373,0.20829,-0.350515,15,32765
2.25468,0.198792,-0.347868,14,32765
2.26508,0.191937,-0.350104,14,32765
2.21645,0.180272,-0.342564,14,32765
2.25643,0.175841,-0.348837,14,32765
2.26687,0.168921,-0.350402,14,32765
2.23781,0.159166,-0.346071,14,32765
2.20871,0.149527,-0.341789,14,32765
2.22888,0.143331,-0.345163,15,32765
2.23923,0.136387,-0.346614,14,32765
2.24954,0.12937,-0.348173,14,32765
2.2598,0.122394,-0.349919,14,32765
2.19109,0.111229,-0.339316,15,32765
2.23094,0.105764,-0.345453,14,32765
2.1523,0.0948391,-0.333177,14,32765
2.21185,0.0900566,-0.342333,15,32765
2.15291,0.0804634,-0.333017,14,32765
2.23219,0.075855,-0.345207,14,32765
2.27195,0.0695175,-0.351286,14,32765
2.2524,0.0614012,-0.348303,14,32765
2.19336,0.0524313,-0.338866,14,32765
2.19356,0.04504,-0.338601,14,32765
2.20361,0.0378143,-0.33998,14,32765
2.2334,0.0308727,-0.344338,14,32765
2.19401,0.0231721,-0.337926,14,32765
2.20403,0.0160197,-0.338977,14,32765
2.20413,0.00884411,-0.338557,13,32765
2.21409,0.00144707,-0.339688,13,32765
2.2537,-0.00599687,-0.345231,13,32765
2.21422,-0.0132933,-0.338633,13,32765
2.23406,-0.0208219,-0.340826,13,32765
2.31319,-0.0291807,-0.351988,13,32765
0,0,-0,0,32765
2.46618,0.830659,-0.380602,17,32765
2.39368,0.797578,-0.369694,16,32765
2.35858,0.777179,-0.364926,16,32765
2.41751,0.787636,-0.374395,16,32765
2.35411,0.758211,-0.365085,16,32765
2.33767,0.744227,-0.363089,16,32765
2.34949,0.739313,-0.365247,16,32765
2.31407,0.719673,-0.360038,16,32765
2.26911,0.697387,-0.353285,16,32765
2.36602,0.718381,-0.3686,16,32765
2.29259,0.687519,-0.357406,15,32765
2.3138,0.685263,-0.361036,16,32765
2.28759,0.668991,-0.357074,16,32765
2.28023,0.658508,-0.356262,16,32765
2.29191,0.653395,-0.358202,16,32765
2.25594,0.634846,-0.353002,16,32765
2.25802,0.627155,-0.353464,16,32765
2.26005,0.619461,-0.354067,16,32765
2.23341,0.604045,-0.350153,16,32765
2.26404,0.60393,-0.355345,16,32765
2.27557,0.598663,-0.357468,16,32765
2.25843,0.585801,-0.354883,16,32765
2.21247,0.565793,-0.347779,16,32765
2.22389,0.56069,-0.349803,16,32765
2.2353,0.555478,-0.351831,16,32765
2.19867,0.538486,-0.346371,16,32765
2.16199,0.521723,-0.340737,16,32765
2.14445,0.509717,-0.338264,15,32765
2.13649,0.499985,-0.337352,15,32765
2.19595,0.505716,-0.347046,16,32765
2.1591,0.48913,-0.341534,16,32765
2.18969,0.487944,-0.34654,15,32765
2.20093,0.482415,-0.348679,15,32765
2.08659,0.44984,-0.330761,15,32765
2.10737,0.446753,-0.3344,16,32765
2.1475,0.447542,-0.341092,16,32765
2.10052,0.43025,-0.334066,16,32765
2.11162,0.424925,-0.336017,16,32765
2.10328,0.415706,-0.335095,15,32765
2.07554,0.402712,-0.331008,15,32765
2.11566,0.40283,-0.337792,15,32765
2.06841,0.386378,-0.330573,15,32765
2.05022,0.375594,-0.32804,15,32765
2.08058,0.373755,-0.333294,15,32765
2.06233,0.363106,-0.33065,16,32765
2.06347,0.355937,-0.331342,15,32765
2.02565,0.342281,-0.325535,15,32765
2.0462,0.338508,-0.329341,15,32765
2.02779,0.328382,-0.326567,15,32765
2.01907,0.319803,-0.32552,15,32765
2.04937,0.317302,-0.330786,15,32765
1.99179,0.301215,-0.32196,15,32765
2.06113,0.304282,-0.333545,15,32765
2.02302,0.291508,-0.327568,15,32765
1.98483,0.278969,-0.321735,15,32765
2.00525,0.274741,-0.325565,15,32765
1.94742,0.260022,-0.316323,14,32765
1.95801,0.254626,-0.318359,15,32765
1.90984,0.241775,-0.310714,15,32765
1.91058,0.235271,-0.311208,14,32765
1.94074,0.232253,-0.316224,14,32765
1.93163,0.224544,-0.3151,14,32765
1.93233,0.217883,-0.315492,14,32765
1.90357,0.208068,-0.311043,14,32765
1.91402,0.202529,-0.313038,14,32765
1.86557,0.190896,-0.305328,15,32765
1.94474,0.192239,-0.318492,14,32765
1.84708,0.176258,-0.302678,15,32765
1.89679,0.174526,-0.310821,14,32765
1.8875,0.167161,-0.309536,14,32765
1.81913,0.154846,-0.298827,14,32765
1.81963,0.148676,-0.298887,14,32765
1.82994,0.143268,-0.300651,15,32765
1.88946,0.141462,-0.310385,14,32765
1.81115,0.129438,-0.297647,14,32765
1.83123,0.124578,-0.301125,14,32765
1.84145,0.119008,-0.303011,14,32765
1.832,0.112152,-0.301328,14,32765
1.83237,0.105929,-0.301355,14,32765
1.80312,0.0981826,-0.29667,14,32765
1.81329,0.0925571,-0.298369,15,32765
1.80373,0.0859969,-0.296766,14,32765
1.84344,0.0817074,-0.303212,14,32765
1.84371,0.0755265,-0.303201,14,32765
1.81439,0.0682447,-0.298215,15,32765
1.82448,0.0624167,-0.29981,14,32765
1.83455,0.0565339,-0.301407,14,32765
1.77553,0.048771,-0.291741,14,32765
1.83491,0.0442257,-0.301239,14,32765
1.80549,0.0374102,-0.296163,14,32765
1.77602,0.0307916,-0.291189,14,32765
1.79588,0.0251248,-0.294252,14,32765
1.84534,0.0197795,-0.302069,14,32765
1.90467,0.0141238,-0.311354,14,32765
1.88502,0.00782198,-0.307769,13,32765
1.81601,0.00141712,-0.296172,13,32765
1.92464,-0.0048968,-0.313432,13,32765
0,-0,-0,0,32765
1.85566,-0.0171167,-0.301037,13,32765
0,-0,-0,0,32765
1.70336,1.25661,0.376823,16,32765
1.76313,1.29186,0.388425,17,32765
1.71171,1.24564,0.375418,16,32765
1.67613,1.21108,0.365875,16,32765
1.69633,1.21703,0.368362,15,32765
1.68452,1.19996,0.363966,17,32765
1.66453,1.17733,0.357977,15,32765
1.70893,1.2001,0.365678,17,32765
0,0,0,0,32765
1.73347,1.19994,0.367159,16,32765
1.7132,1.17761,0.360933,16,32765
1.63578,1.11657,0.342907,16,32765
1.65583,1.12235,0.345598,16,32765
1.71692,1.15545,0.356513,17,32765
1.70448,1.13893,0.352134,16,32765
1.67551,1.11155,0.344566,16,32765
1.63816,1.07896,0.335199,16,32765
1.60881,1.05213,0.327461,16,32765
0,0,0,0,32765
1.67393,1.07903,0.337732,16,32765
1.61952,1.03631,0.325144,16,32765
1.66466,1.05744,0.332758,17,32765
1.67658,1.05729,0.333631,17,32765
1.68853,1.05709,0.334423,17,32765
1.6251,1.00999,0.320273,17,32765
1.62013,0.999486,0.317959,18,32765
1.59832,0.978687,0.31233,17,32765
1.62692,0.988819,0.316662,17,32765
1.65574,0.998683,0.320578,19,32765
1.64217,0.983144,0.316691,18,32765
1.67099,0.992884,0.320724,19,32765
1.61488,0.952315,0.308628,16,32765
1.62659,0.952074,0.309599,18,32765
1.62127,0.941815,0.307365,17,32765
1.64154,0.946409,0.309936,18,32765
1.67044,0.955773,0.314059,19,32765
1.63939,0.930779,0.30685,18,32765
1.59952,0.901165,0.298378,18,32765
1.66292,0.92963,0.308834,20,32765
1.64877,0.914635,0.305097,17,32765
1.6519,0.909241,0.304286,16,32765
1.62036,0.884818,0.297349,16,32765
1.59735,0.865271,0.292193,17,32765
1.62646,0.873931,0.296287,17,32765
1.59455,0.850029,0.289444,16,32765
1.66717,0.881822,0.301697,18,32765
1.62639,0.853505,0.293241,18,32765
1.61172,0.83913,0.289529,17,32765
1.60581,0.829243,0.287429,18,32765
1.59105,0.814901,0.283871,18,32765
1.63795,0.831884,0.290999,19,32765
1.60558,0.808563,0.284157,18,32765
1.61718,0.807579,0.28539,18,32765
1.62883,0.806492,0.286515,19,32765
1.5961,0.783708,0.279776,18,32765
1.59877,0.778452,0.279202,18,32765
1.58362,0.764578,0.275646,19,32765
1.5951,0.763643,0.276796,17,32765
1.62449,0.771078,0.280827,19,32765
1.59134,0.748919,0.274174,17,32765
1.59389,0.743664,0.273662,18,32765
1.59642,0.738373,0.273218,16,32765
1.57198,0.72077,0.268107,16,32765
1.59244,0.723727,0.270675,17,32765
1.55886,0.702224,0.26407,17,32765
1.59736,0.713188,0.269612,17,32765
1.59078,0.703855,0.267571,17,32765
1.5841,0.694663,0.265629,18,32765
1.55026,0.673636,0.25887,18,32765
1.58886,0.684104,0.264607,17,32765
1.56393,0.667206,0.259525,19,32765
1.58442,0.669731,0.262083,19,32765
1.58672,0.664501,0.261471,19,32765
1.59816,0.663027,0.262264,19,32765
1.5821,0.650247,0.258915,20,32765
1.56602,0.637601,0.255242,19,32765
1.5865,0.639901,0.257799,19,32765
1.56109,0.62376,0.252808,19,32765
1.58163,0.625933,0.255071,19,32765
1.57453,0.617217,0.253005,19,32765
1.57662,0.612053,0.252486,20,32765
1.59717,0.61397,0.254905,21,32765
1.58077,0.601788,0.251261,18,32765
1.74018,0.655925,0.275554,13,32765
1.53848,0.574207,0.242847,12,32765
1.5961,0.589786,0.251007,17,32765
1.58884,0.58116,0.248853,21,32765
1.59077,0.576043,0.248444,21,32765
1.57413,0.564165,0.244797,19,32765
1.58532,0.5625,0.245654,18,32765
1.58723,0.55741,0.244923,18,32765
1.61716,0.562087,0.248476,19,32765
1.58162,0.54406,0.242051,19,32765
1.55536,0.529391,0.237054,19,32765
1.56648,0.527672,0.237896,19,32765
1.57767,0.525803,0.238526,19,32765
1.58881,0.523983,0.239248,21,32765
1.5623,0.509906,0.234115,20,32765
1.59228,0.514159,0.237434,21,32765
1.58456,0.506224,0.235202,20,32765
1.60516,0.507295,0.236881,21,32765
0,0,0,0,32765
0,0,0,0,32765
0,0,0,0,32765
1.63026,1.17925,0.336485,16,32765
1.6744,1.20264,0.343747,17,32765
1.65448,1.17987,0.337907,17,32765
1.66659,1.18009,0.338757,17,32765
1.67877,1.18021,0.339463,17,32765
1.67484,1.16893,0.336807,17,32765
1.67074,1.15778,0.334301,17,32765
1.69094,1.16357,0.336481,18,32765
1.64596,1.12474,0.325848,18,32765
1.64972,1.11942,0.325129,17,32765
1.62901,1.09747,0.319349,17,32765
1.63275,1.09217,0.318406,17,32765
1.63647,1.08682,0.317627,17,32765
1.66493,1.09776,0.321478,18,32765
1.66864,1.09241,0.320441,17,32765
1.60611,1.04389,0.307086,16,32765
1.59304,1.02797,0.303164,17,32765
1.60491,1.02803,0.303865,16,32765
1.61673,1.02807,0.304737,16,32765
1.62856,1.02807,0.305539,17,32765
1.59857,1.00181,0.29845,17,32765
1.61035,1.00186,0.299114,18,32765
1.60534,0.991376,0.296899,18,32765
1.58347,0.970582,0.291555,18,32765
1.58675,0.965383,0.290969,18,32765
1.63243,0.985619,0.297716,19,32765
1.60185,0.959965,0.290944,18,32765
1.61363,0.959759,0.291649,18,32765
1.60839,0.949431,0.289416,18,32765
1.63715,0.959205,0.293352,18,32765
1.60621,0.933986,0.286632,19,32765
1.60935,0.928761,0.285981,18,32765
1.62107,0.928429,0.286803,18,32765
1.59847,0.908429,0.281502,18,32765
1.61875,0.912877,0.284084,20,32765
1.59599,0.893069,0.278808,20,32765
1.60763,0.89266,0.279792,19,32765
1.61068,0.887392,0.279001,20,32765
1.6224,0.886764,0.279934,19,32765
1.60805,0.871884,0.276552,19,32765
1.6285,0.875845,0.27887,20,32765
1.614,0.861196,0.275376,19,32765
1.62558,0.86061,0.276474,20,32765
1.61969,0.850763,0.274431,20,32765
1.58744,0.82724,0.267947,19,32765
1.60785,0.831037,0.27038,19,32765
1.57547,0.807637,0.264057,18,32765
1.56949,0.797818,0.261898,17,32765
1.60761,0.8103,0.267198,18,32765
1.61038,0.804886,0.266871,19,32765
1.60431,0.795038,0.264975,19,32765
1.58925,0.781015,0.261539,18,32765
1.6008,0.780106,0.262425,19,32765
1.59454,0.770502,0.26051,19,32765
1.58821,0.760981,0.258658,20,32765
1.60869,0.764211,0.260962,19,32765
1.60232,0.754709,0.259027,19,32765
1.60489,0.749408,0.258511,20,32765
1.59846,0.739915,0.256622,19,32765
1.58298,0.726398,0.253228,19,32765
1.58546,0.721132,0.252735,19,32765
1.5789,0.711812,0.250804,19,32765
1.58133,0.706583,0.250245,18,32765
1.61092,0.713317,0.254011,19,32765
1.59519,0.700064,0.250731,19,32765
1.56132,0.678959,0.244341,19,32765
1.57271,0.677662,0.245446,19,32765
1.56593,0.668559,0.24348,19,32765
1.60468,0.678798,0.248676,20,32765
1.58875,0.66584,0.245238,19,32765
1.59106,0.660561,0.244531,19,32765
1.57497,0.647781,0.24137,18,32765
1.57719,0.642608,0.240685,19,32765
1.57016,0.633758,0.238862,19,32765
1.57228,0.62867,0.238337,18,32765
1.56523,0.619873,0.23624,19,32765
1.55809,0.611195,0.234273,20,32765
1.57863,0.613248,0.236525,20,32765
1.58996,0.611609,0.237377,21,32765
1.5365,0.585323,0.228418,21,32765
1.55703,0.587277,0.230556,20,32765
1.55899,0.582241,0.230089,21,32765
1.57955,0.584042,0.232216,20,32765
1.57225,0.575455,0.230163,19,32765
1.58347,0.573759,0.231117,22,32765
1.5668,0.561884,0.227661,22,32765
1.56865,0.556926,0.227075,22,32765
1.57054,0.551881,0.226351,22,32765
1.55368,0.540347,0.222918,21,32765
1.55549,0.535391,0.222248,21,32765
1.5667,0.53356,0.222882,22,32765
1.56845,0.528639,0.222295,22,32765
1.56084,0.52049,0.220177,22,32765
1.57196,0.518721,0.220813,22,32765
1.57367,0.513903,0.219921,22,32765
1.57539,0.508986,0.219018,22,32765
1.57707,0.504109,0.218195,22,32765
1.55987,0.493249,0.214493,22,32765
1.66117,1.22509,0.328274,16,32765
1.68105,1.2314,0.331364,16,32765
1.68507,1.22596,0.331145,16,32765
1.72918,1.24938,0.338502,17,32765
1.71728,1.23214,0.335229,17,32765
0,0,0,0,32765
1.69321,1.19802,0.328284,17,32765
1.73753,1.22096,0.335777,16,32765
1.69291,1.1815,0.325904,16,32765
1.67248,1.15912,0.320711,16,32765
1.67634,1.15368,0.320193,16,32765
1.63941,1.12029,0.312068,16,32765
1.69222,1.1482,0.320789,17,32765
1.68792,1.13708,0.31872,17,32765
1.62607,1.08754,0.305833,17,32765
1.65446,1.09858,0.309849,16,32765
1.69107,1.115,0.315523,17,32765
1.63694,1.07158,0.304226,16,32765
1.65708,1.07702,0.306785,17,32765
1.62754,1.0501,0.300014,16,32765
1.64776,1.05538,0.302441,16,32765
1.62624,1.03412,0.297388,16,32765
1.64644,1.03936,0.299766,18,32765
1.5913,0.997258,0.2885,16,32765
1.66181,1.0338,0.300061,16,32765
1.6233,1.00229,0.291938,17,32765
1.63513,1.00207,0.29296,17,32765
1.66389,1.01206,0.296799,17,32765
1.67579,1.01174,0.297518,17,32765
1.64529,0.985915,0.290863,16,32765
1.58058,0.940131,0.278449,16,32765
1.62631,0.960072,0.285419,17,32765
1.62964,0.954654,0.284649,18,32765
1.64997,0.95918,0.287183,18,32765
1.64474,0.948719,0.2849,17,32765
1.65653,0.948258,0.285714,19,32765
1.62526,0.92339,0.279253,18,32765
1.61114,0.908355,0.27571,18,32765
1.61422,0.903082,0.275041,17,32765
1.64333,0.91203,0.278709,19,32765
1.64647,0.906504,0.278208,18,32765
1.64086,0.89636,0.276098,18,32765
1.62655,0.881451,0.272565,19,32765
1.62954,0.876137,0.271805,18,32765
1.58018,0.842759,0.262461,17,32765
1.62681,0.860638,0.269027,17,32765
1.59468,0.836934,0.262561,17,32765
1.65895,0.863686,0.272091,17,32765
1.60028,0.826541,0.261387,16,32765
1.5591,0.798691,0.253405,16,32765
1.58828,0.80697,0.25723,16,32765
1.5999,0.806081,0.258174,18,32765
1.52301,0.760852,0.24486,17,32765
1.56999,0.777717,0.251347,18,32765
1.60827,0.789857,0.256311,19,32765
1.61987,0.788832,0.2572,19,32765
1.62256,0.783523,0.25652,19,32765
1.62515,0.778249,0.256183,19,32765
1.58305,0.75173,0.248504,20,32765
1.60349,0.754967,0.250871,19,32765
1.59707,0.74552,0.248926,19,32765
1.58161,0.731954,0.245648,18,32765
1.60213,0.734995,0.247726,19,32765
1.55954,0.709216,0.240336,18,32765
1.61613,0.728478,0.248075,19,32765
1.60051,0.715066,0.244853,19,32765
1.55762,0.689757,0.237606,18,32765
1.58717,0.696534,0.241332,19,32765
1.59859,0.695292,0.242239,18,32765
1.601,0.689957,0.241558,19,32765
1.6033,0.684671,0.241332,18,32765
1.63298,0.691015,0.244871,17,32765
1.65355,0.693291,0.2474,17,32765
1.58265,0.657554,0.236066,17,32765
1.54826,0.637254,0.229995,17,32765
1.55952,0.635991,0.231138,19,32765
1.58916,0.642086,0.234972,19,32765
1.5637,0.625856,0.230559,18,32765
1.58419,0.628079,0.232908,19,32765
1.60472,0.630155,0.235294,22,32765
1.57911,0.614121,0.230991,19,32765
1.59962,0.61613,0.233462,19,32765
1.56465,0.596757,0.227707,19,32765
1.60367,0.605707,0.232912,20,32765
1.56856,0.586553,0.227343,19,32765
1.57977,0.584932,0.228441,19,32765
1.53515,0.562799,0.221544,15,32765
1.58359,0.574687,0.227983,21,32765
1.61347,0.579592,0.2317,21,32765
1.60604,0.570982,0.230243,22,32765
1.56115,0.549324,0.223483,20,32765
1.6003,0.557468,0.228809,21,32765
1.60207,0.552409,0.22875,21,32765
1.61317,0.550573,0.230098,21,32765
1.58679,0.535865,0.225958,21,32765
1.57912,0.527553,0.224663,21,32765
1.59025,0.525563,0.225829,20,32765
1.61074,0.526617,0.228682,20,32765
1.57465,0.50935,0.223491,20,32765
1.58566,0.507392,0.225056,21,32765
1.5683,0.496447,0.222659,21,32765
1.6946,1.25146,0.314745,17,32765
1.66675,1.22258,0.308782,17,32765
1.67873,1.223,0.310041,17,32765
1.66678,1.20591,0.306615,17,32765
1.64669,1.18307,0.302059,17,32765
1.65068,1.1776,0.301682,17,32765
1.69492,1.20081,0.308745,17,32765
1.66648,1.17256,0.302553,17,32765
1.6703,1.16725,0.302056,17,32765
1.64167,1.13925,0.295685,16,32765
1.64546,1.13389,0.295175,18,32765
1.65742,1.13405,0.296279,18,32765
1.66123,1.12861,0.295694,18,32765
1.60764,1.08438,0.285003,18,32765
1.66064,1.11207,0.293207,18,32765
1.65618,1.1011,0.291135,18,32765
1.63503,1.0794,0.286314,18,32765
1.61382,1.05776,0.281459,17,32765
1.63393,1.06329,0.283838,17,32765
1.61262,1.04176,0.278886,17,32765
1.61617,1.03642,0.278262,16,32765
1.66135,1.05774,0.284953,18,32765
1.65655,1.04701,0.282844,18,32765
1.63491,1.02583,0.277927,18,32765
1.62997,1.01521,0.275925,17,32765
1.62503,1.00456,0.273956,18,32765
1.61156,0.988801,0.270633,18,32765
1.58958,0.968005,0.265721,18,32765
1.61827,0.978173,0.2692,18,32765
1.6046,0.962664,0.265753,17,32765
1.6163,0.962505,0.266729,17,32765
1.59397,0.942072,0.262012,19,32765
1.63139,0.956789,0.266845,20,32765
1.60896,0.936417,0.262217,19,32765
1.60364,0.926071,0.260047,20,32765
1.59818,0.915897,0.258009,19,32765
1.57537,0.896061,0.253325,18,32765
1.61289,0.910368,0.258273,18,32765
1.59869,0.8954,0.254847,18,32765
1.6278,0.904422,0.258242,18,32765
1.62224,0.894157,0.256374,19,32765
1.58181,0.86506,0.248896,18,32765
1.61091,0.873938,0.252392,19,32765
1.60515,0.863969,0.250279,19,32765
1.61687,0.863266,0.251002,19,32765
1.61984,0.857878,0.25032,20,32765
1.6052,0.843364,0.246928,19,32765
1.59047,0.828924,0.243684,19,32765
1.59324,0.82378,0.24306,20,32765
1.58726,0.813984,0.240901,20,32765
1.59886,0.813204,0.241766,20,32765
1.61051,0.812279,0.242612,21,32765
1.61333,0.806817,0.242107,20,32765
1.58949,0.788189,0.237477,20,32765
1.57446,0.774053,0.234122,19,32765
1.61275,0.78617,0.238888,20,32765
1.62435,0.78519,0.239527,21,32765
1.59119,0.762759,0.233931,19,32765
1.57585,0.749065,0.230665,18,32765
1.58733,0.748108,0.231538,19,32765
1.59884,0.74709,0.232302,19,32765
1.58337,0.733491,0.229209,19,32765
1.58588,0.728259,0.228503,19,32765
1.54322,0.702481,0.221584,17,32765
1.59081,0.717761,0.227476,18,32765
1.60229,0.716551,0.228317,19,32765
1.57749,0.699223,0.224113,19,32765
1.57078,0.689995,0.22241,20,32765
1.59128,0.692765,0.224512,19,32765
1.58457,0.683517,0.222554,19,32765
1.61422,0.689971,0.226163,20,32765
1.57088,0.665347,0.219222,20,32765
1.58224,0.663996,0.220297,20,32765
1.54779,0.643653,0.214814,20,32765
1.55917,0.64232,0.215467,22,32765
1.56127,0.637272,0.215248,22,32765
1.57255,0.635937,0.216272,21,32765
1.59308,0.638174,0.218456,20,32765
1.5491,0.614695,0.211787,20,32765
1.5696,0.616892,0.213992,21,32765
1.57165,0.611737,0.213748,21,32765
1.57366,0.606639,0.21352,21,32765
1.55715,0.594391,0.210653,21,32765
1.58693,0.599876,0.214232,21,32765
1.53317,0.573785,0.206535,16,32765
0,0,0,0,32765
1.55553,0.57072,0.208614,15,32765
1.55742,0.565631,0.208344,21,32765
1.56863,0.563918,0.209294,22,32765
1.57049,0.558766,0.209178,22,32765
1.5723,0.553661,0.20911,21,32765
1.54593,0.538923,0.20535,21,32765
1.56639,0.540501,0.207782,22,32765
1.57747,0.538774,0.209035,23,32765
1.59802,0.540038,0.211396,22,32765
1.56213,0.522237,0.206464,22,32765
1.57325,0.520298,0.207538,23,32765
1.57489,0.515238,0.207713,23,32765
1.56705,0.50722,0.206627,22,32765
1.57806,0.505283,0.208097,22,32765
1.55123,0.491347,0.204639,22,32765
1.66391,1.22431,0.317144,15,32765
1.67613,1.22477,0.317027,16,32765
0,0,0,0,32765
0,0,0,0,32765
0,0,0,0,32765
1.65285,1.17401,0.303775,16,32765
1.71341,1.20856,0.313089,15,32765
1.63652,1.14627,0.297113,16,32765
1.65662,1.15232,0.298955,16,32765
1.66871,1.1525,0.299436,16,32765
1.68906,1.15816,0.301073,16,32765
1.67673,1.1414,0.297095,17,32765
1.66424,1.12487,0.293045,15,32765
1.65172,1.10832,0.289016,17,32765
1.60607,1.07004,0.279379,17,32765
1.70053,1.12485,0.29412,17,32765
1.67128,1.09757,0.287337,16,32765
1.71646,1.11916,0.293502,16,32765
1.64548,1.06515,0.279769,16,32765
1.65742,1.06513,0.280309,17,32765
1.61933,1.03309,0.272239,17,32765
1.61452,1.02245,0.269855,17,32765
1.62637,1.02241,0.270534,17,32765
1.68028,1.04851,0.278029,17,32765
1.65853,1.02738,0.273232,17,32765
1.6114,0.990857,0.264008,16,32765
1.59788,0.975263,0.260272,16,32765
1.63502,0.990608,0.265124,17,32765
1.63834,0.9853,0.264404,18,32765
1.64165,0.980005,0.26359,18,32765
1.645,0.974579,0.262817,18,32765
1.6142,0.948987,0.256644,18,32765
1.64319,0.958535,0.259887,18,32765
1.67226,0.967861,0.263243,16,32765
1.65832,0.952548,0.259843,17,32765
1.65288,0.942309,0.257793,17,32765
1.6215,0.917452,0.251853,17,32765
1.62454,0.912218,0.251263,18,32765
1.62763,0.906882,0.250569,19,32765
1.60466,0.887146,0.246057,18,32765
1.60771,0.881805,0.245322,18,32765
1.56717,0.852826,0.238061,17,32765
1.6311,0.880639,0.246746,19,32765
1.61665,0.865817,0.243533,18,32765
1.61958,0.860535,0.242789,18,32765
1.61372,0.850554,0.240961,20,32765
1.6166,0.845254,0.24034,20,32765
1.61943,0.839961,0.239841,19,32765
1.60463,0.825579,0.236618,19,32765
1.6339,0.833802,0.240092,19,32765
1.59252,0.805965,0.233014,18,32765
1.57759,0.791708,0.229799,18,32765
1.60696,0.799669,0.233027,18,32765
1.60082,0.789863,0.231269,19,32765
1.59461,0.780158,0.229474,18,32765
1.63297,0.79218,0.23403,18,32765
1.6357,0.786721,0.233353,18,32765
1.66521,0.794069,0.236918,18,32765
1.57824,0.746164,0.223583,17,32765
1.55383,0.728352,0.219117,18,32765
1.54727,0.719083,0.217406,18,32765
1.61278,0.743029,0.225733,19,32765
1.60627,0.73358,0.22398,18,32765
1.59069,0.720065,0.2209,17,32765
1.57505,0.706658,0.217857,19,32765
1.5684,0.697414,0.21594,18,32765
1.59805,0.704136,0.219165,20,32765
1.55496,0.678988,0.212528,18,32765
1.59373,0.689549,0.216916,21,32765
1.56874,0.672492,0.212646,19,32765
1.5893,0.675084,0.214442,20,32765
1.6007,0.67372,0.215297,21,32765
1.60297,0.668494,0.214683,21,32765
1.60523,0.66325,0.214067,21,32765
1.61664,0.661794,0.214717,19,32765
1.61892,0.656393,0.21414,20,32765
1.58433,0.636216,0.208625,19,32765
1.56806,0.623636,0.205552,19,32765
1.6256,0.6403,0.212238,17,32765
1.62774,0.63505,0.211637,17,32765
1.57428,0.608317,0.203953,16,32765
1.57633,0.603259,0.203135,16,32765
1.57833,0.598193,0.202615,16,32765
1.46878,0.551227,0.18774,15,32765
1.5637,0.581091,0.198962,16,32765
1.65884,0.610296,0.210187,13,32765
1.58628,0.577646,0.200095,12,32765
1.56954,0.565762,0.197114,19,32765
1.57146,0.560684,0.196358,21,32765
1.58271,0.558914,0.19685,21,32765
1.61272,0.563637,0.199656,21,32765
1.56769,0.542149,0.193226,20,32765
1.58829,0.543563,0.194865,21,32765
1.57129,0.53214,0.191759,21,32765
1.56362,0.524076,0.189802,20,32765
1.55589,0.516095,0.187992,19,32765
1.58593,0.520473,0.190579,20,32765
1.5782,0.512412,0.188704,21,32765
1.59885,0.513507,0.189992,21,32765
1.58158,0.502556,0.186899,20,32765
1.57376,0.494802,0.184533,20,32765
1.65743,1.22129,0.296269,16,32765
1.64567,1.20424,0.291814,17,32765
1.63384,1.18722,0.287527,17,32765
1.66211,1.19916,0.290356,18,32765
1.66627,1.19371,0.28895,17,32765
1.67046,1.18821,0.287462,18,32765
1.64212,1.15993,0.280892,17,32765
1.64608,1.15461,0.279676,17,32765
1.61745,1.12667,0.27309,16,32765
1.65389,1.14389,0.277603,17,32765
1.65789,1.1384,0.276341,18,32765
1.6291,1.11054,0.269856,17,32765
1.62469,1.09968,0.267375,17,32765
1.61207,1.08323,0.263559,18,32765
1.6652,1.11099,0.270579,18,32765
1.66899,1.10552,0.269579,19,32765
1.59823,1.05107,0.256542,19,32765
1.63499,1.06752,0.260956,19,32765
1.6303,1.05679,0.258667,19,32765
1.63388,1.05145,0.257806,18,32765
1.63748,1.04611,0.256767,19,32765
1.61596,1.02477,0.251854,19,32765
1.61943,1.01944,0.251137,18,32765
1.58087,0.987827,0.243809,18,32765
1.60946,0.998337,0.247091,18,32765
1.61284,0.993088,0.246187,17,32765
1.59085,0.972284,0.241352,18,32765
1.61954,0.982544,0.244553,18,32765
1.63133,0.982393,0.245116,17,32765
1.58353,0.946575,0.23667,18,32765
1.62942,0.966636,0.242265,18,32765
1.62422,0.956137,0.240266,20,32765
1.61898,0.94566,0.238182,20,32765
1.62228,0.940167,0.237498,20,32765
1.62543,0.934877,0.236811,20,32765
1.62853,0.929642,0.236116,20,32765
1.61434,0.914592,0.233051,20,32765
1.60873,0.904508,0.23122,20,32765
1.59446,0.889544,0.228052,19,32765
1.59745,0.884294,0.22754,19,32765
1.62659,0.893297,0.230506,20,32765
1.6209,0.883188,0.228621,20,32765
1.62388,0.877849,0.22805,21,32765
1.6094,0.86302,0.225026,19,32765
1.60355,0.853091,0.223065,19,32765
1.60644,0.847775,0.222551,20,32765
1.60051,0.837885,0.22072,19,32765
1.62093,0.841785,0.222646,19,32765
1.62377,0.83646,0.222022,20,32765
1.61775,0.826571,0.220392,20,32765
1.58516,0.803217,0.214988,19,32765
1.58794,0.797871,0.214358,20,32765
1.62624,0.810243,0.218494,20,32765
1.61123,0.795954,0.215632,20,32765
1.5872,0.77746,0.21155,20,32765
1.61664,0.785196,0.214548,21,32765
1.58356,0.762548,0.209151,20,32765
1.61302,0.770088,0.212443,21,32765
1.58871,0.751995,0.2083,20,32765
1.60925,0.755208,0.209975,21,32765
1.58476,0.737361,0.206,20,32765
1.5602,0.719637,0.201985,19,32765
1.59876,0.730992,0.206165,20,32765
1.55602,0.705176,0.199789,19,32765
1.58561,0.712206,0.202737,20,32765
1.55175,0.690791,0.197445,20,32765
1.57231,0.693575,0.199243,19,32765
1.57465,0.688356,0.198826,18,32765
1.58614,0.687029,0.199394,18,32765
1.59763,0.685635,0.199978,18,32765
1.58168,0.672587,0.197019,18,32765
1.57477,0.663531,0.195508,19,32765
1.59534,0.666036,0.19717,19,32765
1.58841,0.657009,0.195427,19,32765
1.57222,0.644303,0.19261,20,32765
1.57443,0.639041,0.192048,21,32765
1.56741,0.630092,0.190284,21,32765
1.56957,0.624896,0.189635,20,32765
1.57169,0.619717,0.189085,21,32765
1.57375,0.614632,0.188503,21,32765
1.57579,0.609535,0.188034,21,32765
1.5964,0.611574,0.189417,21,32765
1.57054,0.595857,0.185596,20,32765
1.55393,0.583782,0.182793,19,32765
1.60246,0.596103,0.187589,12,32765
1.52983,0.563403,0.178294,17,32765
1.56912,0.571971,0.182003,22,32765
1.56169,0.563495,0.180296,22,32765
1.57295,0.561777,0.180618,23,32765
1.59359,0.563313,0.182087,22,32765
1.58609,0.554879,0.180339,23,32765
1.56917,0.543194,0.177577,22,32765
1.58039,0.541385,0.177969,23,32765
1.56336,0.529967,0.175054,22,32765
1.55567,0.521913,0.173194,21,32765
1.57624,0.523343,0.174618,21,32765
1.59687,0.524563,0.175872,21,32765
1.57022,0.510304,0.172014,21,32765
1.57193,0.50534,0.171057,21,32765
1.5641,0.497467,0.169192,21,32765
1.58471,0.498712,0.169986,21,32765
1.70888,1.25722,0.280543,16,32765
1.72916,1.26314,0.283003,16,32765
0,0,0,0,32765
0,0,0,0,32765
0,0,0,0,32765
0,0,0,0,32765
0,0,0,0,32765
0,0,0,0,32765
1.62767,1.13288,0.259357,16,32765
1.6151,1.11632,0.25631,15,32765
1.69239,1.16154,0.26748,17,32765
1.63067,1.11139,0.256584,17,32765
1.68368,1.13938,0.263686,17,32765
1.6793,1.12827,0.261831,16,32765
1.60885,1.07318,0.249777,17,32765
1.6787,1.11159,0.259308,17,32765
1.61613,1.06246,0.248574,18,32765
1.67779,1.09517,0.256965,17,32765
1.65645,1.07352,0.252635,17,32765
1.685,1.08429,0.255881,17,32765
1.68028,1.07343,0.253987,17,32765
1.66713,1.05731,0.250789,16,32765
1.58672,0.998993,0.237578,17,32765
1.65737,1.03587,0.246953,17,32765
1.61023,0.999084,0.238916,16,32765
1.63899,1.00933,0.241999,17,32765
1.64246,1.00385,0.241262,17,32765
1.60349,0.972599,0.234471,17,32765
1.5898,0.957067,0.23124,16,32765
1.65262,0.98749,0.239365,18,32765
1.64737,0.977052,0.237601,18,32765
1.65918,0.976758,0.238035,17,32765
1.66248,0.971278,0.237419,18,32765
1.59713,0.925897,0.226891,17,32765
1.62614,0.935359,0.229966,18,32765
1.59486,0.910245,0.224474,17,32765
1.64114,0.929464,0.229713,18,32765
1.60964,0.904624,0.224339,18,32765
1.67336,0.933229,0.232087,19,32765
1.61573,0.894084,0.222775,19,32765
1.62745,0.893502,0.223529,17,32765
1.65667,0.902317,0.226443,17,32765
1.60733,0.868504,0.218619,17,32765
1.61028,0.863154,0.218069,17,32765
1.60444,0.853188,0.216181,18,32765
1.59857,0.843249,0.214254,17,32765
1.62781,0.851819,0.217133,19,32765
1.60426,0.83268,0.213029,19,32765
1.58063,0.813673,0.208943,18,32765
1.58343,0.808375,0.208314,18,32765
1.58622,0.80306,0.207605,18,32765
1.5801,0.793316,0.205718,18,32765
1.59169,0.792531,0.206163,18,32765
1.57654,0.778489,0.203407,18,32765
1.58812,0.777617,0.203936,18,32765
1.59079,0.772315,0.203246,19,32765
1.5845,0.762658,0.201562,19,32765
1.55124,0.74028,0.196356,18,32765
1.58067,0.747951,0.199097,18,32765
1.61914,0.759685,0.203117,21,32765
1.56763,0.729245,0.195791,19,32765
1.57911,0.728243,0.196366,20,32765
1.59063,0.727143,0.196849,18,32765
1.62929,0.738295,0.200852,18,32765
1.67716,0.753163,0.205845,17,32765
1.62527,0.723277,0.198662,17,32765
1.56406,0.689807,0.190475,16,32765
1.5937,0.696656,0.193124,18,32765
1.57777,0.683573,0.190467,17,32765
1.55267,0.666599,0.18671,18,32765
1.56409,0.665296,0.187395,18,32765
1.59384,0.671648,0.190169,21,32765
1.58694,0.662487,0.188745,19,32765
1.57078,0.649714,0.186112,19,32765
1.59133,0.652147,0.18782,20,32765
1.59346,0.646999,0.187536,21,32765
1.59562,0.641797,0.18708,20,32765
1.5885,0.632948,0.18558,20,32765
1.61832,0.638748,0.188544,21,32765
1.61118,0.629855,0.187057,20,32765
1.59471,0.617416,0.184677,20,32765
1.57816,0.605161,0.182169,21,32765
1.58017,0.599993,0.181843,19,32765
1.58213,0.594879,0.181636,19,32765
0,0,0,0,32765
1.58605,0.584504,0.181118,15,32765
1.60665,0.586184,0.182945,20,32765
1.61793,0.584333,0.183712,22,32765
1.61045,0.575765,0.182595,23,32765
1.6217,0.573836,0.18361,22,32765
1.62359,0.568562,0.183326,22,32765
1.61603,0.56006,0.182157,22,32765
1.58961,0.545204,0.178863,21,32765
1.61017,0.546554,0.180878,21,32765
1.60248,0.538241,0.179903,21,32765
1.58533,0.526845,0.177647,20,32765
1.59646,0.524914,0.178582,21,32765
1.5886,0.516864,0.177745,20,32765
1.58072,0.508896,0.176743,20,32765
1.60125,0.509911,0.179117,21,32765
1.58392,0.498702,0.177147,20,32765
1.66996,1.23067,0.254502,18,32765
1.69016,1.23674,0.256777,18,32765
1.64608,1.19614,0.249292,17,32765
1.66603,1.20251,0.251413,18,32765
1.66986,1.19727,0.251009,18,32765
1.64958,1.17454,0.246855,18,32765
1.68592,1.19202,0.251339,18,32765
1.66555,1.16933,0.247245,18,32765
1.62874,1.13547,0.240699,17,32765
1.64065,1.13582,0.24144,17,32765
1.66896,1.14732,0.244569,17,32765
1.66456,1.13631,0.242799,18,32765
1.70947,1.15869,0.248134,18,32765
1.66396,1.11975,0.240412,18,32765
1.64297,1.09768,0.236327,18,32765
1.65502,1.09765,0.236808,18,32765
1.65042,1.08671,0.235097,18,32765
1.62908,1.06504,0.231034,18,32765
1.60763,1.04351,0.226998,18,32765
1.62775,1.04908,0.228806,18,32765
1.60617,1.02768,0.224686,19,32765
1.65154,1.04904,0.229872,19,32765
1.62985,1.02773,0.225746,19,32765
1.61646,1.01185,0.222752,19,32765
1.60295,0.996084,0.219918,19,32765
1.62326,1.00117,0.221569,19,32765
1.60975,0.985358,0.218538,19,32765
1.60465,0.974774,0.216813,19,32765
1.59095,0.959205,0.213768,19,32765
1.60268,0.959083,0.214395,17,32765
1.58878,0.943712,0.211602,18,32765
1.62617,0.958747,0.215371,19,32765
1.5951,0.933294,0.210245,19,32765
1.60691,0.932941,0.210632,18,32765
1.61012,0.927512,0.210052,18,32765
1.59605,0.912259,0.207179,18,32765
1.5905,0.902101,0.205256,18,32765
1.60218,0.901746,0.205836,19,32765
1.63123,0.911055,0.208495,20,32765
1.59956,0.886416,0.203174,20,32765
1.59384,0.87631,0.201634,19,32765
1.59684,0.87098,0.200985,20,32765
1.60855,0.870406,0.201409,20,32765
1.60275,0.86034,0.199767,19,32765
1.58812,0.845706,0.196887,19,32765
1.591,0.840443,0.196144,19,32765
1.61144,0.844444,0.197664,20,32765
1.59667,0.829904,0.194923,20,32765
1.59068,0.819993,0.193267,20,32765
1.6112,0.823702,0.194774,20,32765
1.60518,0.813788,0.192986,20,32765
1.61686,0.812893,0.193307,19,32765
1.60182,0.798675,0.190467,19,32765
1.58668,0.784571,0.187895,18,32765
1.58042,0.774908,0.186221,18,32765
1.60097,0.778318,0.18763,19,32765
1.60365,0.772924,0.187081,19,32765
1.57937,0.754724,0.183282,19,32765
1.56393,0.741027,0.180541,19,32765
1.61141,0.757071,0.185227,20,32765
1.55984,0.726592,0.178464,20,32765
1.58939,0.733956,0.181005,20,32765
1.57379,0.7204,0.178316,19,32765
1.58528,0.719301,0.178882,20,32765
1.57868,0.709872,0.177307,20,32765
1.58112,0.704551,0.176813,21,32765
1.5562,0.687234,0.173348,20,32765
1.56762,0.686146,0.173699,21,32765
1.58815,0.688959,0.175265,20,32765
1.56305,0.671917,0.171786,20,32765
1.58364,0.674476,0.173376,20,32765
1.57678,0.665304,0.171865,21,32765
1.57903,0.660019,0.171535,20,32765
1.56284,0.647247,0.169091,21,32765
1.5742,0.645934,0.169622,20,32765
1.57631,0.640832,0.16934,21,32765
1.54152,0.620807,0.164938,21,32765
1.5713,0.626866,0.167486,21,32765
1.57336,0.621762,0.167221,22,32765
1.57542,0.616625,0.16682,21,32765
1.54961,0.600682,0.163653,21,32765
1.57016,0.602817,0.165253,21,32765
1.56286,0.594128,0.163952,21,32765
1.58343,0.596074,0.165697,19,32765
1.56675,0.583948,0.163428,19,32765
1.57802,0.582225,0.164206,19,32765
1.56123,0.570276,0.161967,18,32765
1.55375,0.561802,0.160712,22,32765
1.58368,0.566841,0.163561,22,32765
1.57614,0.558349,0.162548,23,32765
1.59677,0.5598,0.164203,24,32765
1.58918,0.551368,0.16313,23,32765
1.56271,0.536569,0.160118,23,32765
1.57384,0.534806,0.160983,23,32765
1.60384,0.539283,0.163958,23,32765
1.58668,0.52786,0.161889,23,32765
1.57891,0.519698,0.160804,23,32765
1.57104,0.511687,0.160058,22,32765
1.59156,0.512917,0.162042,22,32765
1.57419,0.501808,0.160366,22,32765
1.57581,0.49665,0.160515,22,32765
1.68713,1.23902,0.265555,16,32765
1.67553,1.22164,0.261301,16,32765
1.67185,1.21016,0.258501,17,32765
1.70824,1.22786,0.262058,16,32765
1.67199,1.19354,0.254579,16,32765
1.67606,1.18816,0.252982,16,32765
1.68824,1.18838,0.252948,16,32765
1.65161,1.15443,0.245682,17,32765
1.62289,1.12643,0.239756,16,32765
1.68397,1.16057,0.246817,16,32765
1.71248,1.17187,0.249467,16,32765
1.67542,1.13837,0.242197,16,32765
1.57231,1.06066,0.225665,16,32765
1.61723,1.08309,0.230436,17,32765
1.6375,1.0887,0.231796,18,32765
1.64125,1.08325,0.230782,16,32765
1.63664,1.07236,0.228786,16,32765
1.6486,1.07246,0.228801,18,32765
1.66053,1.07251,0.229036,19,32765
1.63067,1.04574,0.223279,18,32765
1.65928,1.05648,0.225921,17,32765
1.66283,1.05109,0.224972,18,32765
1.66638,1.04567,0.223954,18,32765
1.66145,1.035,0.221894,18,32765
1.63116,1.00864,0.21649,18,32765
1.64305,1.00842,0.217005,17,32765
1.62103,0.98746,0.212826,16,32765
1.6414,0.992398,0.214121,18,32765
1.63621,0.9819,0.212315,17,32765
1.61393,0.96123,0.208218,17,32765
1.60011,0.945797,0.20501,17,32765
1.60332,0.940512,0.204193,18,32765
1.63231,0.950197,0.206638,18,32765
1.65268,0.95483,0.208179,18,32765
1.64729,0.944437,0.206297,18,32765
1.64183,0.934118,0.204486,19,32765
1.645,0.928717,0.203636,18,32765
1.63082,0.913545,0.20068,19,32765
1.64256,0.913009,0.201282,19,32765
1.64566,0.907614,0.200327,19,32765
1.63996,0.897442,0.198809,18,32765
1.62548,0.882599,0.196075,19,32765
1.62846,0.877227,0.195428,19,32765
1.63143,0.871848,0.194707,19,32765
1.60804,0.852418,0.191061,18,32765
1.61974,0.851711,0.191367,19,32765
1.605,0.837103,0.188802,18,32765
1.64322,0.849996,0.192168,19,32765
1.65498,0.849002,0.192717,18,32765
1.64902,0.838947,0.19105,18,32765
1.65189,0.833433,0.190367,18,32765
1.5747,0.787792,0.180553,16,32765
1.53279,0.760478,0.174984,17,32765
1.54428,0.759789,0.175521,18,32765
1.6005,0.780844,0.181017,19,32765
1.59419,0.771249,0.17928,18,32765
1.56993,0.752985,0.175602,19,32765
1.59942,0.760616,0.17813,19,32765
1.611,0.759531,0.178586,20,32765
1.59555,0.745756,0.17598,20,32765
1.58001,0.732103,0.173518,19,32765
1.58249,0.726897,0.172752,19,32765
1.57588,0.717532,0.171297,19,32765
1.58737,0.71643,0.171678,19,32765
1.58075,0.707072,0.169949,20,32765
1.57403,0.697801,0.168498,19,32765
1.58554,0.696519,0.168873,19,32765
1.5879,0.691242,0.168383,20,32765
1.62681,0.70175,0.171561,19,32765
1.62005,0.692406,0.170076,22,32765
1.56742,0.663715,0.163615,20,32765
1.56969,0.65847,0.163089,19,32765
1.61792,0.67233,0.167072,21,32765
1.60175,0.659438,0.164726,21,32765
1.57631,0.642927,0.161238,20,32765
1.5877,0.641517,0.161487,20,32765
1.55284,0.621562,0.157334,19,32765
1.56418,0.620149,0.157684,19,32765
1.57552,0.618675,0.158015,20,32765
1.61472,0.627989,0.160965,21,32765
1.58895,0.611974,0.157565,20,32765
1.57238,0.599705,0.155152,21,32765
1.60233,0.605166,0.157235,21,32765
1.61367,0.60345,0.157529,22,32765
1.64373,0.608508,0.159552,15,32765
1.571,0.57565,0.15158,18,32765
1.58232,0.573874,0.15177,20,32765
1.5936,0.572152,0.151962,22,32765
1.59551,0.566962,0.151336,22,32765
1.59739,0.561856,0.1505,21,32765
1.59925,0.55672,0.149911,22,32765
1.58225,0.545102,0.147422,21,32765
1.58404,0.540107,0.146623,21,32765
1.57633,0.532027,0.145015,21,32765
1.57806,0.52706,0.144298,21,32765
1.60819,0.531368,0.146185,21,32765
1.56265,0.510659,0.140928,21,32765
1.57381,0.508772,0.140923,21,32765
1.5944,0.510104,0.141712,21,32765
1.59601,0.505284,0.140811,22,32765
1.62619,0.509277,0.142268,20,32765
1.64802,1.21243,0.240048,18,32765
1.6684,1.21858,0.240648,18,32765
1.65665,1.20126,0.236796,17,32765
1.66077,1.19583,0.23542,17,32765
1.66479,1.19048,0.234126,18,32765
1.66074,1.17936,0.231406,18,32765
1.65665,1.16818,0.229044,17,32765
1.66877,1.16846,0.228967,18,32765
1.64823,1.14601,0.224513,18,32765
1.66033,1.14626,0.224269,18,32765
1.6478,1.12957,0.221151,18,32765
1.65166,1.12417,0.219865,18,32765
1.61433,1.09089,0.213268,18,32765
1.6346,1.09661,0.214295,18,32765
1.6301,1.08564,0.212224,18,32765
1.63384,1.08021,0.211213,17,32765
1.63752,1.07478,0.210381,17,32765
1.64949,1.07488,0.210301,17,32765
1.62804,1.05332,0.206211,17,32765
1.60645,1.03196,0.201901,17,32765
1.60988,1.02677,0.201131,18,32765
1.61332,1.02152,0.200208,19,32765
1.63361,1.02684,0.201295,19,32765
1.62018,1.01099,0.198313,19,32765
1.63206,1.01089,0.198445,19,32765
1.60159,0.984621,0.19374,20,32765
1.62193,0.989661,0.194966,20,32765
1.60828,0.973994,0.192009,19,32765
1.5945,0.958457,0.189297,19,32765
1.63193,0.97356,0.192557,20,32765
1.63526,0.968172,0.191529,19,32765
1.60423,0.942596,0.1867,19,32765
1.60745,0.937264,0.18588,20,32765
1.61056,0.932021,0.185261,20,32765
1.59646,0.916789,0.182506,19,32765
1.61684,0.921397,0.183759,19,32765
1.59397,0.90137,0.179986,19,32765
1.58836,0.891206,0.178215,19,32765
1.60873,0.89565,0.179706,19,32765
1.6292,0.899981,0.180702,19,32765
1.60601,0.880273,0.177354,19,32765
1.62643,0.884532,0.178662,20,32765
1.6119,0.869693,0.176099,21,32765
1.6324,0.873752,0.177291,21,32765
1.60899,0.854277,0.173925,21,32765
1.60309,0.844288,0.172243,20,32765
1.60596,0.838924,0.171757,20,32765
1.62653,0.842683,0.172868,21,32765
1.58514,0.814443,0.167706,20,32765
1.60567,0.818163,0.168959,20,32765
1.61735,0.817274,0.169224,21,32765
1.56676,0.785033,0.163045,20,32765
1.59615,0.793134,0.165335,20,32765
1.59883,0.787832,0.164837,20,32765
1.5836,0.77378,0.162409,20,32765
1.60414,0.777247,0.163513,20,32765
1.54397,0.741663,0.156472,19,32765
1.61839,0.770808,0.163261,21,32765
1.61201,0.761154,0.161808,21,32765
1.58753,0.743124,0.158488,20,32765
1.581,0.733662,0.157113,20,32765
1.59253,0.732605,0.15724,20,32765
1.58594,0.723187,0.155875,20,32765
1.59745,0.72205,0.156157,20,32765
1.57266,0.704495,0.152751,20,32765
1.56593,0.695233,0.151395,21,32765
1.58655,0.697986,0.152556,21,32765
1.57065,0.684734,0.150317,21,32765
1.59127,0.68742,0.151386,21,32765
1.60276,0.686017,0.15174,22,32765
