x, y, z, intensity, ring
0,0,0,0,32765
0,0,0,0,32765
0,0,0,0,32765
6.95904,3.42856,0.185422,13,32765
6.99755,3.41834,0.182416,32,32765
6.98206,3.38177,0.179212,24,32765
6.96627,3.34563,0.175124,21,32765
6.93249,3.30061,0.170066,22,32765
6.93453,3.2731,0.167545,22,32765
6.92752,3.24115,0.164334,22,32765
6.92933,3.21374,0.160849,26,32765
6.93092,3.18662,0.15735,20,32765
6.99607,3.18855,0.155678,41,32765
7.02498,3.17336,0.153646,40,32765
6.97165,3.12141,0.149693,46,32765
7.01855,3.11457,0.147706,58,32765
6.9923,3.07516,0.144103,19,32765
7.08504,3.08782,0.143003,14,32765
7.14118,3.08414,0.141487,14,32765
7.15151,3.06022,0.138921,13,32765
7.21716,3.05927,0.13785,14,32765
7.26431,3.05053,0.135671,13,32765
7.20069,2.99545,0.131459,24,32765
7.26605,2.9945,0.13053,49,32765
7.27596,2.97044,0.128265,49,32765
7.24846,2.93198,0.125321,48,32765
7.23948,2.90082,0.122968,45,32765
7.091,2.81438,0.11798,14,32765
6.77456,2.66299,0.110749,11,32765
6.72748,2.61873,0.10821,12,32765
6.67071,2.57158,0.105174,13,32765
6.6699,2.54584,0.103468,24,32765
6.66892,2.52031,0.102019,19,32765
6.75217,2.52624,0.10209,13,32765
6.75116,2.50036,0.100066,11,32765
6.7969,2.49199,0.0986474,11,32765
7.09638,2.57556,0.102004,26,32765
7.17056,2.57628,0.101281,47,32765
7.19774,2.55968,0.100576,42,32765
7.25322,2.55281,0.100054,40,32765
7.28045,2.53563,0.0986287,40,32765
7.30766,2.51818,0.0984867,41,32765
7.34413,2.50431,0.0986688,41,32765
7.40905,2.49976,0.0981572,41,32765
7.45502,2.48851,0.097696,41,32765
7.50098,2.47704,0.0977203,42,32765
7.53742,2.46222,0.0981363,41,32765
7.58328,2.45056,0.0977092,41,32765
7.61949,2.43588,0.0991252,40,32765
7.66535,2.42365,0.0995,39,32765
7.72054,2.41473,0.102028,39,32765
7.90778,5.80295,0.474512,80,32765
7.95999,5.79993,0.467961,30,32765
7.92297,5.73256,0.456534,13,32765
7.91797,5.6889,0.446977,14,32765
7.94503,5.66885,0.439986,15,32765
7.95557,5.63736,0.432011,15,32765
7.9825,5.61706,0.425641,17,32765
7.99301,5.58515,0.418873,20,32765
8.02887,5.56912,0.412871,28,32765
8.00692,5.51355,0.403628,25,32765
8.05029,5.50383,0.397824,27,32765
8.02723,5.44937,0.38984,24,32765
8.07808,5.44593,0.3859,23,32765
8.08774,5.41409,0.379049,22,32765
8.12251,5.3984,0.373866,21,32765
8.13233,5.36587,0.367589,19,32765
8.1505,5.33862,0.361779,17,32765
8.15991,5.30633,0.355487,14,32765
8.21122,5.30105,0.350906,16,32765
8.22034,5.26875,0.345219,23,32765
8.2714,5.26344,0.340928,15,32765
8.26367,5.21994,0.33517,11,32765
0,0,0,0,32765
0,0,0,0,32765
0,0,0,0,32765
0,0,0,0,32765
0,0,0,0,32765
0,0,0,0,32765
0,0,0,0,32765
0,0,0,0,32765
0,0,0,0,32765
0,0,0,0,32765
0,0,0,0,32765
8.89938,5.13769,0.289034,12,32765
8.8648,5.07775,0.283131,13,32765
8.99485,5.11234,0.281224,11,32765
9.09912,5.13134,0.279128,12,32765
9.52632,5.33046,0.285968,11,32765
0,0,0,0,32765
0,0,0,0,32765
0,0,0,0,32765
0,0,0,0,32765
6.96445,3.74543,0.190424,11,32765
6.97697,3.72221,0.187506,13,32765
7.02468,3.71779,0.185422,17,32765
6.98418,3.66618,0.180057,12,32765
7.11194,3.70258,0.177534,11,32765
0,0,0,0,32765
0,0,0,0,32765
0,0,0,0,32765
0,0,0,0,32765
0,0,0,0,32765
0,0,0,0,32765
6.92829,3.40217,0.149832,13,32765
6.93966,3.37904,0.147073,26,32765
6.92409,3.34254,0.143104,19,32765
6.91736,3.31045,0.141233,19,32765
6.91963,3.28249,0.139824,19,32765
6.90354,3.24651,0.135045,18,32765
6.89631,3.21492,0.131912,18,32765
6.90705,3.1919,0.128546,21,32765
6.93582,3.17731,0.126667,16,32765
6.97373,3.16661,0.123734,36,32765
6.97523,3.13912,0.120631,31,32765
6.95837,3.10349,0.117818,42,32765
6.91392,3.05586,0.114271,43,32765
6.99752,3.0646,0.112055,14,32765
7.08117,3.073,0.110241,12,32765
7.09145,3.0493,0.107088,12,32765
7.13839,3.04138,0.104658,12,32765
7.26831,3.06806,0.103497,12,32765
7.26,3.03633,0.0998794,13,32765
7.18702,2.9776,0.095239,21,32765
7.2247,2.96501,0.0923684,41,32765
7.19746,2.92601,0.0890928,40,32765
7.20711,2.90227,0.0857665,40,32765
7.18897,2.86698,0.0821672,34,32765
7.01236,2.76995,0.0762349,11,32765
6.74227,2.63713,0.0702089,11,32765
6.66699,2.5825,0.0668234,11,32765
6.60081,2.53184,0.0631424,13,32765
6.62788,2.51708,0.0602427,19,32765
6.62662,2.4922,0.0567942,14,32765
6.70031,2.49508,0.054533,12,32765
6.7927,2.50482,0.0525149,11,32765
0,0,0,0,32765
7.07222,2.55573,0.0476399,25,32765
7.11823,2.54606,0.044346,38,32765
7.14559,2.52889,0.0407056,32,32765
7.21049,2.52527,0.0381924,32,32765
7.23757,2.5084,0.0338487,32,32765
7.28354,2.49783,0.030952,32,32765
7.31045,2.48093,0.0271924,32,32765
7.36578,2.47337,0.0234275,32,32765
7.40207,2.45947,0.0193942,31,32765
7.46694,2.4544,0.0155663,30,32765
7.50322,2.44003,0.0110065,29,32765
7.55853,2.43151,0.00666737,27,32765
7.59476,2.41671,0.00190809,26,32765
7.65947,2.4111,-0.00241904,27,32765
7.64779,2.38146,-0.00757944,28,32765
7.91154,5.82147,0.383226,19,32765
7.93148,5.79484,0.37476,20,32765
7.9187,5.745,0.365122,20,32765
7.96236,5.73629,0.358024,22,32765
7.94077,5.68114,0.348744,26,32765
7.96762,5.66116,0.341553,31,32765
7.9946,5.64076,0.335067,37,32765
8.02154,5.62019,0.329042,48,32765
8.04928,5.59831,0.322488,59,32765
8.04387,5.5539,0.314324,68,32765
8.07909,5.53836,0.307881,74,32765
8.09747,5.5118,0.301872,67,32765
8.13192,5.49692,0.296894,62,32765
8.14173,5.46481,0.290082,55,32765
8.16,5.43781,0.284081,48,32765
8.1366,5.38301,0.276725,25,32765
8.18823,5.37763,0.27201,13,32765
8.20612,5.35059,0.266045,12,32765
8.22398,5.3234,0.259983,11,32765
8.2584,5.30718,0.25515,16,32765
8.28426,5.2856,0.249686,31,32765
8.31884,5.26869,0.245436,21,32765
8.55629,5.37975,0.245543,15,32765
8.64206,5.39373,0.241933,16,32765
8.54954,5.29663,0.233659,13,32765
8.60966,5.29463,0.229857,13,32765
8.68708,5.30246,0.225663,13,32765
8.77328,5.31484,0.222699,13,32765
8.89401,5.34722,0.219742,18,32765
8.95479,5.34324,0.215558,19,32765
8.94673,5.29828,0.210097,17,32765
8.92137,5.2431,0.203662,14,32765
8.88691,5.18341,0.197891,12,32765
8.89555,5.14883,0.192777,15,32765
8.90437,5.11366,0.188344,16,32765
9.00842,5.13333,0.18465,13,32765
9.12142,5.15723,0.181774,13,32765
9.24332,5.18549,0.1783,13,32765
0,0,0,27,32765
0,0,0,0,32765
7.18185,3.93456,0.12766,11,32765
6.97527,3.79143,0.119434,11,32765
7.02332,3.78678,0.11733,11,32765
7.04479,3.76802,0.114523,13,32765
7.03964,3.73523,0.11119,21,32765
7.08769,3.73003,0.107716,18,32765
7.03832,3.67361,0.101334,12,32765
7.14809,3.701,0.0992797,12,32765
7.09841,3.64471,0.0956927,12,32765
0,0,0,0,32765
0,0,0,0,32765
0,0,0,0,32765
0,0,0,0,32765
0,0,0,0,32765
7.00013,3.4171,0.0753358,28,32765
6.9937,3.38466,0.0717044,28,32765
6.96008,3.33929,0.0697277,22,32765
6.9715,3.3154,0.0684873,24,32765
6.94646,3.2749,0.0638681,24,32765
6.95745,3.25155,0.0610578,24,32765
6.93201,3.21146,0.0573551,25,32765
6.96084,3.19675,0.0552746,24,32765
6.9715,3.17351,0.0518387,32,32765
7.05506,3.18298,0.0493985,50,32765
7.00184,3.13066,0.0465912,38,32765
7.02149,3.11113,0.0439856,54,32765
6.9679,3.05922,0.0401678,27,32765
7.08818,3.08369,0.0378046,14,32765
7.09849,3.05992,0.0346424,14,32765
7.10867,3.03624,0.031664,14,32765
7.22011,3.05528,0.0292144,14,32765
7.24864,3.03909,0.0259326,14,32765
7.23109,3.00329,0.0223081,16,32765
7.27809,2.99432,0.0191545,46,32765
7.26021,2.95883,0.0162488,50,32765
7.25141,2.92733,0.012855,50,32765
7.26121,2.90295,0.0095484,49,32765
7.14054,2.82756,0.00549333,20,32765
6.70313,2.62831,0.00216952,11,32765
6.71174,2.60626,-0.000365078,12,32765
6.64565,2.55534,-0.00331917,14,32765
6.66343,2.53683,-0.00642356,24,32765
6.65287,2.50825,-0.00978708,22,32765
6.65163,2.48307,-0.0125801,14,32765
6.76271,2.49992,-0.0154723,13,32765
6.67685,2.44365,-0.018685,13,32765
6.94809,2.51707,-0.0226528,19,32765
7.08808,2.54153,-0.026619,38,32765
7.11539,2.52443,-0.0304364,33,32765
7.12364,2.50102,-0.0332425,31,32765
7.07505,2.45813,-0.0373267,28,32765
7.07355,2.43181,-0.0402662,26,32765
6.95822,2.36724,-0.0432257,23,32765
6.83309,2.30018,-0.0460627,21,32765
6.62213,2.20578,-0.0482865,19,32765
6.43923,2.12184,-0.0503365,18,32765
6.23674,2.03321,-0.0525464,17,32765
5.9386,1.91514,-0.0534506,17,32765
5.70644,1.82035,-0.0549073,18,32765
5.57855,1.76043,-0.0567891,19,32765
5.4503,1.70142,-0.059115,21,32765
7.90815,5.81553,0.270462,18,32765
7.89511,5.76577,0.267363,19,32765
7.91428,5.73956,0.264708,18,32765
7.92515,5.70755,0.262167,18,32765
7.91199,5.65743,0.258283,19,32765
7.94701,5.64288,0.255902,25,32765
7.96536,5.61711,0.252367,30,32765
8.00835,5.60822,0.250163,39,32765
7.99404,5.55896,0.246642,47,32765
7.98,5.50924,0.240811,73,32765
8.03972,5.51076,0.238611,70,32765
8.04164,5.47262,0.235227,53,32765
8.05999,5.44572,0.231583,49,32765
8.11127,5.44133,0.228523,36,32765
8.10464,5.39743,0.223981,13,32765
8.23913,5.44806,0.223141,12,32765
8.13151,5.33895,0.217127,12,32765
8.09867,5.27973,0.212079,12,32765
8.08242,5.2315,0.206717,12,32765
8.25136,5.30172,0.207373,14,32765
8.26897,5.2744,0.202203,22,32765
8.40501,5.3214,0.202296,18,32765
8.60095,5.40449,0.201655,17,32765
8.61071,5.37025,0.196446,15,32765
8.50996,5.26736,0.188947,11,32765
8.75743,5.3805,0.190079,14,32765
8.69845,5.30464,0.184201,12,32765
8.83577,5.34836,0.182009,16,32765
8.89641,5.34476,0.178294,17,32765
8.93166,5.32495,0.17437,15,32765
8.92356,5.27997,0.16962,16,32765
8.78615,5.15883,0.161819,12,32765
8.82937,5.14447,0.158151,12,32765
8.90715,5.15005,0.153891,15,32765
8.88128,5.09493,0.148774,12,32765
8.98553,5.11415,0.146141,12,32765
9.24593,5.22267,0.144569,12,32765
0,0,0,0,32765
0,0,0,0,32765
0,0,0,0,32765
0,0,0,0,32765
0,0,0,0,32765
0,0,0,0,32765
7.01161,3.74606,0.0831655,14,32765
7.03281,3.72761,0.0783071,19,32765
7.06289,3.71352,0.0760509,12,32765
7.14623,3.7269,0.072279,11,32765
7.12325,3.68448,0.0659683,12,32765
0,0,0,0,32765
0,0,0,0,32765
0,0,0,0,32765
0,0,0,0,32765
0,0,0,0,32765
6.92696,3.40789,0.0434164,13,32765
6.96553,3.3974,0.0401084,26,32765
6.93212,3.35177,0.0371425,20,32765
6.88914,3.30276,0.0329555,19,32765
6.90951,3.28332,0.0319003,21,32765
6.93858,3.26867,0.0286101,21,32765
6.91325,3.2285,0.0251784,21,32765
6.906,3.19669,0.0222987,21,32765
6.91655,3.17382,0.0190223,17,32765
6.98197,3.17502,0.0159549,38,32765
6.97419,3.14374,0.0125598,30,32765
6.94821,3.10394,0.00923789,33,32765
6.91272,3.06069,0.00626447,30,32765
6.93194,3.0419,0.00354867,13,32765
7.04293,3.06261,0.000900865,13,32765
7.08978,3.05507,-0.00134071,13,32765
7.13698,3.04649,-0.00486992,13,32765
7.14717,3.02251,-0.00746655,13,32765
7.15711,2.99888,-0.00977601,13,32765
7.20407,2.99019,-0.0127937,22,32765
7.20468,2.9625,-0.0153153,40,32765
7.21449,2.93852,-0.0176104,40,32765
7.22406,2.9149,-0.0198972,41,32765
7.16858,2.86521,-0.0218737,33,32765
6.80605,2.69437,-0.0225359,12,32765
0,0,-0,0,32765
0,0,-0,0,32765
0,0,-0,0,32765
6.5604,2.49812,-0.0294363,20,32765
6.61534,2.49423,-0.0313504,20,32765
6.8108,2.5426,-0.0340401,14,32765
0,0,-0,0,32765
0,0,-0,0,32765
0,0,-0,0,32765
7.01317,2.51322,-0.041358,26,32765
7.01197,2.48679,-0.0426062,24,32765
7.02949,2.46716,-0.0437691,20,32765
6.96181,2.4183,-0.0446692,21,32765
6.90328,2.37332,-0.0454488,19,32765
0,0,-0,0,32765
6.70038,2.25561,-0.0450703,16,32765
0,0,-0,0,32765
6.80986,2.2433,-0.0474579,16,32765
6.75053,2.19958,-0.0466058,19,32765
6.6243,2.13498,-0.0462674,16,32765
0,0,-0,0,32765
6.29443,1.98449,-0.0438171,17,32765
0,0,-0,0,32765
7.9016,5.82797,0.178898,23,32765
7.88865,5.77811,0.17616,24,32765
7.91597,5.75773,0.173671,20,32765
7.91072,5.71392,0.170859,22,32765
7.92201,5.6812,0.167857,23,32765
7.95711,5.66657,0.165272,26,32765
8.01636,5.66956,0.162547,27,32765
8.00225,5.62025,0.158894,29,32765
8.02903,5.59949,0.156535,39,32765
8.06447,5.58366,0.151973,55,32765
8.06674,5.54525,0.148196,65,32765
8.09359,5.52383,0.145422,67,32765
8.12039,5.50229,0.141886,55,32765
8.10547,5.45301,0.137286,34,32765
8.13217,5.43124,0.13356,29,32765
8.15836,5.41004,0.129665,25,32765
8.15093,5.36692,0.126624,23,32765
8.17681,5.3458,0.122997,20,32765
8.21113,5.32986,0.11868,19,32765
8.20378,5.28605,0.115115,18,32765
8.29715,5.30731,0.110976,21,32765
8.28129,5.25783,0.107762,20,32765
8.43459,5.31485,0.104692,17,32765
8.5373,5.3394,0.100762,20,32765
8.50448,5.27871,0.0953629,17,32765
8.48793,5.22949,0.0911274,17,32765
8.57352,5.24304,0.0876932,15,32765
8.63363,5.24056,0.0835035,17,32765
8.66819,5.22213,0.0791791,18,32765
8.74593,5.22869,0.0755354,16,32765
8.76333,5.19953,0.0713531,16,32765
8.78945,5.17504,0.0665528,14,32765
8.84135,5.16567,0.062652,15,32765
8.9105,5.1662,0.0576627,15,32765
8.95405,5.15082,0.0534137,14,32765
9.04107,5.15991,0.049705,14,32765
9.12744,5.1699,0.0446173,12,32765
0,0,0,0,32765
0,0,0,0,32765
0,0,0,0,32765
0,0,0,0,32765
7.08776,3.85853,0.0154757,11,32765
7.05685,3.81066,0.0117305,12,32765
7.00775,3.75418,0.00871072,13,32765
7.04661,3.74509,0.0037627,22,32765
7.05906,3.72158,0.00130283,19,32765
7.08034,3.70256,-0.00319617,13,32765
7.08389,3.67407,-0.00911949,12,32765
7.21178,3.70974,-0.0120345,12,32765
13.5666,6.92097,-0.0292586,12,32765
12.7865,6.46943,-0.0359175,13,32765
12.6918,6.36839,-0.0403702,17,32765
12.6238,6.2807,-0.0468454,22,32765
12.2504,6.04316,-0.0512112,22,32765
6.97992,3.41359,-0.0326212,28,32765
6.99158,3.38961,-0.0353591,32,32765
6.97578,3.35329,-0.0391765,26,32765
6.9512,3.31199,-0.0400865,26,32765
6.94418,3.28007,-0.0433659,26,32765
6.93701,3.24828,-0.0465538,25,32765
6.92983,3.2163,-0.0492628,25,32765
6.87685,3.16404,-0.0520759,24,32765
6.91491,3.15293,-0.0554757,28,32765
6.92528,3.13003,-0.0588123,35,32765
6.86276,3.07395,-0.0614162,27,32765
6.79977,3.01871,-0.0636345,30,32765
6.54426,2.87943,-0.063732,19,32765
6.43467,2.80556,-0.0650456,18,32765
6.30625,2.72466,-0.0656596,18,32765
6.17764,2.64399,-0.0672806,17,32765
6.04838,2.56463,-0.0679818,17,32765
5.9462,2.49811,-0.0686642,16,32765
5.88991,2.4512,-0.0703504,16,32765
5.68537,2.34397,-0.069822,17,32765
5.60982,2.29097,-0.0705898,17,32765
5.58947,2.26131,-0.0720145,18,32765
5.4205,2.17225,-0.0713797,18,32765
5.42762,2.15435,-0.0728162,18,32765
5.42534,2.13286,-0.0742261,19,32765
5.23666,2.03871,-0.07384,18,32765
5.22466,2.01427,-0.0750851,18,32765
5.02568,1.91876,-0.0730907,20,32765
5.18159,1.95879,-0.0766035,21,32765
5.04747,1.88927,-0.0758695,20,32765
5.09122,1.88632,-0.0783417,23,32765
5.07865,1.86259,-0.0786646,21,32765
4.6524,1.68891,-0.0726129,17,32765
4.68615,1.68371,-0.0744394,17,32765
4.8424,1.72185,-0.0777351,20,32765
4.77255,1.67942,-0.0772794,21,32765
4.62684,1.61141,-0.0757496,17,32765
4.58469,1.58031,-0.0757794,18,32765
4.58028,1.56234,-0.075727,17,32765
4.60422,1.55399,-0.076666,18,32765
4.59031,1.53256,-0.0770462,17,32765
4.45282,1.47066,-0.0751348,18,32765
4.55262,1.48726,-0.0764778,19,32765
4.60494,1.48799,-0.0776828,19,32765
4.39058,1.40337,-0.0736921,17,32765
4.55714,1.44047,-0.0766843,18,32765
4.56164,1.42621,-0.0758296,17,32765
7.91153,5.81317,0.217359,18,32765
7.87431,5.74588,0.206538,17,32765
7.88523,5.71415,0.198273,15,32765
7.9287,5.70546,0.190517,19,32765
7.92323,5.66185,0.182961,15,32765
7.98305,5.66429,0.175443,32,32765
7.99382,5.63194,0.168828,18,32765
7.97163,5.57676,0.160296,19,32765
7.99847,5.55595,0.153189,27,32765
8.01662,5.52989,0.147366,46,32765
8.04292,5.50945,0.141039,50,32765
8.08585,5.49992,0.134869,47,32765
8.09562,5.46786,0.127637,29,32765
8.08949,5.42339,0.121113,23,32765
8.12433,5.40737,0.114935,21,32765
8.10923,5.3579,0.108598,21,32765
8.15196,5.34767,0.102731,19,32765
8.1861,5.33209,0.0972494,18,32765
8.22894,5.32129,0.0919146,17,32765
8.21268,5.27277,0.0860002,15,32765
8.23885,5.25051,0.0801716,14,32765
8.23104,5.20693,0.0739358,14,32765
8.37544,5.25921,0.0698904,14,32765
8.41838,5.24719,0.0647443,15,32765
8.5036,5.26169,0.0593058,13,32765
8.42728,5.17593,0.0532254,14,32765
8.55539,5.21568,0.0488016,13,32765
8.58982,5.19757,0.0434388,13,32765
8.61585,5.17379,0.0381935,12,32765
8.74483,5.21145,0.0329995,12,32765
9.05501,5.35504,0.028694,12,32765
9.15927,5.37509,0.0238334,12,32765
9.14247,5.3246,0.0182547,12,32765
9.22929,5.33439,0.0127403,12,32765
9.43773,5.41329,0.00737662,12,32765
9.22986,5.25301,0.00256913,12,32765
0,0,-0,0,32765
0,0,-0,0,32765
0,0,-0,0,32765
0,0,-0,0,32765
0,0,-0,0,32765
0,0,-0,0,32765
0,0,-0,0,32765
7.0388,3.75965,-0.0274753,12,32765
7.03362,3.72678,-0.0300306,19,32765
7.06375,3.7125,-0.0339029,15,32765
7.11142,3.70763,-0.0397581,12,32765
7.08818,3.66556,-0.0425282,12,32765
0,0,-0,0,32765
0,0,-0,0,32765
12.5983,6.35336,-0.095353,26,32765
12.2443,6.12229,-0.0981101,31,32765
12.3009,6.09835,-0.103402,26,32765
12.0343,5.91543,-0.107403,28,32765
6.87632,3.35178,-0.0655494,26,32765
6.91447,3.34179,-0.0699757,23,32765
6.83542,3.27542,-0.071658,19,32765
6.6478,3.15772,-0.0719626,19,32765
6.74903,3.17758,-0.071817,18,32765
0,0,-0,0,32765
0,0,-0,16,32765
0,0,-0,0,32765
0,0,-0,15,32765
0,0,-0,0,32765
0,0,-0,17,32765
0,0,-0,0,32765
0,0,-0,16,32765
0,0,-0,0,32765
5.22594,2.24932,-0.0786242,17,32765
5.16898,2.20446,-0.0801546,17,32765
5.07498,2.14432,-0.081187,17,32765
5.08215,2.12719,-0.0831375,18,32765
5.05226,2.09483,-0.0850151,20,32765
4.85578,1.99421,-0.0839713,17,32765
4.8346,1.96664,-0.0856711,17,32765
4.62775,1.86466,-0.0838591,19,32765
4.54102,1.8122,-0.0846824,15,32765
4.40739,1.74227,-0.0838488,15,32765
4.45037,1.74214,-0.0869796,15,32765
4.48394,1.7385,-0.0895855,17,32765
4.48956,1.7238,-0.0920639,17,32765
4.21483,1.60234,-0.0881388,15,32765
3.98614,1.50034,-0.0851546,15,32765
4.15968,1.54997,-0.0906547,16,32765
4.1084,1.51559,-0.0917496,17,32765
4.01004,1.46429,-0.0912884,17,32765
3.85497,1.39326,-0.0897116,16,32765
3.96295,1.41784,-0.0939477,16,32765
3.80735,1.34804,-0.0921614,17,32765
3.80221,1.33241,-0.0938152,15,32765
3.78756,1.31353,-0.095374,16,32765
3.735,1.28183,-0.0959585,16,32765
3.64434,1.23782,-0.095444,16,32765
3.5914,1.20694,-0.0961987,16,32765
3.57621,1.18917,-0.09748,16,32765
3.50401,1.15262,-0.0975001,16,32765
3.42207,1.11354,-0.0972253,16,32765
3.33982,1.07531,-0.0969323,16,32765
3.25739,1.03754,-0.0965411,16,32765
3.26062,1.02712,-0.0987387,17,32765
3.09207,0.96309,-0.0958096,16,32765
7.89635,5.81961,0.125702,25,32765
7.90757,5.78764,0.116248,27,32765
7.92669,5.76159,0.108138,29,32765
7.93783,5.72932,0.0996364,30,32765
7.94869,5.69721,0.0925262,29,32765
7.96782,5.67056,0.0840701,31,32765
7.97042,5.6324,0.0774669,31,32765
7.99735,5.61163,0.069838,34,32765
7.99966,5.57352,0.0624078,34,32765
8.00963,5.54168,0.0565131,31,32765
8.01946,5.50987,0.0499813,28,32765
8.06235,5.50039,0.0435367,26,32765
8.07209,5.46832,0.0364048,23,32765
8.09086,5.44055,0.0302576,20,32765
8.11741,5.41892,0.0238543,18,32765
8.10236,5.36935,0.0178814,16,32765
8.1618,5.37009,0.0117501,14,32765
8.31319,5.431,0.00614897,13,32765
8.39827,5.44695,0.000435664,12,32765
8.44129,5.43565,-0.00526979,12,32765
8.61965,5.50948,-0.0115736,12,32765
8.7478,5.55024,-0.0181003,12,32765
8.95247,5.63818,-0.0240399,12,32765
9.11536,5.69841,-0.030242,13,32765
9.21047,5.7159,-0.0369653,14,32765
9.26343,5.70626,-0.0430823,14,32765
9.40173,5.74852,-0.049281,16,32765
9.38661,5.6964,-0.0550829,16,32765
9.37147,5.64406,-0.0606487,15,32765
9.38175,5.60742,-0.0667095,16,32765
9.40919,5.58081,-0.0724035,18,32765
9.49691,5.58954,-0.0782694,16,32765
9.54991,5.57815,-0.0843006,16,32765
9.6721,5.60665,-0.0911526,12,32765
0,0,-0,0,32765
0,0,-0,0,32765
0,0,-0,0,32765
0,0,-0,0,32765
5.86948,3.27149,-0.0705911,11,32765
5.8015,3.20846,-0.0725899,12,32765
5.78591,3.17451,-0.0753073,13,32765
6.01596,3.27477,-0.0811357,14,32765
5.86848,3.16909,-0.0820786,15,32765
5.76451,3.08789,-0.0837106,15,32765
5.76594,3.0639,-0.0857411,15,32765
5.62578,2.96525,-0.0865401,16,32765
5.44056,2.84467,-0.0879028,18,32765
5.40561,2.80348,-0.0894575,18,32765
5.37056,2.7623,-0.0914806,19,32765
5.3531,2.73049,-0.0942406,21,32765
5.26428,2.6624,-0.0951085,21,32765
5.06778,2.5412,-0.093723,19,32765
5.04057,2.50608,-0.0951189,19,32765
4.93243,2.43146,-0.0955562,18,32765
4.71587,2.30526,-0.0941529,19,32765
4.64255,2.25017,-0.0953436,18,32765
4.39771,2.11332,-0.0918435,16,32765
4.34168,2.06819,-0.0920884,16,32765
4.37588,2.06611,-0.0919394,16,32765
4.29219,2.00901,-0.0924715,16,32765
4.23546,1.96499,-0.092772,17,32765
4.2148,1.93809,-0.0940124,17,32765
4.13027,1.88245,-0.0939345,17,32765
4.10014,1.85198,-0.0951472,17,32765
3.98765,1.78513,-0.0942716,17,32765
3.94787,1.75151,-0.0947331,16,32765
3.88968,1.70994,-0.0948039,17,32765
3.93198,1.71293,-0.0975933,18,32765
3.80919,1.64417,-0.0962547,18,32765
3.7135,1.5882,-0.0955015,17,32765
3.73718,1.58352,-0.0978935,18,32765
3.65951,1.53605,-0.0971317,17,32765
3.61845,1.50456,-0.0976889,19,32765
3.55876,1.46567,-0.0976889,17,32765
3.57287,1.45749,-0.0995569,19,32765
3.61473,1.46059,-0.102125,19,32765
3.48959,1.39653,-0.100386,19,32765
3.52197,1.39618,-0.1026,19,32765
3.44281,1.35153,-0.102042,19,32765
3.40989,1.32581,-0.102508,19,32765
3.40484,1.31101,-0.104111,19,32765
3.2877,1.25341,-0.101823,18,32765
3.25439,1.22838,-0.102221,19,32765
3.21158,1.20008,-0.102224,18,32765
3.16857,1.17219,-0.102525,18,32765
3.20055,1.17201,-0.104909,19,32765
3.10099,1.12393,-0.103183,20,32765
3.05753,1.09701,-0.103033,18,32765
3.01399,1.07017,-0.103039,18,32765
2.95138,1.0372,-0.102249,19,32765
2.9358,1.02104,-0.103167,18,32765
2.90123,0.998524,-0.103405,18,32765
2.83812,0.966729,-0.10254,18,32765
2.88852,0.973497,-0.106055,19,32765
2.84416,0.94845,-0.105741,21,32765
2.78072,0.917318,-0.104933,19,32765
2.79309,0.911481,-0.10701,20,32765
2.7483,0.887407,-0.106951,19,32765
2.74149,0.875726,-0.108346,18,32765
2.64892,0.836841,-0.106371,20,32765
2.66107,0.831246,-0.108707,19,32765
7.95401,5.86071,0.0142101,12,32765
7.90907,5.78675,0.0117633,12,32765
7.92807,5.76069,0.00895663,12,32765
8.01135,5.78209,0.00568849,11,32765
7.99809,5.73203,0.00271239,12,32765
8.17222,5.81512,-0.000731413,12,32765
8.03636,5.67825,-0.00387723,12,32765
8.05515,5.65155,-0.00779037,12,32765
8.07344,5.62539,-0.0115039,12,32765
0,0,-0,0,32765
8.26679,5.67985,-0.0191834,12,32765
8.07895,5.51166,-0.0218867,11,32765
8.39555,5.68625,-0.0285155,12,32765
0,0,-0,0,32765
8.65871,5.77871,-0.0368041,11,32765
8.63654,5.72171,-0.0414982,12,32765
8.73052,5.74268,-0.0462543,12,32765
8.74945,5.71375,-0.0509464,11,32765
0,0,-0,0,32765
9.09839,5.85557,-0.0628946,12,32765
9.27798,5.92743,-0.0685875,12,32765
9.37378,5.94448,-0.0736428,14,32765
9.39341,5.91333,-0.0792873,16,32765
9.37895,5.86107,-0.0824168,17,32765
9.40688,5.83505,-0.0876338,18,32765
9.48594,5.84019,-0.0935217,17,32765
9.40306,5.74573,-0.09681,16,32765
9.40526,5.70357,-0.101656,14,32765
0,0,-0,0,32765
0,0,-0,0,32765
9.51369,5.63909,-0.118383,15,32765
0,0,-0,0,32765
0,0,-0,0,32765
0,0,-0,0,32765
0,0,-0,0,32765
0,0,-0,0,32765
0,0,-0,14,32765
0,0,-0,0,32765
5.51201,3.07012,-0.0907415,15,32765
5.53974,3.06126,-0.0943783,19,32765
5.53244,3.03296,-0.0966454,19,32765
0,0,-0,0,32765
5.26233,2.8388,-0.0972318,19,32765
0,0,-0,0,32765
0,0,-0,16,32765
0,0,-0,19,32765
0,0,-0,18,32765
0,0,-0,17,32765
4.42904,2.27485,-0.0949017,17,32765
4.44558,2.26437,-0.0976802,14,32765
4.2569,2.15003,-0.0952662,15,32765
4.3356,2.17146,-0.0994456,15,32765
4.23538,2.10348,-0.0992348,15,32765
4.24242,2.08914,-0.101135,15,32765
4.17754,2.03968,-0.101726,16,32765
4.01336,1.94284,-0.099703,15,32765
3.96572,1.90342,-0.100077,15,32765
3.92688,1.86869,-0.10074,15,32765
3.78837,1.78735,-0.0986944,16,32765
3.78521,1.77046,-0.100382,15,32765
3.78205,1.75342,-0.10257,16,32765
3.69711,1.69884,-0.101037,16,32765
3.63008,1.65302,-0.100699,16,32765
3.69933,1.66962,-0.104535,18,32765
3.58635,1.60389,-0.102593,17,32765
3.58256,1.58773,-0.10387,17,32765
3.51452,1.5437,-0.10347,16,32765
3.52879,1.53594,-0.105218,17,32765
3.41447,1.47281,-0.103026,16,32765
3.4194,1.46123,-0.104412,16,32765
3.323,1.40687,-0.102605,16,32765
3.31839,1.39197,-0.103564,16,32765
3.32295,1.38094,-0.104919,17,32765
3.26271,1.34343,-0.103987,16,32765
3.23008,1.31752,-0.10408,15,32765
3.26215,1.31814,-0.106038,16,32765
3.16441,1.26644,-0.103692,17,32765
3.20575,1.27061,-0.105853,17,32765
3.13546,1.23081,-0.10433,17,32765
3.09295,1.20219,-0.103902,17,32765
3.01288,1.15975,-0.102146,16,32765
3.04466,1.16054,-0.103888,16,32765
3.02038,1.13992,-0.103778,17,32765
3.06148,1.14415,-0.105811,17,32765
2.98085,1.1028,-0.103763,16,32765
2.94691,1.07919,-0.103399,16,32765
2.95984,1.07284,-0.104322,17,32765
2.91629,1.04622,-0.103318,17,32765
2.88203,1.02323,-0.102524,16,32765
2.92308,1.02695,-0.104696,16,32765
2.8792,1.00099,-0.103625,17,32765
2.87297,0.988367,-0.103733,17,32765
2.90454,0.988704,-0.105052,16,32765
2.83191,0.953868,-0.102665,17,32765
2.86344,0.95405,-0.104389,18,32765
2.86648,0.944852,-0.104669,17,32765
2.85046,0.92953,-0.104132,19,32765
2.77729,0.895957,-0.101486,17,32765
2.83726,0.905355,-0.103477,17,32765
2.80211,0.88393,-0.102323,16,32765
2.73814,0.854127,-0.0997767,16,32765
8.04911,5.95027,-0.0787184,16,32765
7.98039,5.85806,-0.0802223,14,32765
8.02389,5.84937,-0.083322,12,32765
8.1317,5.88807,-0.0876521,13,32765
8.16756,5.87251,-0.0908585,12,32765
8.2769,5.9087,-0.0954095,12,32765
8.41075,5.962,-0.100046,11,32765
8.47138,5.96275,-0.104663,11,32765
8.52347,5.95807,-0.109004,12,32765
8.68271,6.02682,-0.113875,11,32765
8.73531,6.02098,-0.119117,11,32765
0,0,-0,12,32765
0,0,-0,0,32765
0,0,-0,12,32765
0,0,-0,11,32765
0,0,-0,12,32765
0,0,-0,12,32765
0,0,-0,13,32765
0,0,-0,12,32765
0,0,-0,13,32765
0,0,-0,12,32765
4.99433,3.17713,-0.0944855,12,32765
4.97945,3.14448,-0.0970074,13,32765
4.97286,3.11734,-0.098497,14,32765
4.99169,3.10599,-0.101402,15,32765
4.93399,3.04716,-0.102805,16,32765
4.81631,2.95215,-0.102354,16,32765
4.8006,2.92023,-0.104382,16,32765
4.69907,2.83687,-0.104916,18,32765
4.69141,2.81071,-0.10719,19,32765
4.70077,2.79493,-0.109609,18,32765
0,0,-0,16,32765
0,0,-0,19,32765
0,0,-0,16,32765
0,0,-0,16,32765
0,0,-0,16,32765
0,0,-0,16,32765
0,0,-0,17,32765
3.80517,2.12592,-0.10343,16,32765
3.90843,2.1664,-0.108408,17,32765
3.87188,2.1291,-0.108996,16,32765
3.65077,1.99161,-0.104728,17,32765
3.66631,1.98385,-0.106772,18,32765
3.63776,1.95244,-0.107589,17,32765
3.54721,1.88847,-0.10659,18,32765
3.61541,1.90912,-0.110272,17,32765
3.49778,1.832,-0.10885,17,32765
3.49501,1.81558,-0.110345,17,32765
3.38559,1.74418,-0.10823,17,32765
3.38253,1.72812,-0.109919,18,32765
3.37054,1.70751,-0.110844,19,32765
3.24226,1.62878,-0.10838,18,32765
3.22979,1.6089,-0.109503,19,32765
3.22621,1.59352,-0.110649,19,32765
3.15075,1.54299,-0.109623,18,32765
3.10194,1.50616,-0.109402,18,32765
3.15196,1.5174,-0.112354,18,32765
3.05775,1.45948,-0.110229,18,32765
2.97222,1.40651,-0.108283,18,32765
2.95876,1.38807,-0.109132,18,32765
3.02682,1.4075,-0.113415,18,32765
2.90449,1.33864,-0.109392,18,32765
2.89084,1.32035,-0.110024,18,32765
2.86789,1.29825,-0.110595,18,32765
2.77199,1.24341,-0.107822,18,32765
2.83092,1.25838,-0.111168,18,32765
2.86246,1.26107,-0.113648,19,32765
2.77504,1.21148,-0.111183,19,32765
2.7423,1.18642,-0.110811,18,32765
2.69116,1.15348,-0.109681,18,32765
2.74098,1.16393,-0.112612,19,32765
2.68953,1.13156,-0.111356,19,32765
2.6379,1.09953,-0.110146,18,32765
2.66915,1.10233,-0.11221,18,32765
2.63576,1.07832,-0.111697,18,32765
2.59296,1.05087,-0.110586,18,32765
2.60568,1.04595,-0.11178,19,32765
2.55343,1.01508,-0.110148,19,32765
2.61252,1.02859,-0.113331,19,32765
2.56006,0.998039,-0.11184,19,32765
2.55396,0.98603,-0.112335,19,32765
2.56649,0.981194,-0.113416,20,32765
2.56969,0.972716,-0.114139,20,32765
2.51666,0.943343,-0.112266,20,32765
2.51975,0.934988,-0.112998,18,32765
2.5228,0.926633,-0.113807,20,32765
2.50705,0.911433,-0.113465,20,32765
2.47242,0.889624,-0.112321,19,32765
2.53179,0.901563,-0.115359,20,32765
2.45935,0.866604,-0.112631,19,32765
2.47159,0.861836,-0.113594,19,32765
2.4177,0.83422,-0.111372,19,32765
2.47712,0.84572,-0.114236,20,32765
2.42302,0.81857,-0.111922,20,32765
2.43515,0.813763,-0.112952,19,32765
2.40928,0.796513,-0.11187,19,32765
2.37383,0.776401,-0.110241,19,32765
2.37627,0.768865,-0.110354,19,32765
2.42629,0.776515,-0.112483,19,32765
2.45742,0.777497,-0.114014,19,32765
2.4027,0.751711,-0.111268,19,32765
7.96346,5.86465,-0.0358261,13,32765
7.97492,5.83207,-0.045551,12,32765
7.99391,5.80593,-0.0542345,12,32765
8.03737,5.79696,-0.0627475,12,32765
8.15388,5.84039,-0.0710285,12,32765
8.32799,5.92338,-0.0812934,12,32765
8.2088,5.79745,-0.0875788,11,32765
0,0,-0,0,32765
8.57528,5.97123,-0.106794,11,32765
0,0,-0,0,32765
0,0,-0,0,32765
0,0,-0,0,32765
0,0,-0,0,32765
0,0,-0,0,32765
0,0,-0,0,32765
0,0,-0,0,32765
0,0,-0,0,32765
0,0,-0,0,32765
0,0,-0,0,32765
0,0,-0,0,32765
4.97122,3.17574,-0.107817,14,32765
4.86356,3.08407,-0.109064,18,32765
4.63676,2.91881,-0.10672,14,32765
4.70586,2.94023,-0.111741,18,32765
4.5371,2.81394,-0.109927,16,32765
0,0,-0,0,32765
4.32534,2.64275,-0.110619,17,32765
0,0,-0,0,32765
4.03451,2.42797,-0.108709,14,32765
4.06833,2.42979,-0.111544,15,32765
3.99042,2.36509,-0.111799,16,32765
3.86901,2.27566,-0.110725,14,32765
3.69522,2.15688,-0.107727,15,32765
3.78888,2.19456,-0.112546,15,32765
3.75281,2.15696,-0.113424,15,32765
3.66451,2.08975,-0.112864,15,32765
3.59317,2.03305,-0.11274,15,32765
3.41689,1.91818,-0.108893,15,32765
3.41451,1.90184,-0.110806,15,32765
3.42951,1.89529,-0.112931,17,32765
3.32183,1.82134,-0.110893,15,32765
3.34537,1.81982,-0.113482,15,32765
3.3513,1.80875,-0.115241,15,32765
3.26917,1.75034,-0.113808,16,32765
3.24841,1.72543,-0.114492,16,32765
3.25411,1.71454,-0.116262,16,32765
3.13582,1.63869,-0.113618,16,32765
3.16796,1.64178,-0.115991,14,32765
2.96907,1.52581,-0.110062,15,32765
2.9653,1.51113,-0.111147,17,32765
2.92583,1.47838,-0.110942,16,32765
2.92185,1.46393,-0.112187,16,32765
2.89989,1.44066,-0.112764,17,32765
2.94952,1.45292,-0.115919,16,32765
2.89146,1.41232,-0.114903,16,32765
2.80624,1.35895,-0.112682,15,32765
2.78374,1.33646,-0.11296,17,32765
2.77016,1.31847,-0.113053,17,32765
2.75646,1.30058,-0.113722,17,32765
2.66117,1.24477,-0.111102,15,32765
2.64716,1.22739,-0.111753,16,32765
2.66033,1.22259,-0.113203,16,32765
2.60068,1.18471,-0.111883,16,32765
2.60464,1.17588,-0.11303,15,32765
2.59028,1.15895,-0.113433,16,32765
2.57586,1.1421,-0.113896,16,32765
2.56135,1.12537,-0.114087,16,32765
2.51011,1.09281,-0.112808,16,32765
2.50455,1.08038,-0.113686,16,32765
2.37029,1.01309,-0.108424,16,32765
2.51166,1.06346,-0.116336,17,32765
2.44147,1.02409,-0.113833,17,32765
2.38028,0.988994,-0.112048,16,32765
2.39277,0.984807,-0.113668,17,32765
2.31271,0.94292,-0.110805,16,32765
2.35283,0.950213,-0.113594,16,32765
2.28166,0.91283,-0.111263,16,32765
2.3032,0.912627,-0.113148,17,32765
2.30619,0.904885,-0.114248,18,32765
2.2719,0.882711,-0.113559,16,32765
2.25616,0.867875,-0.113763,18,32765
2.25896,0.86041,-0.114796,18,32765
2.27107,0.856489,-0.116559,18,32765
2.19895,0.821102,-0.113622,16,32765
2.18284,0.806941,-0.113817,17,32765
2.14791,0.785989,-0.113076,16,32765
2.08474,0.75502,-0.110428,17,32765
2.14358,0.768341,-0.114582,17,32765
2.06134,0.731158,-0.111265,17,32765
2.14844,0.754255,-0.117107,16,32765
2.07536,0.721034,-0.114046,17,32765
2.05871,0.707894,-0.114099,18,32765
2.07036,0.704527,-0.11556,17,32765
2.04417,0.688249,-0.115216,17,32765
2.01793,0.672057,-0.114885,17,32765
2.03903,0.671643,-0.117314,17,32765
2.01264,0.655784,-0.116752,17,32765
2.00513,0.646382,-0.1173,17,32765
2.02608,0.646202,-0.119699,18,32765
1.90423,0.60082,-0.113657,17,32765
1.89651,0.591842,-0.11438,17,32765
8.06607,5.96009,-0.129584,14,32765
0,0,-0,0,32765
0,0,-0,0,32765
0,0,-0,12,32765
0,0,-0,13,32765
0,0,-0,14,32765
0,0,-0,14,32765
0,0,-0,14,32765
0,0,-0,14,32765
4.57545,3.17449,-0.113067,15,32765
0,0,-0,18,32765
0,0,-0,18,32765
0,0,-0,18,32765
0,0,-0,15,32765
0,0,-0,19,32765
3.95516,2.62787,-0.116127,16,32765
3.93045,2.59262,-0.118365,16,32765
3.8385,2.51398,-0.117975,16,32765
3.72936,2.42501,-0.117235,16,32765
3.60291,2.3259,-0.115667,17,32765
3.70303,2.37336,-0.121383,17,32765
3.47476,2.21064,-0.116384,17,32765
3.52427,2.22577,-0.120051,17,32765
3.40465,2.13419,-0.118385,17,32765
3.39469,2.11229,-0.119608,17,32765
3.22308,1.99057,-0.115987,17,32765
3.12742,1.91706,-0.114271,17,32765
3.22766,1.96371,-0.12031,16,32765
3.02034,1.82356,-0.114373,17,32765
3.06069,1.83393,-0.117286,17,32765
2.98948,1.7776,-0.116289,17,32765
3.00398,1.77261,-0.1186,18,32765
2.91497,1.70697,-0.116588,17,32765
2.86879,1.66702,-0.116265,16,32765
2.82236,1.62742,-0.115796,17,32765
2.83647,1.62278,-0.117952,17,32765
2.78974,1.58356,-0.117565,17,32765
2.795,1.57413,-0.119112,19,32765
2.80021,1.56471,-0.120913,18,32765
2.70048,1.49721,-0.117848,18,32765
2.72293,1.49777,-0.120013,17,32765
2.64013,1.44081,-0.117741,18,32765
2.6712,1.44632,-0.12032,18,32765
2.57915,1.38533,-0.117226,17,32765
2.63659,1.40494,-0.120933,19,32765
2.57056,1.35873,-0.119099,18,32765
2.57509,1.34998,-0.120564,18,32765
2.57078,1.33656,-0.121298,17,32765
2.41546,1.24527,-0.115028,19,32765
2.44634,1.25065,-0.117468,19,32765
2.45058,1.2422,-0.118697,18,32765
2.42797,1.22036,-0.118722,20,32765
2.3784,1.18535,-0.117424,19,32765
2.35548,1.164,-0.117233,18,32765
2.35035,1.15167,-0.117969,19,32765
2.31825,1.12621,-0.117284,18,32765
2.277,1.09666,-0.116128,18,32765
2.30771,1.10185,-0.118194,18,32765
2.27526,1.07694,-0.117511,19,32765
2.23358,1.04808,-0.116426,19,32765
2.25516,1.04895,-0.11857,19,32765
2.23145,1.02874,-0.11804,19,32765
2.20756,1.00882,-0.117778,18,32765
2.22912,1.00954,-0.119732,19,32765
2.17779,0.977477,-0.117806,19,32765
2.18103,0.970099,-0.118877,19,32765
2.15683,0.950643,-0.118229,19,32765
2.13251,0.931364,-0.117718,18,32765
2.15392,0.932077,-0.119841,18,32765
2.14781,0.920907,-0.120226,19,32765
2.13247,0.905769,-0.120567,19,32765
2.12627,0.8947,-0.120838,19,32765
2.08314,0.868277,-0.119294,19,32765
2.14137,0.884132,-0.123525,19,32765
2.0703,0.846764,-0.120241,19,32765
1.99901,0.809883,-0.116812,18,32765
2.02939,0.814483,-0.119546,20,32765
2.01348,0.800362,-0.119313,20,32765
2.02539,0.797232,-0.120832,20,32765
2.00008,0.779571,-0.120187,19,32765
2.00264,0.772807,-0.121196,20,32765
1.93986,0.741218,-0.11814,19,32765
2.01693,0.763069,-0.12383,20,32765
1.97262,0.738938,-0.121772,19,32765
1.90946,0.708133,-0.118751,19,32765
1.95859,0.718999,-0.12277,19,32765
1.90464,0.691997,-0.119986,19,32765
1.88807,0.678923,-0.119836,20,32765
1.90906,0.679314,-0.122147,19,32765
1.84528,0.649904,-0.119027,19,32765
1.81906,0.63402,-0.118125,19,32765
1.84932,0.637944,-0.120942,20,32765
1.81352,0.619116,-0.119297,19,32765
1.82491,0.61641,-0.121026,20,32765
1.77953,0.594576,-0.119012,20,32765
1.82878,0.604343,-0.12339,20,32765
1.77375,0.579823,-0.120503,20,32765
1.75651,0.568081,-0.120178,20,32765
1.78671,0.571717,-0.123263,20,32765
1.75987,0.557088,-0.122465,19,32765
1.76154,0.551526,-0.123666,20,32765
0,0,-0,0,32765
0,0,-0,15,32765
0,0,-0,0,32765
0,0,-0,15,32765
0,0,-0,0,32765
0,0,-0,14,32765
0,0,-0,14,32765
0,0,-0,14,32765
0,0,-0,14,32765
0,0,-0,16,32765
0,0,-0,14,32765
0,0,-0,15,32765
3.43215,2.32994,-0.119437,14,32765
3.58901,2.41907,-0.1264,14,32765
3.35613,2.24581,-0.119767,15,32765
3.3221,2.20665,-0.120206,14,32765
3.34617,2.2064,-0.122615,15,32765
3.27832,2.14573,-0.121874,15,32765
3.25185,2.11304,-0.122194,14,32765
3.20004,2.06421,-0.121871,16,32765
3.09744,1.98343,-0.119338,15,32765
3.06181,1.94627,-0.11932,15,32765
3.12738,1.97339,-0.12342,16,32765
2.97288,1.86222,-0.11908,15,32765
2.99603,1.86278,-0.12138,14,32765
2.92565,1.80549,-0.11989,14,32765
2.95723,1.81126,-0.122577,16,32765
2.89489,1.75982,-0.121448,15,32765
2.81512,1.69852,-0.11937,15,32765
2.74359,1.64281,-0.11783,16,32765
2.75768,1.63859,-0.119572,15,32765
2.78035,1.63941,-0.122132,16,32765
2.63915,1.54425,-0.117228,15,32765
2.66153,1.54544,-0.119558,16,32765
2.60607,1.50149,-0.118497,16,32765
2.62841,1.50259,-0.12077,16,32765
2.58997,1.469,-0.120505,17,32765
2.56008,1.44052,-0.120384,16,32765
2.54746,1.42204,-0.121009,16,32765
2.56091,1.41829,-0.122897,17,32765
2.46049,1.35197,-0.119366,17,32765
2.31582,1.26241,-0.113596,15,32765
2.3815,1.28789,-0.117912,16,32765
2.36815,1.27042,-0.11833,16,32765
2.35471,1.25303,-0.11897,16,32765
2.33245,1.23091,-0.119006,17,32765
2.3366,1.22288,-0.120285,17,32765
2.22545,1.15504,-0.115639,16,32765
2.29142,1.17955,-0.120268,15,32765
2.25974,1.15365,-0.119534,17,32765
2.19226,1.10989,-0.117122,17,32765
2.22276,1.11582,-0.119804,16,32765
2.155,1.07256,-0.117032,16,32765
2.1765,1.07405,-0.119093,17,32765
2.11723,1.036,-0.116839,17,32765
2.12065,1.02886,-0.117917,16,32765
2.12404,1.02169,-0.119175,18,32765
2.07331,0.98873,-0.117404,16,32765
2.05855,0.973153,-0.11731,16,32765
2.06176,0.966229,-0.11818,16,32765
2.05585,0.955142,-0.118702,16,32765
2.11335,0.973421,-0.122884,16,32765
2.02566,0.92496,-0.118483,16,32765
2.00141,0.905793,-0.117848,17,32765
1.94978,0.874434,-0.115436,17,32765
1.97096,0.875843,-0.117575,17,32765
1.99213,0.87721,-0.119592,18,32765
1.99504,0.870456,-0.120442,16,32765
1.96122,0.847957,-0.119074,18,32765
1.94565,0.83352,-0.118717,17,32765
1.93005,0.819074,-0.118449,17,32765
1.96038,0.824116,-0.121082,16,32765
1.90782,0.794463,-0.11809,17,32765
1.94732,0.803327,-0.12132,18,32765
1.89445,0.774272,-0.118611,17,32765
1.89696,0.76799,-0.119259,17,32765
1.92725,0.772845,-0.121711,18,32765
1.8741,0.744322,-0.118816,17,32765
1.86725,0.734401,-0.118881,17,32765
1.89756,0.739045,-0.121114,17,32765
1.8534,0.714788,-0.118721,17,32765
1.85569,0.708721,-0.119255,18,32765
1.8393,0.695559,-0.118613,17,32765
1.82285,0.68251,-0.11783,17,32765
1.83442,0.679965,-0.119004,16,32765
1.88347,0.691112,-0.122493,18,32765
1.82943,0.664411,-0.119386,17,32765
1.8316,0.658316,-0.119786,18,32765
1.85252,0.659047,-0.121427,18,32765
1.78875,0.629761,-0.117436,16,32765
1.83792,0.640284,-0.120729,17,32765
1.83996,0.634326,-0.121226,19,32765
1.81365,0.618663,-0.119637,18,32765
1.81561,0.612834,-0.119911,17,32765
1.79866,0.600628,-0.118659,19,32765
1.83849,0.607312,-0.121371,17,32765
1.82149,0.595052,-0.120299,19,32765
1.77595,0.5737,-0.117281,17,32765
1.78732,0.570948,-0.117924,18,32765
1.80816,0.571255,-0.119209,18,32765
1.78137,0.556691,-0.11707,17,32765
3.00995,2.2331,-0.126212,15,32765
2.94514,2.16941,-0.124188,15,32765
3.02523,2.21225,-0.12825,16,32765
2.9437,2.1374,-0.12567,15,32765
2.90215,2.09245,-0.124772,15,32765
2.90096,2.07692,-0.125538,15,32765
2.85074,2.02676,-0.124761,16,32765
2.80845,1.98264,-0.123907,17,32765
2.82325,1.97889,-0.125389,17,32765
2.78881,1.94085,-0.124926,17,32765
2.68835,1.85765,-0.121803,16,32765
2.74388,1.88264,-0.125277,17,32765
2.8079,1.91284,-0.129429,17,32765
2.65694,1.79709,-0.123521,17,32765
2.6712,1.79371,-0.125371,17,32765
2.65232,1.7679,-0.125742,18,32765
2.60824,1.72581,-0.124791,17,32765
2.62239,1.72237,-0.126803,18,32765
2.536,1.65359,-0.123586,18,32765
2.5163,1.62877,-0.123847,18,32765
2.52168,1.62032,-0.125175,19,32765
2.46807,1.57426,-0.123552,18,32765
2.43948,1.54462,-0.123273,18,32765
2.40222,1.50993,-0.12276,18,32765
2.36484,1.47539,-0.121882,17,32765
2.37822,1.47268,-0.123629,18,32765
2.34057,1.43847,-0.122724,18,32765
2.3112,1.40979,-0.122299,17,32765
2.27311,1.37618,-0.121261,17,32765
2.32049,1.3942,-0.125004,19,32765
2.29942,1.37095,-0.12477,18,32765
2.20941,1.30719,-0.121096,17,32765
2.20512,1.29467,-0.121902,17,32765
2.21802,1.29229,-0.123686,18,32765
2.14449,1.23975,-0.120721,17,32765
2.13129,1.22253,-0.120955,19,32765
2.14404,1.2202,-0.122881,19,32765
2.08727,1.17845,-0.120623,18,32765
2.10865,1.18106,-0.122827,18,32765
2.11255,1.17394,-0.124046,19,32765
2.06394,1.1379,-0.122234,18,32765
2.10273,1.15011,-0.125628,19,32765
2.02752,1.10016,-0.12203,17,32765
2.01358,1.08384,-0.122073,18,32765
2.04358,1.09113,-0.124994,19,32765
2.01197,1.06536,-0.124026,18,32765
2.01557,1.05841,-0.125133,18,32765
1.97484,1.02842,-0.123525,18,32765
1.96048,1.01259,-0.123622,18,32765
1.93718,0.992293,-0.122916,19,32765
1.92265,0.976665,-0.122978,19,32765
1.93484,0.974549,-0.124642,19,32765
1.90241,0.950019,-0.123298,18,32765
1.8698,0.925794,-0.121921,18,32765
1.837,0.901888,-0.120612,17,32765
1.83997,0.895674,-0.12155,18,32765
1.82494,0.880764,-0.121448,18,32765
1.86385,0.891818,-0.124975,18,32765
1.8578,0.881193,-0.125211,18,32765
1.77038,0.832455,-0.119882,18,32765
1.86356,0.868701,-0.126944,18,32765
1.78482,0.824848,-0.122283,18,32765
1.77841,0.814776,-0.12243,19,32765
1.81744,0.825282,-0.125803,18,32765
1.7929,0.806765,-0.124655,19,32765
1.84117,0.820906,-0.128813,19,32765
1.77999,0.786417,-0.12518,19,32765
1.76432,0.772362,-0.12465,19,32765
1.75768,0.762494,-0.124762,19,32765
1.73268,0.744764,-0.123487,19,32765
1.73516,0.73883,-0.124256,18,32765
1.756,0.740666,-0.126416,19,32765
1.72164,0.719329,-0.124148,20,32765
1.74242,0.721201,-0.126327,20,32765
1.71703,0.704108,-0.124995,19,32765
1.6731,0.679624,-0.122208,19,32765
1.68456,0.677783,-0.123503,19,32765
1.71458,0.683241,-0.126104,20,32765
1.72609,0.681153,-0.127393,20,32765
1.68187,0.657228,-0.124376,19,32765
1.69331,0.655232,-0.125591,19,32765
1.74199,0.667521,-0.129545,20,32765
1.65087,0.62639,-0.123119,19,32765
1.67158,0.627962,-0.124898,19,32765
1.66425,0.618954,-0.124719,19,32765
1.68498,0.620348,-0.126528,19,32765
1.62139,0.590828,-0.122095,19,32765
1.65148,0.595563,-0.124576,19,32765
1.67217,0.596881,-0.126365,19,32765
1.60827,0.568118,-0.121688,18,32765
1.6572,0.57926,-0.125431,19,32765
1.66847,0.577133,-0.126597,20,32765
1.66089,0.568451,-0.126135,19,32765
1.61546,0.547101,-0.122797,19,32765
1.61723,0.541851,-0.122797,19,32765
1.61897,0.536588,-0.122987,19,32765
1.61124,0.528129,-0.122427,20,32765
1.62246,0.525871,-0.123254,19,32765
1.63366,0.523612,-0.123991,19,32765
1.56877,0.497285,-0.118973,20,32765
1.61792,0.507305,-0.122346,19,32765
0,0,-0,14,32765
0,0,-0,14,32765
3.13391,2.28421,-0.124003,14,32765
3.21422,2.32654,-0.13004,15,32765
3.01088,2.16406,-0.12457,14,32765
2.97732,2.12489,-0.126543,15,32765
2.87836,2.0397,-0.124785,15,32765
2.78695,1.96109,-0.123159,15,32765
2.71952,1.90041,-0.122583,16,32765
2.64358,1.83442,-0.121596,14,32765
2.68247,1.84831,-0.125315,14,32765
2.62255,1.79418,-0.124658,15,32765
2.65331,1.80212,-0.128167,14,32765
2.63435,1.77648,-0.12927,16,32765
2.5239,1.68989,-0.125586,16,32765
2.36302,1.57085,-0.119015,14,32765
2.39314,1.57948,-0.122652,15,32765
2.40669,1.57693,-0.124629,16,32765
2.32815,1.51432,-0.122275,16,32765
2.32478,1.50101,-0.123499,16,32765
2.20361,1.41225,-0.118607,15,32765
2.23352,1.42094,-0.121661,14,32765
2.25503,1.42417,-0.12441,16,32765
2.18352,1.36889,-0.12163,16,32765
2.23035,1.38802,-0.125836,16,32765
2.20943,1.36476,-0.125971,16,32765
2.12877,1.30511,-0.122569,16,32765
2.12458,1.29269,-0.123252,16,32765
2.09468,1.26481,-0.1228,16,32765
2.09887,1.2577,-0.124166,16,32765
2.06015,1.22502,-0.122964,17,32765
2.02118,1.19268,-0.121769,16,32765
2.0165,1.18082,-0.122444,16,32765
2.02035,1.17409,-0.123626,16,32765
1.98963,1.1473,-0.122748,16,32765
2.00209,1.14553,-0.124464,15,32765
1.94507,1.10427,-0.121953,16,32765
1.91395,1.07805,-0.120897,16,32765
1.96108,1.09595,-0.124663,16,32765
1.9123,1.06029,-0.122475,16,32765
1.90703,1.04905,-0.122949,15,32765
1.89295,1.0331,-0.122759,17,32765
1.87881,1.01716,-0.122705,17,32765
1.891,1.01546,-0.124327,16,32765
1.89437,1.00905,-0.125252,17,32765
1.85356,0.979334,-0.123432,17,32765
1.84793,0.968482,-0.123686,16,32765
1.83338,0.953073,-0.123542,16,32765
1.73895,0.896532,-0.11786,16,32765
1.73311,0.885956,-0.118009,16,32765
1.87856,0.952123,-0.128768,17,32765
1.73019,0.869385,-0.1192,16,32765
1.78673,0.890103,-0.123751,17,32765
1.75385,0.866424,-0.122157,16,32765
1.72984,0.847294,-0.121062,16,32765
1.7416,0.845805,-0.122616,16,32765
1.7264,0.831259,-0.12228,16,32765
1.72017,0.821063,-0.122305,16,32765
1.70484,0.806724,-0.121796,16,32765
1.74365,0.817871,-0.125236,17,32765
1.6468,0.765697,-0.118956,15,32765
1.69464,0.780997,-0.123093,16,32765
1.66999,0.762809,-0.121837,17,32765
1.70888,0.773615,-0.125152,17,32765
1.64769,0.739236,-0.121473,17,32765
1.641,0.729618,-0.121581,17,32765
1.65254,0.728039,-0.123168,17,32765
1.67321,0.730453,-0.125341,17,32765
1.62065,0.701085,-0.121987,17,32765
1.68713,0.723115,-0.12765,17,32765
1.68949,0.717438,-0.128436,17,32765
1.66427,0.700123,-0.127057,17,32765
1.64817,0.686739,-0.126606,17,32765
1.59507,0.658395,-0.123143,17,32765
1.54185,0.630299,-0.119708,17,32765
1.5254,0.617648,-0.119073,16,32765
1.55516,0.623713,-0.121933,16,32765
1.51082,0.60012,-0.119113,16,32765
1.60552,0.631703,-0.127159,17,32765
1.59823,0.622777,-0.127277,18,32765
1.59092,0.61389,-0.127349,17,32765
1.5463,0.590816,-0.124412,17,32765
1.52023,0.575073,-0.122905,18,32765
1.50338,0.563046,-0.122234,17,32765
1.49583,0.554548,-0.12234,17,32765
1.4976,0.549579,-0.12311,17,32765
1.49935,0.544572,-0.124025,17,32765
1.51047,0.542972,-0.12554,19,32765
1.47461,0.524622,-0.12327,18,32765
1.4951,0.526305,-0.125657,18,32765
1.48733,0.518104,-0.12579,18,32765
1.46069,0.503474,-0.124132,18,32765
1.41506,0.482675,-0.12097,17,32765
1.47318,0.497294,-0.126704,18,32765
1.44633,0.483091,-0.125138,17,32765
1.40995,0.465913,-0.122713,17,32765
1.4682,0.479933,-0.128609,19,32765
1.41277,0.456772,-0.124616,17,32765
1.44259,0.461405,-0.128177,18,32765
1.37746,0.435794,-0.123271,18,32765
1.40725,0.440385,-0.126951,18,32765
2.60829,1.93469,-0.127663,17,32765
2.58243,1.90223,-0.128991,17,32765
2.54019,1.85825,-0.129857,17,32765
2.40881,1.74995,-0.125224,17,32765
2.44699,1.7652,-0.129387,16,32765
2.34719,1.6813,-0.126702,17,32765
2.32019,1.65017,-0.12716,17,32765
2.28477,1.61359,-0.12708,16,32765
2.25723,1.58311,-0.12749,17,32765
2.19678,1.52993,-0.126047,17,32765
2.20176,1.5226,-0.127865,16,32765
2.0997,1.4417,-0.123604,17,32765
2.13749,1.45706,-0.127428,17,32765
2.10916,1.42749,-0.127306,18,32765
2.11381,1.42045,-0.128992,17,32765
2.0603,1.37458,-0.12693,17,32765
2.04811,1.35665,-0.127948,18,32765
2.02754,1.3333,-0.127698,17,32765
1.99848,1.30459,-0.127295,18,32765
1.98605,1.28693,-0.127655,17,32765
1.96513,1.26395,-0.127645,18,32765
1.95244,1.24659,-0.128041,18,32765
1.98178,1.25611,-0.131309,18,32765
1.90983,1.20161,-0.127521,17,32765
1.85444,1.15823,-0.125112,18,32765
1.90916,1.18352,-0.129901,18,32765
1.87055,1.15091,-0.128287,18,32765
1.8829,1.14974,-0.129913,18,32765
1.80988,1.09676,-0.125946,17,32765
1.83918,1.10603,-0.128929,18,32765
1.8343,1.09462,-0.129519,19,32765
1.78637,1.05788,-0.127099,18,32765
1.83289,1.07713,-0.131243,20,32765
1.80191,1.05088,-0.129836,18,32765
1.79675,1.03977,-0.130334,19,32765
1.79153,1.0287,-0.130768,18,32765
1.76889,1.00782,-0.130024,18,32765
1.72881,0.977224,-0.127853,18,32765
1.71463,0.961617,-0.127462,18,32765
1.73523,0.965521,-0.12979,18,32765
1.70346,0.940384,-0.128107,18,32765
1.7328,0.94904,-0.13094,19,32765
1.7184,0.93361,-0.130611,19,32765
1.6776,0.904054,-0.128212,18,32765
1.6894,0.903054,-0.129711,19,32765
1.69237,0.897327,-0.130712,19,32765
1.66883,0.877701,-0.129433,19,32765
1.63632,0.853628,-0.127624,18,32765
1.65687,0.857224,-0.129848,19,32765
1.65978,0.851458,-0.130569,20,32765
1.64488,0.836621,-0.130118,20,32765
1.6032,0.808408,-0.127352,18,32765
1.60593,0.802847,-0.128132,19,32765
1.6443,0.815162,-0.131807,20,32765
1.60226,0.787559,-0.128946,18,32765
1.56002,0.760278,-0.126176,18,32765
1.6164,0.781024,-0.131399,19,32765
1.59203,0.762562,-0.129825,19,32765
1.58553,0.752898,-0.129811,18,32765
1.56095,0.734744,-0.128372,18,32765
1.56337,0.72945,-0.129189,19,32765
1.57482,0.728321,-0.130746,18,32765
1.55004,0.710496,-0.129161,19,32765
1.53423,0.696986,-0.128251,18,32765
1.50924,0.679492,-0.126875,19,32765
1.52057,0.678443,-0.128364,19,32765
1.52281,0.673238,-0.129206,19,32765
1.49762,0.65609,-0.127614,19,32765
1.5089,0.655031,-0.129098,18,32765
1.51104,0.649915,-0.129851,19,32765
1.46731,0.625275,-0.126601,19,32765
1.47855,0.624178,-0.128029,19,32765
1.48981,0.622936,-0.129688,19,32765
1.48262,0.614127,-0.129615,19,32765
1.42931,0.586349,-0.125562,19,32765
1.46814,0.596555,-0.129573,19,32765
1.47006,0.591659,-0.130232,20,32765
1.45344,0.579365,-0.129374,19,32765
1.41819,0.559967,-0.126731,20,32765
1.44782,0.566155,-0.129991,21,32765
1.43104,0.554147,-0.129056,20,32765
1.4142,0.542251,-0.128102,19,32765
1.4532,0.551664,-0.132183,20,32765
1.41764,0.532819,-0.129584,19,32765
1.37266,0.510691,-0.126118,18,32765
1.39298,0.513004,-0.128552,19,32765
1.34782,0.491275,-0.125062,19,32765
1.38686,0.500315,-0.129217,19,32765
1.37905,0.492377,-0.12914,19,32765
1.36184,0.481111,-0.128128,19,32765
1.35394,0.473328,-0.128086,19,32765
1.34601,0.465613,-0.127871,19,32765
1.32859,0.454809,-0.126875,19,32765
1.32996,0.450566,-0.127685,20,32765
1.31244,0.439954,-0.126665,19,32765
1.31378,0.435704,-0.127455,19,32765
