x, y, z, intensity, ring
3.14007,1.45268,-0.0363136,17,32765
3.08132,1.41288,-0.036918,16,32765
3.12243,1.41909,-0.038823,18,32765
3.12719,1.40852,-0.0403758,17,32765
3.18665,1.42252,-0.0425756,19,32765
3.09992,1.37143,-0.0425617,18,32765
3.10452,1.36093,-0.0438401,18,32765
3.09067,1.34262,-0.0450695,19,32765
3.05842,1.31639,-0.0460138,18,32765
3.09035,1.31797,-0.0479216,19,32765
3.09472,1.30761,-0.0495079,18,32765
3.0991,1.29716,-0.0506973,18,32765
3.13111,1.29826,-0.0526876,16,32765
3.14469,1.29149,-0.0543814,18,32765
3.01931,1.22821,-0.0535034,18,32765
3.06971,1.23688,-0.055626,18,32765
3.03663,1.21184,-0.0566281,17,32765
3.07773,1.21665,-0.0585526,18,32765
3.02588,1.18451,-0.0591388,18,32765
2.95511,1.14575,-0.0590407,17,32765
3.01482,1.15756,-0.0618225,17,32765
3.08403,1.17245,-0.0644918,18,32765
3.02236,1.13759,-0.0645656,17,32765
3.04481,1.13455,-0.0663576,18,32765
2.98281,1.10036,-0.0666127,17,32765
2.9864,1.0905,-0.0679853,18,32765
2.97115,1.07383,-0.0691436,18,32765
3.08753,1.10464,-0.0731944,20,32765
3.08169,1.09111,-0.074596,18,32765
3.03799,1.06461,-0.074959,19,32765
2.99416,1.03838,-0.0753954,17,32765
2.93126,1.006,-0.0753092,18,32765
2.91547,0.990254,-0.0763552,18,32765
2.93756,0.987204,-0.078685,19,32765
2.95014,0.980985,-0.0804145,19,32765
2.99123,0.983943,-0.0832318,19,32765
2.95629,0.961979,-0.0839919,19,32765
2.91164,0.937453,-0.0845051,18,32765
2.89546,0.922254,-0.0858143,18,32765
1.00107,0.315345,-0.0303145,15,32765
0.925711,0.288332,-0.0286837,16,32765
3.57388,2.63395,0.0568927,18,32765
3.54227,2.59263,0.0520743,17,32765
3.54274,2.57508,0.0483309,18,32765
3.52702,2.54571,0.0442715,18,32765
3.47857,2.49326,0.040492,18,32765
3.49509,2.48739,0.0368774,18,32765
3.50339,2.47572,0.0340505,19,32765
3.47889,2.44109,0.0303799,19,32765
3.46242,2.41233,0.0270114,19,32765
3.44562,2.38395,0.0243111,18,32765
3.51109,2.41234,0.0218829,19,32765
3.39511,2.31625,0.0183336,19,32765
3.4027,2.30511,0.015346,18,32765
3.4438,2.31572,0.0128789,18,32765
3.40166,2.27084,0.00999632,18,32765
3.50935,2.32561,0.00774494,19,32765
3.43347,2.25906,0.00494299,19,32765
3.3822,2.20959,0.00250169,20,32765
3.40629,2.20925,0.000176703,19,32765
3.42192,2.20349,-0.00213626,20,32765
3.41247,2.18117,-0.00458193,20,32765
3.32687,2.11081,-0.00688371,19,32765
3.33391,2.09966,-0.00895248,20,32765
3.27305,2.04613,-0.010859,19,32765
3.34772,2.07755,-0.0134357,20,32765
3.37162,2.07691,-0.0156807,20,32765
3.33582,2.03963,-0.0174854,21,32765
3.36824,2.04406,-0.0197656,20,32765
3.35797,2.02237,-0.0217315,20,32765
3.30464,1.97517,-0.0234979,20,32765
3.25107,1.92829,-0.0250169,19,32765
3.28342,1.9325,-0.0270605,21,32765
3.25526,1.90141,-0.0287354,20,32765
3.27017,1.89563,-0.030819,21,32765
3.30243,1.89973,-0.0330371,20,32765
3.24799,1.85392,-0.0340644,20,32765
3.24551,1.838,-0.0359353,20,32765
3.21688,1.80732,-0.0369662,21,32765
3.22297,1.7964,-0.0387621,20,32765
3.15013,1.74215,-0.0394153,19,32765
3.19102,1.75079,-0.0415331,19,32765
3.21437,1.74973,-0.0433513,20,32765
3.21139,1.73421,-0.0449156,20,32765
3.18194,1.70448,-0.0462072,20,32765
3.21409,1.7079,-0.0477944,20,32765
3.19325,1.68311,-0.049121,19,32765
3.17219,1.65862,-0.0512528,21,32765
3.16881,1.64342,-0.0524406,22,32765
3.17432,1.63268,-0.0540705,21,32765
3.15307,1.60831,-0.0555094,21,32765
3.14072,1.58841,-0.0567427,20,32765
3.12826,1.56864,-0.0578537,20,32765
3.12462,1.5535,-0.0589636,20,32765
3.14779,1.55171,-0.0609822,20,32765
3.12595,1.52806,-0.0624099,20,32765
3.13102,1.51756,-0.0643015,20,32765
3.09101,1.48539,-0.0645539,19,32765
3.07799,1.46622,-0.0652851,19,32765
3.17342,1.49836,-0.0666751,20,32765
3.11501,1.45802,-0.0671101,21,32765
3.11084,1.44324,-0.0681388,20,32765
3.1066,1.42851,-0.0692936,20,32765
3.12045,1.4222,-0.0709681,21,32765
3.07966,1.39104,-0.0714661,21,32765
3.02039,1.35212,-0.0714048,20,32765
3.03401,1.34607,-0.0728042,20,32765
3.05683,1.34381,-0.0745047,20,32765
3.01543,1.31364,-0.0748443,19,32765
3.029,1.30741,-0.0765399,20,32765
3.0425,1.30123,-0.078245,21,32765
3.0284,1.2832,-0.0793275,20,32765
3.01426,1.26521,-0.0800052,21,32765
3.03691,1.26276,-0.0819889,20,32765
2.98566,1.22964,-0.0819572,20,32765
3.03601,1.23849,-0.0845976,20,32765
2.9752,1.20218,-0.0840568,21,32765
2.96058,1.18482,-0.0851683,20,32765
3.01086,1.19357,-0.087711,19,32765
3.05201,1.19812,-0.0904584,21,32765
3.01859,1.17367,-0.0907448,22,32765
2.97573,1.14579,-0.0909897,21,32765
3.0075,1.14659,-0.0931446,22,32765
2.96448,1.11896,-0.093115,21,32765
2.96814,1.10911,-0.0944748,20,32765
2.91546,1.07856,-0.0943354,21,32765
2.90959,1.06546,-0.0953718,21,32765
3.00702,1.08987,-0.100056,21,32765
2.91641,1.04638,-0.0982777,22,32765
2.92922,1.04007,-0.100141,21,32765
2.93253,1.03057,-0.101595,21,32765
2.94524,1.02432,-0.103498,23,32765
2.93903,1.01153,-0.104752,23,32765
2.9611,1.00862,-0.106984,21,32765
2.90746,0.979881,-0.10675,22,32765
2.92001,0.973742,-0.108561,22,32765
2.93257,0.967411,-0.110663,22,32765
2.9546,0.964185,-0.113198,23,32765
2.88144,0.930395,-0.112132,23,32765
2.88428,0.921337,-0.113989,21,32765
0.952849,0.301022,-0.0382629,15,32765
0.944252,0.294958,-0.0385734,18,32765
3.58252,2.63969,0.00640029,15,32765
3.54294,2.59223,0.00526948,16,32765
3.54336,2.57468,0.00400306,15,32765
3.49483,2.52235,0.00248152,17,32765
3.4382,2.46407,0.001166,15,32765
3.35689,2.38866,-0.000300441,15,32765
3.44649,2.43519,-0.0016628,14,32765
3.39724,2.38353,-0.00328557,15,32765
3.46239,2.41251,-0.0049336,17,32765
3.42097,2.36696,-0.00607433,16,32765
3.41221,2.34442,-0.00791819,17,32765
3.41167,2.32752,-0.00924254,17,32765
3.38637,2.29357,-0.0115018,17,32765
3.39412,2.28207,-0.0130257,17,32765
3.41857,2.28151,-0.0145307,17,32765
3.41794,2.26438,-0.016423,16,32765
3.42537,2.25311,-0.0181476,17,32765
3.37419,2.20348,-0.0196473,16,32765
3.34791,2.17052,-0.0214191,16,32765
3.32991,2.14307,-0.0230187,17,32765
3.34547,2.13732,-0.0247314,16,32765
3.37794,2.14215,-0.0265379,17,32765
3.31731,2.08831,-0.0280006,17,32765
3.34114,2.08794,-0.0293601,17,32765
3.32257,2.06098,-0.0309529,17,32765
3.34647,2.06032,-0.0329929,17,32765
3.2851,2.00736,-0.033822,17,32765
3.28329,1.99106,-0.0354872,17,32765
3.25567,1.9594,-0.037155,16,32765
3.28798,1.96381,-0.0393046,16,32765
3.25151,1.92728,-0.0404599,16,32765
3.20627,1.88588,-0.0414447,16,32765
3.1608,1.84477,-0.0423126,17,32765
3.33139,1.92929,-0.0462775,18,32765
3.25986,1.87315,-0.0469978,17,32765
3.22268,1.83741,-0.0483171,16,32765
3.22876,1.82668,-0.049908,17,32765
3.16507,1.77671,-0.0504722,17,32765
3.24081,1.8051,-0.053352,17,32765
3.20307,1.77002,-0.0545695,18,32765
3.17392,1.73999,-0.0554447,18,32765
3.12699,1.70069,-0.0563575,17,32765
3.18556,1.71847,-0.0588594,17,32765
3.22661,1.72651,-0.0611388,17,32765
3.0734,1.63127,-0.0597444,16,32765
3.07002,1.61622,-0.0611192,16,32765
3.15516,1.64754,-0.064822,17,32765
3.15177,1.63232,-0.066232,17,32765
3.13946,1.6125,-0.0672697,18,32765
3.09142,1.57462,-0.0679259,17,32765
3.08781,1.55956,-0.069103,16,32765
3.1109,1.55808,-0.0713548,17,32765
3.08923,1.53425,-0.0723806,17,32765
3.00468,1.47963,-0.0716287,16,32765
3.09947,1.51331,-0.0754745,17,32765
3.07751,1.4898,-0.0764539,16,32765
3.03738,1.45785,-0.0766497,18,32765
3.1415,1.49495,-0.080592,16,32765
3.09218,1.45889,-0.0805573,16,32765
3.01549,1.41044,-0.0799698,17,32765
3.05648,1.41703,-0.0828922,17,32765
3.07033,1.41083,-0.0839077,17,32765
3.1115,1.41687,-0.0863132,17,32765
2.97951,1.34474,-0.0841947,17,32765
3.00231,1.3427,-0.0858861,17,32765
2.99765,1.32851,-0.0869115,17,32765
3.0386,1.33466,-0.0894586,18,32765
3.00634,1.30854,-0.0896401,18,32765
3.02897,1.30652,-0.0913941,19,32765
2.97819,1.27268,-0.0909391,17,32765
2.98241,1.26267,-0.0920883,18,32765
2.97733,1.24891,-0.09292,17,32765
3.03681,1.26202,-0.0958839,16,32765
2.94845,1.21404,-0.0939708,17,32765
3.01721,1.23069,-0.0972205,18,32765
3.049,1.23201,-0.0991095,20,32765
2.92313,1.16988,-0.0957857,17,32765
2.9177,1.15644,-0.0963412,15,32765
2.94938,1.15776,-0.0981385,18,32765
2.94389,1.14426,-0.0988944,18,32765
2.97557,1.14538,-0.100881,18,32765
2.97928,1.13562,-0.101657,18,32765
2.88947,1.09051,-0.0992803,18,32765
2.97722,1.11266,-0.102899,18,32765
2.94336,1.08893,-0.102458,18,32765
2.95629,1.08263,-0.103729,19,32765
2.92225,1.05922,-0.102997,19,32765
2.9257,1.04959,-0.103651,19,32765
2.93854,1.0433,-0.104535,19,32765
2.92308,1.02695,-0.104696,19,32765
3.00192,1.04365,-0.108042,18,32765
2.88242,0.991618,-0.104074,19,32765
2.87615,0.979042,-0.104025,19,32765
2.89821,0.976199,-0.105069,18,32765
2.91085,0.969845,-0.106118,19,32765
2.90445,0.957367,-0.106055,18,32765
2.86946,0.935727,-0.104826,20,32765
2.91045,0.938914,-0.106352,20,32765
2.93247,0.935736,-0.10695,19,32765
0.991221,0.312683,-0.0361961,14,32765
0.915894,0.285701,-0.0333748,16,32765
3.40137,2.51445,-0.0332646,19,32765
3.32113,2.4379,-0.0333855,18,32765
3.36147,2.45049,-0.0349063,17,32765
3.36931,2.43968,-0.036318,17,32765
3.33685,2.39921,-0.0371201,18,32765
3.35308,2.39369,-0.0386516,19,32765
3.34472,2.37092,-0.0397856,18,32765
3.28716,2.31373,-0.0406125,19,32765
3.30284,2.30875,-0.0422389,18,32765
3.34329,2.32064,-0.0438478,19,32765
3.34264,2.30398,-0.0455812,21,32765
3.29246,2.25337,-0.0460979,20,32765
3.31657,2.25346,-0.0486356,19,32765
3.33248,2.24776,-0.0502594,20,32765
3.29864,2.20846,-0.0510312,19,32765
3.28944,2.18616,-0.0526353,19,32765
3.28828,2.16977,-0.0541635,19,32765
3.29543,2.15885,-0.0559365,20,32765
3.31933,2.15877,-0.0581764,19,32765
3.25091,2.09882,-0.0585788,20,32765
3.21581,2.06094,-0.0594179,19,32765
3.22269,2.05011,-0.0609687,21,32765
3.30555,2.08742,-0.0643971,20,32765
3.27006,2.0499,-0.0647697,21,32765
3.25988,2.0284,-0.0662217,20,32765
3.22411,1.99116,-0.0671777,21,32765
3.18814,1.95417,-0.0677531,20,32765
3.21179,1.95375,-0.0698356,20,32765
3.18407,1.92225,-0.0710905,20,32765
3.23339,1.93718,-0.0738766,20,32765
3.17109,1.88542,-0.0739412,19,32765
3.16019,1.86452,-0.0751491,20,32765
3.14922,1.84367,-0.0762753,19,32765
3.17269,1.84304,-0.0783822,20,32765
3.14425,1.81227,-0.079271,20,32765
3.11558,1.7818,-0.0802819,19,32765
3.18233,1.80594,-0.08342,19,32765
3.12735,1.76092,-0.0834501,20,32765
3.10698,1.73585,-0.0844518,20,32765
3.15648,1.7496,-0.0875509,20,32765
3.08349,1.69557,-0.0868024,20,32765
3.12421,1.70436,-0.0896234,20,32765
3.09483,1.67461,-0.0901287,20,32765
3.10927,1.66879,-0.091959,20,32765
3.10602,1.65359,-0.0933324,20,32765
3.13807,1.65706,-0.095713,21,32765
3.04616,1.59546,-0.0947959,21,32765
3.09583,1.60821,-0.0977418,21,32765
3.10124,1.59769,-0.0991397,21,32765
3.04428,1.55531,-0.0989275,21,32765
3.02278,1.53134,-0.0994077,21,32765
3.03683,1.52558,-0.101513,20,32765
3.14032,1.56434,-0.10647,21,32765
3.02009,1.49171,-0.10358,20,32765
3.06997,1.50343,-0.106812,20,32765
3.00304,1.45813,-0.105913,20,32765
3.06191,1.47405,-0.109144,21,32765
2.99462,1.42934,-0.107953,20,32765
3.02643,1.43216,-0.110258,20,32765
2.99495,1.40505,-0.110467,20,32765
2.99058,1.39065,-0.112056,20,32765
2.99526,1.38047,-0.112811,21,32765
2.98175,1.36187,-0.113484,21,32765
2.98625,1.35183,-0.115159,21,32765
2.99994,1.34566,-0.116689,21,32765
2.97703,1.32333,-0.116906,22,32765
2.96306,1.30538,-0.117642,21,32765
2.94905,1.28745,-0.118155,21,32765
2.98076,1.28959,-0.120447,22,32765
3.00345,1.28733,-0.122409,20,32765
2.96173,1.25767,-0.121681,22,32765
2.96585,1.24782,-0.122796,21,32765
2.96994,1.23793,-0.12401,22,32765
2.95547,1.22057,-0.124247,21,32765
2.95945,1.21075,-0.125415,21,32765
2.9356,1.18974,-0.125199,21,32765
2.9766,1.19484,-0.127692,22,32765
2.89698,1.15166,-0.124968,21,32765
2.93792,1.15671,-0.127447,21,32765
2.95105,1.15047,-0.128921,20,32765
2.86156,1.10479,-0.125865,19,32765
2.89314,1.10607,-0.127851,21,32765
2.87805,1.08944,-0.127836,22,32765
2.91896,1.09414,-0.130211,21,32765
2.89443,1.07402,-0.129801,21,32765
2.89793,1.06442,-0.13073,21,32765
2.90142,1.0548,-0.131314,22,32765
2.90486,1.04522,-0.131966,23,32765
2.88944,1.02892,-0.131655,22,32765
2.8928,1.01934,-0.132481,23,32765
2.87723,1.00328,-0.132238,23,32765
2.9088,1.00367,-0.133994,23,32765
2.87421,0.981293,-0.132549,22,32765
2.87733,0.972052,-0.132907,21,32765
2.87101,0.959417,-0.133169,22,32765
2.84561,0.940764,-0.13213,23,32765
2.86758,0.937893,-0.133171,22,32765
2.88955,0.93494,-0.134191,24,32765
2.89252,0.925728,-0.134097,24,32765
0.962012,0.304369,-0.0446335,14,32765
0.924847,0.289349,-0.0428293,17,32765
3.52679,2.59729,-0.0158664,16,32765
3.47086,2.53825,-0.0198248,15,32765
3.37395,2.45048,-0.0228905,15,32765
3.47124,2.50363,-0.0270998,15,32765
3.38187,2.42233,-0.0294595,15,32765
3.35727,2.3879,-0.0327719,17,32765
3.3897,2.39397,-0.0361644,15,32765
3.33217,2.33668,-0.0383881,16,32765
3.39729,2.36564,-0.0423087,16,32765
3.42138,2.36593,-0.0457415,18,32765
3.29716,2.26419,-0.0466447,16,32765
3.28807,2.242,-0.0492056,17,32765
3.34524,2.26456,-0.0524554,18,32765
3.22851,2.16933,-0.0534606,16,32765
3.2524,2.16952,-0.056534,16,32765
3.31796,2.19725,-0.0602537,16,32765
3.28344,2.15872,-0.0621765,17,32765
3.35742,2.19169,-0.0657321,16,32765
3.27227,2.12081,-0.066431,16,32765
3.28761,2.1154,-0.0690113,17,32765
3.24393,2.07231,-0.0703551,18,32765
3.25082,2.0614,-0.0728989,17,32765
3.26604,2.05595,-0.0751714,18,32765
3.22203,2.01313,-0.0765075,18,32765
3.25413,2.01824,-0.0788427,18,32765
3.20122,1.97063,-0.0800356,17,32765
3.19068,1.94948,-0.0816006,17,32765
3.15438,1.91288,-0.0830586,17,32765
3.21219,1.9331,-0.086552,17,32765
3.13278,1.87104,-0.0858935,16,32765
3.15621,1.87067,-0.0884272,18,32765
3.17103,1.86513,-0.0907499,17,32765
3.1513,1.8394,-0.0918704,18,32765
3.18335,1.84383,-0.0945591,18,32765
3.12012,1.79331,-0.0943018,17,32765
3.10007,1.76787,-0.0954794,17,32765
3.14946,1.782,-0.0988179,19,32765
3.13796,1.7616,-0.100004,18,32765
3.10886,1.73159,-0.100888,16,32765
3.1058,1.7164,-0.102272,16,32765
3.05888,1.67717,-0.102115,17,32765
3.08195,1.67653,-0.104547,17,32765
3.08742,1.66633,-0.106167,18,32765
3.00482,1.6088,-0.104606,17,32765
3.05422,1.62228,-0.107647,18,32765
3.06841,1.6167,-0.109628,18,32765
3.04724,1.5924,-0.110409,18,32765
3.03486,1.5728,-0.111118,19,32765
2.98685,1.53494,-0.110721,18,32765
3.00092,1.52928,-0.112482,17,32765
3.04179,1.53698,-0.115339,17,32765
2.97546,1.4908,-0.114245,16,32765
2.96255,1.47178,-0.115201,15,32765
2.98538,1.47059,-0.117329,19,32765
3.04412,1.48688,-0.12097,17,32765
2.94115,1.42428,-0.118099,16,32765
3.02698,1.45324,-0.12283,18,32765
2.97769,1.41724,-0.121522,17,32765
2.99144,1.41144,-0.123417,17,32765
2.95987,1.38449,-0.123573,17,32765
3.02791,1.40393,-0.127827,18,32765
3.00536,1.38115,-0.127885,17,32765
2.92804,1.33384,-0.125966,16,32765
2.90517,1.31155,-0.126072,16,32765
3.00072,1.34258,-0.131407,17,32765
2.92296,1.29599,-0.129244,18,32765
2.98214,1.31026,-0.13283,19,32765
3.0048,1.30819,-0.13504,18,32765
2.92656,1.26242,-0.132842,18,32765
2.93071,1.25262,-0.134059,18,32765
2.88887,1.22317,-0.133808,18,32765
2.94819,1.23663,-0.137459,18,32765
2.93383,1.21899,-0.138106,18,32765
2.91936,1.20154,-0.138684,19,32765
2.94177,1.19939,-0.140944,20,32765
2.88082,1.16345,-0.139086,18,32765
2.85671,1.14289,-0.139305,19,32765
2.88828,1.14446,-0.141891,20,32765
2.90134,1.1384,-0.143732,19,32765
2.80263,1.08892,-0.140088,18,32765
2.85283,1.0974,-0.143849,18,32765
2.83771,1.08084,-0.144207,15,32765
2.80379,1.05739,-0.1439,17,32765
2.82589,1.0552,-0.146016,19,32765
2.81989,1.04244,-0.147034,18,32765
2.81386,1.02968,-0.148134,18,32765
2.89235,1.0475,-0.153206,19,32765
2.90511,1.0413,-0.155288,20,32765
2.83317,1.00492,-0.152926,20,32765
2.79862,0.982516,-0.152547,18,32765
2.85833,0.993061,-0.157072,20,32765
2.8803,0.990402,-0.159633,19,32765
2.84556,0.968322,-0.158829,18,32765
2.81074,0.946342,-0.158422,18,32765
2.73794,0.911852,-0.155877,17,32765
2.79774,0.921556,-0.160965,18,32765
2.79111,0.909436,-0.161911,18,32765
2.70835,0.873075,-0.158438,17,32765
2.75851,0.879806,-0.162971,17,32765
2.72305,0.859173,-0.162529,13,32765
0.933958,0.29146,-0.0563278,15,32765
3.35349,2.47792,-0.0538749,18,32765
3.29722,2.41933,-0.0568845,18,32765
3.24852,2.36727,-0.0594468,17,32765
3.24821,2.3506,-0.0626799,18,32765
3.28024,2.35738,-0.0661815,19,32765
3.28801,2.34643,-0.0697101,19,32765
3.29579,2.3354,-0.0727836,19,32765
3.19724,2.24953,-0.0732509,18,32765
3.27019,2.2847,-0.0778948,19,32765
3.21185,2.22842,-0.0793702,18,32765
3.22729,2.22356,-0.0821858,19,32765
3.18507,2.17897,-0.0836408,18,32765
3.2585,2.21315,-0.0878239,20,32765
3.24121,2.18507,-0.0901264,19,32765
3.16543,2.11848,-0.0905514,19,32765
3.17246,2.10783,-0.0931464,18,32765
3.14603,2.0752,-0.0947423,19,32765
3.19457,2.09225,-0.0981837,21,32765
3.22652,2.09804,-0.101428,21,32765
3.18299,2.05481,-0.102186,21,32765
3.12233,2.00117,-0.102348,20,32765
3.18801,2.0282,-0.10678,20,32765
3.17776,2.00693,-0.108247,21,32765
3.20138,2.00678,-0.111318,22,32765
3.17403,1.97499,-0.111834,21,32765
3.12103,1.92755,-0.112314,21,32765
3.17002,1.94318,-0.115828,22,32765
3.0825,1.87539,-0.114899,21,32765
3.11446,1.88038,-0.117937,22,32765
3.08641,1.84934,-0.118272,23,32765
3.09257,1.8389,-0.120298,21,32765
3.07284,1.81324,-0.121319,21,32765
3.03571,1.77768,-0.121417,20,32765
3.09345,1.79757,-0.12537,22,32765
3.07342,1.77219,-0.126096,21,32765
3.04466,1.74188,-0.126609,21,32765
3.05915,1.73649,-0.128919,22,32765
3.06492,1.72615,-0.130615,20,32765
3.04446,1.70119,-0.13146,21,32765
3.03258,1.68133,-0.13234,20,32765
3.04688,1.67597,-0.134292,20,32765
3.03484,1.65621,-0.135343,21,32765
3.02267,1.63662,-0.136151,20,32765
3.02808,1.62646,-0.137631,20,32765
2.97168,1.5835,-0.136302,20,32765
2.9769,1.57351,-0.137926,19,32765
2.99985,1.57266,-0.140451,20,32765
2.98742,1.55317,-0.140956,22,32765
2.96605,1.52912,-0.141248,21,32765
2.93561,1.50078,-0.140961,20,32765
2.94961,1.49515,-0.142868,19,32765
2.90999,1.46264,-0.142291,19,32765
2.96852,1.47945,-0.146559,19,32765
2.97345,1.46938,-0.14799,21,32765
2.95139,1.44618,-0.148137,20,32765
2.93825,1.42741,-0.148651,20,32765
2.89801,1.39575,-0.147799,19,32765
2.95676,1.41175,-0.151437,21,32765
2.92533,1.38464,-0.151086,20,32765
2.90275,1.36208,-0.151307,19,32765
2.91631,1.35648,-0.153332,20,32765
2.92991,1.35075,-0.154987,20,32765
2.87982,1.31603,-0.153645,20,32765
2.90241,1.31446,-0.155896,21,32765
2.84297,1.27604,-0.153789,20,32765
2.87457,1.27858,-0.156679,20,32765
2.92451,1.28901,-0.16031,21,32765
2.89216,1.26314,-0.159653,21,32765
2.92383,1.26525,-0.162678,21,32765
2.90964,1.24755,-0.16287,22,32765
2.91377,1.23762,-0.16474,21,32765
2.88105,1.2123,-0.163733,20,32765
2.89427,1.20637,-0.165745,21,32765
2.87054,1.18519,-0.165588,21,32765
2.84666,1.1643,-0.165332,21,32765
2.82268,1.14358,-0.164943,21,32765
2.85412,1.14548,-0.168128,21,32765
2.84856,1.13231,-0.168798,22,32765
2.83369,1.11539,-0.169053,22,32765
2.82802,1.10228,-0.169939,22,32765
2.81302,1.08552,-0.170238,22,32765
2.81652,1.07619,-0.17153,22,32765
2.85731,1.08101,-0.175425,23,32765
2.79533,1.04712,-0.172559,19,32765
2.82675,1.04831,-0.175798,21,32765
2.76451,1.01486,-0.173287,21,32765
2.81473,1.02266,-0.177319,23,32765
2.80862,1.00994,-0.178263,22,32765
2.84948,1.01395,-0.182318,23,32765
2.82441,0.994752,-0.182184,24,32765
2.79927,0.975668,-0.181779,22,32765
2.80229,0.966681,-0.183264,22,32765
2.76751,0.944797,-0.182052,21,32765
2.79882,0.945374,-0.185615,22,32765
2.79234,0.932978,-0.186747,21,32765
2.71948,0.898686,-0.183486,21,32765
2.77919,0.908492,-0.188809,23,32765
2.78194,0.899717,-0.190335,22,32765
2.7656,0.884945,-0.190796,22,32765
2.63505,0.834127,-0.183367,15,32765
0.961706,0.301103,-0.0675152,17,32765
3.24773,2.40086,-0.098515,16,32765
3.19143,2.34241,-0.0976459,16,32765
3.28029,2.3902,-0.101196,16,32765
3.17491,2.29707,-0.0989753,16,32765
3.23124,2.32145,-0.101789,16,32765
3.22264,2.29906,-0.102509,17,32765
3.23016,2.2884,-0.104409,17,32765
3.22954,2.27187,-0.105616,16,32765
3.17975,2.22093,-0.105,16,32765
3.16248,2.19318,-0.105717,16,32765
3.24382,2.23363,-0.110177,16,32765
3.20163,2.18904,-0.109938,16,32765
3.15096,2.13905,-0.109651,16,32765
3.20773,2.16208,-0.112972,16,32765
3.14845,2.10683,-0.112356,16,32765
3.1306,2.07945,-0.113277,17,32765
3.20431,2.11287,-0.117417,18,32765
3.19469,2.091,-0.118765,17,32765
3.12614,2.03135,-0.11747,16,32765
3.18324,2.05338,-0.121231,16,32765
3.09744,1.98343,-0.119338,17,32765
3.21364,2.04278,-0.125237,18,32765
3.16119,1.99473,-0.124754,17,32765
3.14228,1.96833,-0.125865,18,32765
3.06393,1.905,-0.12413,18,32765
3.05322,1.88421,-0.125118,19,32765
3.08507,1.88956,-0.127875,18,32765
3.0913,1.87922,-0.129688,18,32765
3.08893,1.86372,-0.13098,18,32765
3.09512,1.85329,-0.132927,19,32765
3.04977,1.81215,-0.132237,18,32765
3.07301,1.81198,-0.134988,18,32765
3.10489,1.81677,-0.137915,20,32765
2.99854,1.74113,-0.134697,18,32765
2.99568,1.72597,-0.136212,19,32765
3.09684,1.77038,-0.142293,18,32765
3.00714,1.70561,-0.139915,17,32765
2.97805,1.67571,-0.140039,16,32765
3.03602,1.69475,-0.144217,17,32765
2.98918,1.65548,-0.14345,17,32765
3.02965,1.6647,-0.146977,18,32765
2.92986,1.59713,-0.143717,17,32765
2.99664,1.62056,-0.148369,17,32765
3.01081,1.61518,-0.150442,16,32765
2.98969,1.59092,-0.151052,18,32765
2.94206,1.55262,-0.15011,17,32765
2.93845,1.53786,-0.151268,16,32765
2.95249,1.53238,-0.153417,17,32765
2.91312,1.49958,-0.152899,18,32765
2.8736,1.46704,-0.152006,16,32765
2.88737,1.46181,-0.154258,17,32765
2.91905,1.46536,-0.157333,16,32765
2.924,1.4553,-0.158795,17,32765
2.94678,1.45417,-0.161241,18,32765
2.83493,1.38718,-0.156446,17,32765
2.94734,1.42994,-0.163885,16,32765
2.91605,1.40266,-0.163614,17,32765
2.8756,1.37133,-0.162834,17,32765
2.91627,1.37863,-0.166189,18,32765
2.88465,1.35187,-0.165348,17,32765
2.87094,1.33383,-0.165764,17,32765
2.81175,1.29511,-0.163494,18,32765
2.87045,1.31071,-0.167895,19,32765
2.91114,1.31752,-0.171415,18,32765
2.85178,1.27896,-0.168839,17,32765
2.84694,1.26511,-0.169831,19,32765
2.83285,1.24741,-0.170062,19,32765
2.86444,1.24978,-0.172928,18,32765
2.82269,1.22042,-0.171378,17,32765
2.81752,1.20703,-0.171915,18,32765
2.79398,1.18571,-0.17147,18,32765
2.87154,1.20716,-0.17736,19,32765
2.80183,1.16675,-0.173427,18,32765
2.79639,1.15359,-0.174218,17,32765
2.77236,1.13308,-0.173577,19,32765
2.82231,1.14262,-0.177434,18,32765
2.79822,1.12211,-0.176715,17,32765
2.82043,1.12017,-0.178812,18,32765
2.8241,1.11074,-0.179801,19,32765
2.84634,1.10857,-0.181671,19,32765
2.8872,1.11349,-0.184942,20,32765
2.84415,1.08623,-0.182778,19,32765
2.80097,1.05923,-0.180629,18,32765
2.73895,1.02552,-0.177046,14,32765
2.80778,1.04076,-0.182149,18,32765
2.81115,1.03151,-0.182825,18,32765
2.7676,1.00513,-0.180609,18,32765
2.82724,1.01617,-0.184901,19,32765
2.77407,0.986898,-0.181832,18,32765
2.79609,0.984416,-0.18357,19,32765
2.71447,0.945651,-0.178307,18,32765
2.73634,0.943357,-0.180285,18,32765
2.72993,0.931217,-0.180079,19,32765
2.71397,0.916059,-0.179242,17,32765
2.74532,0.916748,-0.181111,19,32765
2.68192,0.885924,-0.177052,17,32765
2.67532,0.873983,-0.176689,19,32765
2.73516,0.88356,-0.180626,19,32765
2.75704,0.880717,-0.181904,18,32765
2.75983,0.871916,-0.18195,15,32765
0.952606,0.297696,-0.0626043,15,32765
3.13838,2.32838,-0.131597,18,32765
3.18655,2.34723,-0.134367,20,32765
3.13817,2.29484,-0.133038,17,32765
3.19439,2.31943,-0.136373,19,32765
3.19399,2.30287,-0.137319,19,32765
3.10411,2.22236,-0.13433,19,32765
3.1521,2.24101,-0.13795,19,32765
3.09419,2.18436,-0.136513,20,32765
3.0933,2.16818,-0.137382,18,32765
3.12511,2.1749,-0.13999,20,32765
3.07475,2.12465,-0.13931,18,32765
3.11467,2.13705,-0.142206,19,32765
3.11347,2.121,-0.143513,19,32765
3.1039,2.09941,-0.144301,20,32765
3.09427,2.07781,-0.145228,19,32765
3.11794,2.07825,-0.147816,20,32765
3.09989,2.05112,-0.148314,20,32765
3.03997,1.99664,-0.146995,19,32765
3.08839,2.01377,-0.150506,19,32765
3.02795,1.95996,-0.149029,19,32765
3.03443,1.94979,-0.150627,19,32765
2.99032,1.90738,-0.149696,20,32765
3.08944,1.95616,-0.156117,22,32765
3.01123,1.89273,-0.153882,21,32765
3.05988,1.90902,-0.157704,22,32765
3.04072,1.88293,-0.158068,21,32765
3.0555,1.87786,-0.160211,21,32765
3.02758,1.84678,-0.160207,20,32765
3.02512,1.83146,-0.161378,22,32765
3.03119,1.82121,-0.16329,21,32765
3.02013,1.80065,-0.163877,21,32765
2.98313,1.76497,-0.163503,22,32765
3.0062,1.765,-0.166187,21,32765
2.97749,1.73478,-0.166037,20,32765
2.99191,1.72965,-0.168425,21,32765
2.99766,1.7195,-0.170124,20,32765
2.98604,1.69938,-0.171138,20,32765
3.00045,1.69403,-0.173395,22,32765
2.99742,1.67887,-0.174597,21,32765
2.91567,1.62023,-0.171205,21,32765
2.94723,1.62488,-0.174547,21,32765
2.94382,1.61016,-0.175879,20,32765
2.96668,1.60976,-0.178555,21,32765
2.93683,1.5808,-0.178045,22,32765
2.92443,1.56144,-0.178871,21,32765
2.94736,1.56065,-0.181688,20,32765
2.93495,1.5412,-0.182211,22,32765
2.9047,1.51265,-0.181687,21,32765
2.9008,1.49826,-0.182916,22,32765
2.88799,1.47934,-0.183246,21,32765
2.89288,1.46952,-0.185036,21,32765
2.87997,1.4506,-0.185526,19,32765
2.85808,1.42726,-0.185236,20,32765
2.80917,1.39091,-0.183174,20,32765
2.93023,1.43862,-0.192391,22,32765
2.88113,1.40249,-0.190329,20,32765
2.85877,1.37972,-0.190248,19,32765
2.8363,1.35711,-0.190179,19,32765
2.86787,1.36029,-0.193286,20,32765
2.83622,1.33363,-0.192056,21,32765
2.78629,1.29884,-0.189799,20,32765
2.82672,1.30636,-0.193666,21,32765
2.86724,1.31362,-0.197387,21,32765
2.80794,1.27506,-0.194365,21,32765
2.85772,1.28591,-0.198689,22,32765
2.81645,1.25574,-0.197045,21,32765
2.80235,1.2381,-0.197078,21,32765
2.84302,1.24458,-0.200862,21,32765
2.8013,1.21522,-0.198839,20,32765
2.84196,1.22157,-0.202545,21,32765
2.83685,1.20793,-0.203149,23,32765
2.80408,1.18274,-0.201868,22,32765
2.79882,1.16939,-0.201824,22,32765
2.80261,1.16003,-0.203192,21,32765
2.8248,1.15837,-0.205637,22,32765
2.7731,1.12645,-0.202555,22,32765
2.79527,1.12467,-0.204934,22,32765
2.78967,1.11165,-0.205175,23,32765
2.7933,1.1023,-0.206157,22,32765
2.75046,1.0748,-0.2034,21,32765
2.79117,1.08005,-0.207019,22,32765
2.73875,1.04947,-0.20367,22,32765
2.8354,1.07583,-0.211458,23,32765
2.76417,1.03842,-0.206535,20,32765
2.73012,1.01536,-0.204595,19,32765
2.73341,1.00634,-0.205256,20,32765
2.75543,1.00407,-0.207492,22,32765
2.77749,1.00163,-0.209514,23,32765
2.79009,0.99592,-0.210846,22,32765
2.7651,0.976764,-0.209218,22,32765
2.76828,0.967627,-0.209527,22,32765
2.73365,0.945585,-0.207418,22,32765
2.765,0.946341,-0.209987,22,32765
2.73966,0.927832,-0.208253,22,32765
2.77104,0.928435,-0.210406,23,32765
2.73615,0.906865,-0.207855,22,32765
2.72015,0.891606,-0.206686,22,32765
2.72307,0.882603,-0.206866,21,32765
2.66895,0.855436,-0.202566,21,32765
2.72872,0.864975,-0.20694,20,32765
0.923167,0.289462,-0.0698094,17,32765
3.22344,2.38224,-0.120367,16,32765
3.29571,2.41876,-0.12646,17,32765
3.09353,2.25477,-0.122405,15,32765
3.15754,2.28552,-0.127747,17,32765
3.19754,2.29822,-0.132293,17,32765
3.17255,2.26423,-0.134841,17,32765
3.13928,2.22461,-0.136097,17,32765
3.12203,2.19688,-0.137967,16,32765
3.10452,2.16944,-0.139937,16,32765
3.12796,2.17054,-0.143875,17,32765
3.09389,2.13179,-0.144535,16,32765
3.07614,2.10449,-0.146219,16,32765
3.017,2.04914,-0.145735,16,32765
3.08169,2.07815,-0.151221,17,32765
3.12167,2.09013,-0.15533,18,32765
3.05362,2.02994,-0.153797,16,32765
3.00185,1.98122,-0.153849,18,32765
3.03344,1.98758,-0.157085,18,32765
3.04837,1.98278,-0.160102,19,32765
3.06334,1.97786,-0.162734,18,32765
3.02786,1.94049,-0.162971,18,32765
3.01736,1.91961,-0.164358,18,32765
3.04049,1.92023,-0.167743,18,32765
3.01292,1.88885,-0.167831,18,32765
3.01055,1.87357,-0.169854,18,32765
2.99972,1.85292,-0.17103,18,32765
2.98879,1.83238,-0.172087,18,32765
3.02049,1.8378,-0.175226,18,32765
2.96675,1.79138,-0.173925,17,32765
2.94699,1.76592,-0.174339,17,32765
3.00438,1.78648,-0.179322,18,32765
2.95007,1.7408,-0.17773,17,32765
2.98166,1.746,-0.18105,17,32765
2.93556,1.70595,-0.179627,18,32765
2.95849,1.70599,-0.182521,16,32765
2.95547,1.69102,-0.183732,17,32765
2.90893,1.65148,-0.182386,19,32765
2.94922,1.66117,-0.186291,18,32765
2.91112,1.62688,-0.185055,17,32765
2.9514,1.63643,-0.189025,18,32765
2.92178,1.60726,-0.188372,18,32765
2.90953,1.58791,-0.188685,19,32765
2.92357,1.58278,-0.190938,19,32765
2.90246,1.55862,-0.190828,18,32765
2.93406,1.56286,-0.193995,18,32765
2.85977,1.51097,-0.190439,17,32765
2.88242,1.51065,-0.192927,18,32765
2.8785,1.49637,-0.193967,17,32765
2.85684,1.47287,-0.193627,17,32765
2.83518,1.44933,-0.193051,17,32765
2.849,1.44398,-0.195288,17,32765
2.87176,1.443,-0.197848,17,32765
2.80516,1.39746,-0.19429,17,32765
2.82763,1.39689,-0.196946,17,32765
2.76057,1.35216,-0.193197,17,32765
2.86377,1.39078,-0.201621,16,32765
2.79641,1.34647,-0.198069,17,32765
2.82793,1.34981,-0.201068,17,32765
2.81433,1.33173,-0.201059,18,32765
2.80068,1.31368,-0.201156,18,32765
2.7869,1.29579,-0.20131,18,32765
2.79117,1.28635,-0.202742,18,32765
2.7682,1.26444,-0.201958,18,32765
2.85419,1.2921,-0.209031,19,32765
2.7947,1.25384,-0.206034,18,32765
2.72588,1.21198,-0.20196,17,32765
2.78467,1.22681,-0.207549,20,32765
2.76125,1.20545,-0.206847,19,32765
2.82011,1.21997,-0.212271,19,32765
2.78743,1.19471,-0.2109,19,32765
2.71788,1.15414,-0.206615,18,32765
2.74926,1.15656,-0.20989,19,32765
2.78071,1.15863,-0.213603,18,32765
2.76602,1.14173,-0.213542,19,32765
2.78825,1.13982,-0.216479,19,32765
2.73647,1.10802,-0.21361,18,32765
2.75855,1.10635,-0.216287,18,32765
2.7343,1.08611,-0.215573,18,32765
2.68205,1.05527,-0.212421,18,32765
2.77832,1.08262,-0.221255,19,32765
2.67944,1.03392,-0.214482,18,32765
2.78521,1.06418,-0.224092,18,32765
2.742,1.03725,-0.221681,18,32765
2.67993,1.00369,-0.217895,18,32765
2.70184,1.00165,-0.220977,18,32765
2.7144,0.996112,-0.223137,18,32765
2.64261,0.959808,-0.218594,16,32765
2.6832,0.964534,-0.223009,16,32765
2.63927,0.938974,-0.220631,18,32765
2.67989,0.943377,-0.225235,18,32765
2.68284,0.934554,-0.2269,20,32765
2.65751,0.915998,-0.22584,19,32765
2.67918,0.913864,-0.229037,20,32765
2.64416,0.892579,-0.227418,19,32765
2.66578,0.890404,-0.230647,21,32765
2.60226,0.859907,-0.226483,19,32765
2.65224,0.866976,-0.232326,19,32765
2.63591,0.852231,-0.232505,20,32765
2.63843,0.843886,-0.234429,19,32765
2.63142,0.832518,-0.23549,20,32765
2.64334,0.82721,-0.238461,15,32765
3.12995,2.32163,-0.153195,18,32765
3.12145,2.29927,-0.155914,19,32765
3.09661,2.26529,-0.158302,20,32765
3.11206,2.26085,-0.161783,19,32765
3.02227,2.18019,-0.159806,19,32765
3.11063,2.22816,-0.167913,18,32765
3.06102,2.17707,-0.167762,19,32765
3.0518,2.1553,-0.169742,19,32765
3.00146,2.10508,-0.169525,18,32765
3.03286,2.11222,-0.17402,18,32765
3.00688,2.07938,-0.174622,18,32765
3.00545,2.06361,-0.176924,19,32765
3.00404,2.04775,-0.179087,19,32765
3.03554,2.05446,-0.183221,19,32765
3.03394,2.03876,-0.185142,20,32765
2.96583,1.97873,-0.182718,20,32765
2.97225,1.96879,-0.185681,21,32765
2.96204,1.94782,-0.186555,21,32765
3.02699,1.97599,-0.192806,23,32765
2.98327,1.93311,-0.191752,22,32765
2.99808,1.92833,-0.19474,22,32765
3.0044,1.91825,-0.197029,22,32765
2.96846,1.88149,-0.196684,22,32765
2.94926,1.85559,-0.196924,21,32765
2.98065,1.86163,-0.201093,21,32765
2.92739,1.81473,-0.199182,20,32765
2.95036,1.8153,-0.202343,21,32765
2.87973,1.75843,-0.198691,20,32765
2.90264,1.75895,-0.201989,20,32765
2.96835,1.78508,-0.208086,21,32765
2.89716,1.72888,-0.204568,20,32765
2.89427,1.71397,-0.205925,21,32765
2.89992,1.70419,-0.207648,20,32765
2.90548,1.69448,-0.209352,21,32765
2.85925,1.65463,-0.207406,20,32765
2.89068,1.65984,-0.210998,21,32765
2.92214,1.66488,-0.214794,21,32765
2.88425,1.63034,-0.213302,22,32765
2.85481,1.60107,-0.21222,20,32765
2.83392,1.57686,-0.211968,21,32765
2.85657,1.57695,-0.214826,21,32765
2.86174,1.56735,-0.216249,22,32765
2.83186,1.53855,-0.215241,21,32765
2.84578,1.53358,-0.217491,21,32765
2.86846,1.53331,-0.220238,22,32765
2.82062,1.49555,-0.217854,20,32765
2.84319,1.49534,-0.220515,21,32765
2.83038,1.47655,-0.220755,22,32765
2.82642,1.46232,-0.221505,22,32765
2.84914,1.46159,-0.224132,21,32765
2.8452,1.44713,-0.225069,21,32765
2.86795,1.44615,-0.227818,22,32765
2.79254,1.39606,-0.222807,21,32765
2.83285,1.40438,-0.22708,21,32765
2.81066,1.38153,-0.226195,21,32765
2.79727,1.36326,-0.226247,21,32765
2.76583,1.33642,-0.224839,21,32765
2.7793,1.33125,-0.226643,21,32765
2.76566,1.31329,-0.226431,21,32765
2.77001,1.30385,-0.227805,21,32765
2.79237,1.30289,-0.230749,21,32765
2.80571,1.29758,-0.232939,22,32765
2.75562,1.2631,-0.22962,22,32765
2.77796,1.262,-0.232218,22,32765
2.79118,1.25665,-0.234642,23,32765
2.7953,1.2472,-0.235975,22,32765
2.77207,1.22553,-0.235202,22,32765
2.74868,1.20416,-0.234218,20,32765
2.7343,1.187,-0.233941,21,32765
2.73819,1.17772,-0.235306,22,32765
2.69618,1.14894,-0.232629,20,32765
2.71833,1.14756,-0.235383,21,32765
2.7681,1.15743,-0.240963,23,32765
2.69818,1.11764,-0.235883,20,32765
2.74797,1.1273,-0.241403,22,32765
2.73314,1.11057,-0.241217,22,32765
2.71823,1.09401,-0.240806,21,32765
2.69396,1.07385,-0.239794,21,32765
2.70662,1.06869,-0.241866,22,32765
2.67289,1.04521,-0.239983,21,32765
2.71339,1.05072,-0.244704,22,32765
2.66092,1.02029,-0.241034,21,32765
2.65489,1.00785,-0.241488,22,32765
2.65808,0.999036,-0.242971,22,32765
2.67061,0.993588,-0.245373,22,32765
2.62703,0.967477,-0.242436,23,32765
2.66755,0.972316,-0.247518,23,32765
2.67065,0.963445,-0.24883,22,32765
2.67367,0.954609,-0.250373,18,32765
2.65794,0.938996,-0.250071,21,32765
2.63266,0.920361,-0.249056,22,32765
2.65438,0.918202,-0.252165,22,32765
2.64776,0.906393,-0.252851,23,32765
2.66935,0.904328,-0.256275,22,32765
2.60599,0.873577,-0.251508,22,32765
2.66537,0.883947,-0.258578,23,32765
2.65859,0.872203,-0.259392,23,32765
2.58546,0.83896,-0.253813,22,32765
2.59741,0.833796,-0.25664,23,32765
2.62832,0.83458,-0.261355,24,32765
2.52626,0.793472,-0.253006,16,32765
2.98359,2.21368,-0.190288,15,32765
3.06334,2.25692,-0.195936,16,32765
3.0063,2.19951,-0.192787,16,32765
2.95708,2.14825,-0.190571,16,32765
2.94799,2.12665,-0.190635,16,32765
3.06051,2.19238,-0.199139,16,32765
3.03526,2.1589,-0.198133,16,32765
3.0423,2.14882,-0.199736,16,32765
3.02476,2.12156,-0.19955,16,32765
3.01527,2.10017,-0.199658,18,32765
2.98941,2.06723,-0.198996,17,32765
3.03744,2.08534,-0.203482,17,32765
2.96189,2.01879,-0.19949,17,32765
2.9273,1.98072,-0.198261,17,32765
3.00014,2.01539,-0.204356,18,32765
2.95699,1.97198,-0.202711,18,32765
2.93856,1.94543,-0.202607,18,32765
2.97002,1.95198,-0.205826,20,32765
2.86774,1.87108,-0.200099,17,32765
2.95769,1.91574,-0.207164,18,32765
2.96398,1.90579,-0.209071,19,32765
2.8863,1.84181,-0.204738,17,32765
2.93462,1.85866,-0.209258,18,32765
2.89011,1.81676,-0.207486,17,32765
2.90453,1.81239,-0.209454,17,32765
2.88498,1.78692,-0.209371,18,32765
2.93344,1.8032,-0.214176,18,32765
2.92231,1.78296,-0.214597,18,32765
2.88565,1.74701,-0.213051,18,32765
2.87436,1.72686,-0.21351,18,32765
2.87154,1.71195,-0.214463,19,32765
2.86866,1.69704,-0.215497,18,32765
2.90864,1.70761,-0.219778,19,32765
2.87975,1.67769,-0.219054,18,32765
2.81622,1.62797,-0.215002,18,32765
2.85624,1.6382,-0.219492,18,32765
2.83571,1.61356,-0.219262,18,32765
2.88454,1.62835,-0.224259,19,32765
2.82039,1.57935,-0.22056,17,32765
2.81685,1.56502,-0.221317,19,32765
2.83075,1.56024,-0.223764,18,32765
2.78339,1.52191,-0.221216,18,32765
2.91986,1.58392,-0.233518,16,32765
2.84597,1.53155,-0.228992,18,32765
2.78935,1.48914,-0.225587,19,32765
2.79429,1.47957,-0.22742,18,32765
2.79921,1.46999,-0.228983,18,32765
2.84839,1.48331,-0.234295,18,32765
2.81792,1.45515,-0.232952,18,32765
2.75169,1.4092,-0.228776,18,32765
2.7742,1.40874,-0.231602,18,32765
2.78778,1.4037,-0.23412,19,32765
2.76568,1.38076,-0.233427,18,32765
2.80606,1.38887,-0.238069,20,32765
2.77477,1.36184,-0.23673,18,32765
2.77927,1.3524,-0.238125,19,32765
2.72981,1.31704,-0.234775,18,32765
2.74305,1.31219,-0.237377,19,32765
2.72936,1.29428,-0.237373,20,32765
2.74264,1.28925,-0.239526,18,32765
2.75598,1.28396,-0.241928,19,32765
2.69688,1.24529,-0.237681,19,32765
2.74618,1.25706,-0.243301,19,32765
2.75026,1.24782,-0.244778,19,32765
2.70886,1.21816,-0.241997,18,32765
2.71287,1.20897,-0.243178,19,32765
2.71684,1.19971,-0.244707,18,32765
2.71165,1.18646,-0.245298,19,32765
2.66982,1.15746,-0.242311,17,32765
2.71017,1.16431,-0.246916,17,32765
2.66813,1.13561,-0.244057,18,32765
2.66264,1.12277,-0.244446,17,32765
2.71225,1.13302,-0.249897,18,32765
2.65146,1.09727,-0.245218,17,32765
2.68267,1.09981,-0.248556,18,32765
2.63084,1.06837,-0.244522,18,32765
2.64356,1.06319,-0.246637,17,32765
2.64698,1.05438,-0.247696,19,32765
2.64112,1.04193,-0.247758,17,32765
2.63519,1.02955,-0.247754,18,32765
2.58278,0.999149,-0.243593,18,32765
2.64184,1.0119,-0.249706,19,32765
2.71029,1.02787,-0.256744,18,32765
2.611,0.980336,-0.248286,20,32765
2.66086,0.989022,-0.253268,20,32765
2.60797,0.959484,-0.248943,20,32765
2.60175,0.947353,-0.248652,20,32765
2.65159,0.955769,-0.253905,19,32765
2.6734,0.953777,-0.256362,16,32765
2.61071,0.921871,-0.250506,19,32765
2.62304,0.916558,-0.252301,19,32765
2.63547,0.910967,-0.253882,21,32765
2.61955,0.895863,-0.252561,19,32765
2.64126,0.893735,-0.254893,20,32765
2.62515,0.879073,-0.253443,20,32765
2.6563,0.879915,-0.256762,21,32765
2.65914,0.871203,-0.257056,20,32765
2.60513,0.844096,-0.251626,20,32765
2.54146,0.814418,-0.245174,19,32765
2.61049,0.827408,-0.251481,19,32765
2.56559,0.804223,-0.246927,17,32765
2.88183,2.14658,-0.21738,17,32765
2.92913,2.1665,-0.221406,18,32765
2.91215,2.13896,-0.220529,19,32765
2.99187,2.182,-0.227438,20,32765
2.95059,2.13681,-0.224874,20,32765
2.95761,2.1269,-0.226521,19,32765
2.94846,2.10529,-0.226362,20,32765
2.97975,2.11279,-0.229811,20,32765
2.95399,2.07991,-0.228694,22,32765
2.91168,2.03583,-0.226057,21,32765
2.90207,2.01454,-0.226259,19,32765
2.94986,2.03298,-0.231163,21,32765
2.90722,1.98912,-0.228802,21,32765
2.90563,1.97356,-0.229698,20,32765
2.93697,1.98047,-0.233244,21,32765
2.93525,1.96494,-0.234324,22,32765
2.94178,1.95496,-0.235937,22,32765
2.91493,1.92304,-0.234747,21,32765
2.87117,1.88041,-0.232521,21,32765
2.85227,1.85445,-0.231688,20,32765
2.90865,1.87728,-0.237642,21,32765
2.89823,1.85639,-0.237876,22,32765
2.89602,1.84112,-0.238708,21,32765
2.87684,1.81522,-0.23846,21,32765
2.88279,1.80558,-0.239818,21,32765
2.85479,1.77485,-0.238742,20,32765
2.89466,1.78602,-0.243286,21,32765
2.83246,1.73461,-0.239195,22,32765
2.84685,1.72995,-0.241481,22,32765
2.84407,1.71504,-0.242466,22,32765
2.82411,1.68994,-0.241849,21,32765
2.82975,1.68025,-0.243508,22,32765
2.84384,1.67577,-0.245914,21,32765
2.85794,1.67117,-0.248525,20,32765
2.82037,1.63643,-0.245985,21,32765
2.79988,1.61183,-0.245549,20,32765
2.79661,1.59721,-0.246538,20,32765
2.79327,1.58267,-0.247373,21,32765
2.82468,1.5876,-0.251391,20,32765
2.79506,1.55865,-0.249729,20,32765
2.80893,1.55393,-0.252261,20,32765
2.7791,1.52518,-0.250726,21,32765
2.73152,1.48722,-0.247747,20,32765
2.75391,1.48747,-0.251068,20,32765
2.72359,1.4594,-0.249381,20,32765
2.79004,1.48277,-0.256848,22,32765
2.75971,1.45458,-0.255153,21,32765
2.7911,1.45882,-0.25927,22,32765
2.73405,1.41704,-0.255053,22,32765
2.71212,1.39405,-0.254242,22,32765
2.68128,1.36657,-0.252227,20,32765
2.74806,1.38879,-0.25983,22,32765
2.75268,1.37933,-0.261378,21,32765
2.72161,1.35202,-0.259581,22,32765
2.76175,1.36044,-0.264676,22,32765
2.72148,1.32915,-0.261764,22,32765
2.71686,1.31561,-0.26216,22,32765
2.71211,1.30216,-0.263109,23,32765
2.73439,1.30143,-0.266411,23,32765
2.70264,1.27511,-0.26426,22,32765
2.6708,1.24885,-0.262305,21,32765
2.71108,1.25645,-0.267167,21,32765
2.64269,1.21413,-0.261617,21,32765
2.71008,1.23411,-0.269348,22,32765
2.64146,1.19223,-0.263373,20,32765
2.69993,1.20763,-0.269983,21,32765
2.69479,1.19436,-0.270595,21,32765
2.69871,1.18514,-0.272004,22,32765
2.65695,1.15612,-0.268551,20,32765
2.59666,1.11965,-0.263326,20,32765
2.70103,1.15385,-0.274858,22,32765
2.65894,1.12534,-0.271429,21,32765
2.62586,1.10098,-0.268887,21,32765
2.65699,1.10362,-0.272964,22,32765
2.61454,1.07583,-0.269009,21,32765
2.58114,1.05205,-0.266294,20,32765
2.61225,1.05448,-0.270393,23,32765
2.62489,1.04944,-0.272402,22,32765
2.6653,1.05535,-0.277179,22,32765
2.60383,1.02106,-0.271301,21,32765
2.62569,1.01951,-0.274326,23,32765
2.629,1.01071,-0.275181,22,32765
2.58574,0.984276,-0.271166,22,32765
2.61682,0.986168,-0.275346,23,32765
2.62935,0.980937,-0.27687,22,32765
2.65119,0.979007,-0.279861,24,32765
2.61701,0.95645,-0.276528,23,32765
2.62939,0.951291,-0.278293,23,32765
2.60433,0.932589,-0.27597,23,32765
2.57917,0.914124,-0.273432,19,32765
2.57269,0.902313,-0.273316,23,32765
2.60385,0.903397,-0.276981,23,32765
2.59735,0.891586,-0.276473,24,32765
2.59077,0.879923,-0.275979,23,32765
2.60293,0.87489,-0.277353,23,32765
2.61515,0.869525,-0.278936,23,32765
2.60851,0.857816,-0.278221,23,32765
2.564,0.83388,-0.273241,24,32765
2.61404,0.840815,-0.278237,24,32765
2.59775,0.826456,-0.276127,24,32765
2.53394,0.797279,-0.269094,18,32765
2.98263,2.21331,-0.208841,16,32765
3.00596,2.215,-0.213468,16,32765
3.02125,2.21071,-0.217573,16,32765
2.97194,2.15945,-0.216268,18,32765
2.91423,2.10264,-0.21478,17,32765
2.96981,2.12765,-0.221228,17,32765
2.91981,2.07708,-0.220344,17,32765
2.98361,2.10759,-0.227399,17,32765
2.92502,2.05184,-0.224943,17,32765
2.87432,2.00214,-0.223219,17,32765
2.93822,2.0323,-0.230354,18,32765
2.89543,1.9886,-0.228743,18,32765
2.9018,1.97897,-0.231552,17,32765
2.88345,1.95242,-0.232108,16,32765
2.88991,1.94255,-0.234548,17,32765
2.89637,1.93264,-0.236761,18,32765
2.92768,1.93929,-0.241323,17,32765
2.90071,1.90742,-0.240885,18,32765
2.83167,1.84869,-0.236853,18,32765
2.79587,1.81196,-0.235577,19,32765
2.88554,1.85668,-0.24491,18,32765
2.84114,1.81479,-0.242664,18,32765
2.84705,1.80518,-0.245078,18,32765
2.92047,1.83808,-0.252727,19,32765
2.82507,1.76462,-0.246332,19,32765
2.86478,1.77604,-0.251247,20,32765
2.84513,1.7506,-0.251253,19,32765
2.86792,1.75131,-0.254619,21,32765
2.77977,1.68489,-0.248317,18,32765
2.81938,1.69616,-0.253284,18,32765
2.79911,1.67149,-0.253011,18,32765
2.77021,1.6418,-0.25163,19,32765
2.7412,1.61219,-0.250516,17,32765
2.78958,1.62796,-0.256043,18,32765
2.7605,1.5983,-0.255067,18,32765
2.8003,1.60882,-0.26,18,32765
2.75359,1.56976,-0.256901,17,32765
2.77606,1.57026,-0.260363,19,32765
2.74637,1.54148,-0.258626,18,32765
2.71658,1.51274,-0.257246,18,32765
2.75645,1.52277,-0.262182,18,32765
2.72652,1.4942,-0.260436,17,32765
2.75774,1.49907,-0.264854,17,32765
2.789,1.50386,-0.268865,18,32765
2.69728,1.44268,-0.261235,18,32765
2.70196,1.4336,-0.26288,18,32765
2.73308,1.43838,-0.267051,18,32765
2.71125,1.4153,-0.266333,18,32765
2.67169,1.38321,-0.263099,18,32765
2.71166,1.39225,-0.268611,19,32765
2.66303,1.35578,-0.264785,18,32765
2.6942,1.3601,-0.268886,18,32765
2.67205,1.33732,-0.26779,19,32765
2.71215,1.34588,-0.272855,19,32765
2.68981,1.32331,-0.271806,20,32765
2.72096,1.32729,-0.276135,20,32765
2.68053,1.29632,-0.272812,18,32765
2.67581,1.2828,-0.273622,18,32765
2.68,1.27373,-0.274954,19,32765
2.63014,1.23907,-0.270985,18,32765
2.64316,1.23447,-0.27335,18,32765
2.61102,1.20881,-0.271051,18,32765
2.6783,1.22898,-0.279123,18,32765
2.66415,1.2117,-0.278712,18,32765
2.64094,1.19027,-0.277133,19,32765
2.63573,1.1772,-0.27771,18,32765
2.57583,1.14006,-0.272483,18,32765
2.6069,1.14328,-0.276729,19,32765
2.5741,1.1186,-0.274152,18,32765
2.66915,1.1492,-0.285291,18,32765
2.59049,1.10501,-0.277901,19,32765
2.6399,1.11555,-0.284384,18,32765
2.68026,1.12188,-0.28984,18,32765
2.58278,1.07089,-0.280286,20,32765
2.59549,1.0658,-0.282713,19,32765
2.59891,1.05704,-0.284108,19,32765
2.55615,1.02974,-0.280437,20,32765
2.64264,1.05422,-0.290959,18,32765
2.59045,1.0235,-0.286404,19,32765
2.58447,1.0111,-0.286823,20,32765
2.60623,1.0097,-0.290157,20,32765
2.57229,0.986728,-0.287432,20,32765
2.56612,0.974566,-0.287831,20,32765
2.56918,0.966072,-0.289189,19,32765
2.55361,0.950491,-0.288519,20,32765
2.50061,0.921399,-0.283465,19,32765
2.54088,0.926651,-0.28925,19,32765
2.52508,0.911454,-0.288521,20,32765
2.55602,0.913122,-0.293005,20,32765
2.52135,0.891436,-0.290241,16,32765
2.54288,0.889669,-0.293897,19,32765
2.57382,0.891016,-0.298589,21,32765
2.52959,0.866316,-0.294597,20,32765
2.52283,0.85487,-0.294846,19,32765
2.5254,0.846601,-0.296658,19,32765
2.5091,0.832225,-0.295626,18,32765
2.48325,0.814864,-0.293893,18,32765
2.48567,0.806833,-0.295584,19,32765
2.4881,0.798851,-0.296799,19,32765
2.48094,0.787824,-0.297764,20,32765
2.51169,0.788892,-0.302632,19,32765
2.91271,2.17005,-0.237919,19,32765
2.93586,2.17197,-0.242658,20,32765
2.91881,2.14427,-0.244092,20,32765
2.90969,2.12263,-0.245454,20,32765
2.88429,2.08932,-0.245923,20,32765
2.90733,2.09116,-0.250117,21,32765
2.90602,2.07547,-0.25276,22,32765
2.87206,2.03684,-0.251893,20,32765
2.88675,2.03302,-0.255096,21,32765
2.84426,1.98905,-0.253427,20,32765
2.86704,1.99091,-0.25751,22,32765
2.88169,1.98698,-0.260492,22,32765
2.85513,1.95483,-0.260294,21,32765
2.86973,1.95079,-0.26357,21,32765
2.82659,1.90747,-0.261419,21,32765
2.83293,1.89774,-0.263592,21,32765
2.82256,1.87701,-0.264493,20,32765
2.77049,1.82895,-0.261257,21,32765
2.81805,1.84702,-0.267374,21,32765
2.80739,1.82656,-0.268025,21,32765
2.81322,1.81724,-0.270255,21,32765
2.77717,1.78087,-0.26822,20,32765
2.825,1.7982,-0.274674,21,32765
2.84773,1.7993,-0.278118,21,32765
2.78615,1.74711,-0.273879,22,32765
2.77497,1.72707,-0.27413,22,32765
2.81455,1.73853,-0.279691,22,32765
2.79479,1.7133,-0.278989,21,32765
2.80031,1.70394,-0.28102,21,32765
2.77169,1.67395,-0.279497,21,32765
2.75139,1.64938,-0.278918,21,32765
2.72248,1.61978,-0.277144,21,32765
2.71919,1.60545,-0.278265,21,32765
2.74169,1.60622,-0.281599,21,32765
2.7212,1.58166,-0.281112,20,32765
2.72638,1.57241,-0.282816,21,32765
2.75743,1.57803,-0.287225,21,32765
2.75391,1.56376,-0.288162,21,32765
2.69823,1.52032,-0.283316,21,32765
2.68582,1.50139,-0.283372,21,32765
2.69075,1.49222,-0.284977,21,32765
2.68696,1.4782,-0.28561,21,32765
2.71807,1.48321,-0.290283,22,32765
2.72297,1.47392,-0.291742,22,32765
2.67517,1.43636,-0.287777,21,32765
2.68861,1.43201,-0.290363,22,32765
2.66687,1.40894,-0.289085,22,32765
2.69789,1.41375,-0.293809,22,32765
2.64073,1.37244,-0.288184,22,32765
2.6983,1.39072,-0.295989,22,32765
2.63203,1.34515,-0.289655,22,32765
2.68087,1.35857,-0.295982,23,32765
2.65876,1.33578,-0.294607,22,32765
2.66316,1.32665,-0.296079,22,32765
2.6408,1.3042,-0.294727,21,32765
2.65397,1.2996,-0.297307,22,32765
2.62247,1.27312,-0.2945,22,32765
2.64458,1.27271,-0.298218,21,32765
2.68465,1.28085,-0.303601,23,32765
2.58994,1.22483,-0.293979,21,32765
2.65692,1.24567,-0.302574,22,32765
2.59782,1.20732,-0.296825,21,32765
2.60176,1.19845,-0.298293,20,32765
2.61467,1.19378,-0.30078,21,32765
2.60957,1.18066,-0.300994,22,32765
2.61341,1.17173,-0.302515,21,32765
2.62629,1.16688,-0.305075,21,32765
2.5482,1.12185,-0.296905,21,32765
2.58829,1.12911,-0.302452,21,32765
2.61021,1.12817,-0.305972,21,32765
2.58645,1.10755,-0.304168,22,32765
2.56258,1.08707,-0.302475,21,32765
2.54779,1.07056,-0.30175,21,32765
2.56042,1.06574,-0.304192,22,32765
2.61905,1.07964,-0.31218,22,32765
2.5489,1.04073,-0.304789,22,32765
2.56143,1.03588,-0.307263,22,32765
2.55556,1.02345,-0.307526,23,32765
2.58649,1.02591,-0.312407,23,32765
2.56203,1.00623,-0.310493,23,32765
2.53743,0.986885,-0.308378,23,32765
2.54056,0.978366,-0.30977,24,32765
2.54366,0.969816,-0.311198,23,32765
2.55599,0.964881,-0.313688,23,32765
2.55906,0.956256,-0.315121,23,32765
2.54343,0.940857,-0.314118,23,32765
2.5184,0.922068,-0.31221,23,32765
2.53062,0.917057,-0.314771,23,32765
2.53349,0.908648,-0.316041,23,32765
2.52693,0.896945,-0.316411,23,32765
2.52033,0.885278,-0.316727,20,32765
2.49493,0.867141,-0.314592,22,32765
2.51642,0.86524,-0.31841,23,32765
2.50027,0.850607,-0.317369,23,32765
2.49341,0.839221,-0.317969,23,32765
2.44886,0.8155,-0.313125,23,32765
2.47956,0.816923,-0.31834,22,32765
2.51972,0.821184,-0.324899,24,32765
2.49385,0.803933,-0.322469,23,32765
2.4678,0.786828,-0.32089,23,32765
2.43224,0.767046,-0.317388,23,32765
2.86989,2.13925,-0.274663,18,32765
2.84505,2.10565,-0.272792,18,32765
2.88421,2.11958,-0.277183,19,32765
2.86703,2.0922,-0.276458,18,32765
2.81749,2.04152,-0.27211,17,32765
2.84039,2.0436,-0.275603,18,32765
2.85538,2.03963,-0.277738,18,32765
2.79714,1.98368,-0.273148,16,32765
2.82817,1.99133,-0.277344,17,32765
2.80206,1.95891,-0.275746,18,32765
2.80028,1.94377,-0.276693,18,32765
2.83955,1.95684,-0.281654,18,32765
2.84602,1.9472,-0.283159,18,32765
