x, y, z, intensity, ring
1.60951,-0.275702,0.236546,19,32765
1.61832,-0.282774,0.238051,19,32765
1.60766,-0.286347,0.236526,19,32765
1.59694,-0.289809,0.235337,19,32765
1.596,-0.295004,0.235263,18,32765
1.58528,-0.298416,0.233969,18,32765
1.60372,-0.307342,0.236873,19,32765
1.59298,-0.310719,0.23553,19,32765
1.57255,-0.312121,0.232525,19,32765
1.59089,-0.321222,0.235533,19,32765
1.59952,-0.328472,0.236959,20,32765
1.57903,-0.329703,0.234216,18,32765
1.5779,-0.334888,0.234454,19,32765
1.57676,-0.340116,0.234612,18,32765
1.57563,-0.345271,0.234712,19,32765
1.57448,-0.350525,0.234612,18,32765
1.54431,-0.349172,0.23064,19,32765
1.56245,-0.35864,0.233529,19,32765
1.57084,-0.366032,0.235346,18,32765
1.57926,-0.373366,0.236949,18,32765
1.58765,-0.380873,0.23833,19,32765
1.56713,-0.381319,0.235781,18,32765
1.53703,-0.379264,0.231752,18,32765
1.57414,-0.393878,0.237767,18,32765
1.58242,-0.401416,0.239415,18,32765
1.5619,-0.40164,0.236756,18,32765
1.55095,-0.404254,0.235621,18,32765
1.54002,-0.40674,0.234493,18,32765
1.58644,-0.42457,0.24198,18,32765
1.54681,-0.419329,0.236522,18,32765
1.55491,-0.427021,0.238362,18,32765
1.55348,-0.432026,0.238668,17,32765
1.52346,-0.428964,0.234637,17,32765
1.54104,-0.43935,0.237852,18,32765
1.53006,-0.441601,0.236635,18,32765
1.55702,-0.454924,0.241494,19,32765
1.55547,-0.45996,0.241987,18,32765
1.49709,-0.447817,0.233631,17,32765
1.53346,-0.463991,0.240027,17,32765
1.54137,-0.471689,0.242059,18,32765
1.50199,-0.464939,0.236532,18,32765
1.54756,-0.48459,0.244576,19,32765
1.53651,-0.486584,0.243462,18,32765
1.49716,-0.479436,0.2382,18,32765
1.49555,-0.484126,0.238883,19,32765
1.53148,-0.501132,0.245663,17,32765
1.50162,-0.496593,0.241952,18,32765
1.791,0.0147014,0.261151,16,32765
1.7516,0.00868944,0.254432,15,32765
1.74183,0.00292177,0.2522,16,32765
1.76173,-0.0029393,0.254354,17,32765
1.75192,-0.00869084,0.252201,16,32765
1.752,-0.0145013,0.251402,16,32765
1.7025,-0.0196418,0.243951,16,32765
1.7124,-0.0253231,0.24482,16,32765
1.73217,-0.0312055,0.24721,16,32765
1.7519,-0.0373453,0.249728,17,32765
1.67267,-0.0412284,0.237879,16,32765
1.72206,-0.0482132,0.244542,17,32765
1.68237,-0.0525997,0.23845,17,32765
1.68225,-0.0582089,0.237993,17,32765
1.692,-0.0640605,0.239018,17,32765
1.67204,-0.0688153,0.235905,17,32765
1.66197,-0.0738444,0.234121,17,32765
1.68153,-0.0802319,0.23666,17,32765
1.68131,-0.0857335,0.236347,16,32765
1.67116,-0.0907073,0.234749,17,32765
1.66102,-0.0956193,0.232979,17,32765
1.66074,-0.101117,0.232647,17,32765
1.65052,-0.105963,0.231193,17,32765
1.66007,-0.112083,0.232384,17,32765
1.64981,-0.116819,0.231028,17,32765
1.62971,-0.120743,0.227997,17,32765
1.65897,-0.128385,0.231797,17,32765
1.6388,-0.132191,0.229021,18,32765
1.62851,-0.136698,0.227563,17,32765
1.63794,-0.142835,0.22877,17,32765
1.65721,-0.150048,0.231406,18,32765
1.62712,-0.152831,0.227196,17,32765
1.6562,-0.161195,0.231159,17,32765
1.62608,-0.163835,0.227004,17,32765
1.62554,-0.169137,0.226949,17,32765
1.63485,-0.175429,0.228254,17,32765
1.64411,-0.181806,0.229683,17,32765
1.65335,-0.188241,0.23109,17,32765
1.63305,-0.191374,0.228278,17,32765
1.64223,-0.197933,0.229765,17,32765
1.5826,-0.196098,0.22141,17,32765
1.58195,-0.20131,0.221388,17,32765
1.60091,-0.209081,0.224195,18,32765
1.61001,-0.215761,0.225632,17,32765
1.60931,-0.221024,0.22551,17,32765
1.58894,-0.223592,0.222868,17,32765
1.598,-0.230225,0.224245,18,32765
1.59722,-0.235458,0.224364,17,32765
1.62582,-0.245126,0.228492,18,32765
1.61519,-0.248986,0.227316,18,32765
1.58499,-0.249747,0.223212,18,32765
1.58414,-0.255081,0.223204,18,32765
1.6126,-0.265216,0.227317,18,32765
1.60191,-0.269011,0.226095,17,32765
1.58146,-0.271011,0.223445,18,32765
1.60006,-0.279668,0.226257,18,32765
1.55037,-0.276323,0.219315,17,32765
1.54939,-0.281493,0.219673,17,32765
1.55819,-0.288416,0.221059,19,32765
1.57671,-0.297195,0.223751,18,32765
1.58543,-0.304217,0.225275,18,32765
1.59413,-0.311345,0.226748,18,32765
1.55422,-0.308881,0.221332,17,32765
1.5726,-0.317957,0.224139,18,32765
1.56182,-0.321178,0.222821,17,32765
1.64801,-0.344579,0.2352,14,32765
1.63714,-0.348056,0.233914,14,32765
1.54884,-0.334645,0.221637,14,32765
1.53803,-0.337689,0.220274,16,32765
1.57556,-0.351442,0.225861,17,32765
1.58406,-0.358807,0.227162,17,32765
1.54424,-0.355112,0.221839,17,32765
1.53344,-0.357889,0.220431,18,32765
1.55154,-0.367456,0.223183,18,32765
1.5407,-0.370169,0.221817,18,32765
1.52984,-0.372955,0.220464,18,32765
1.58628,-0.392288,0.228727,17,32765
1.53696,-0.385475,0.221733,18,32765
1.53568,-0.390519,0.221768,18,32765
1.52483,-0.39299,0.220372,17,32765
1.52354,-0.397902,0.220478,17,32765
1.55101,-0.410379,0.224383,18,32765
1.50185,-0.402525,0.217507,19,32765
1.51967,-0.412548,0.220236,19,32765
1.51836,-0.417416,0.220139,18,32765
1.48838,-0.414361,0.215973,19,32765
1.51561,-0.427307,0.220066,19,32765
1.49518,-0.426768,0.217242,18,32765
1.49383,-0.431584,0.217056,18,32765
1.50195,-0.439168,0.218335,19,32765
1.51005,-0.446802,0.219613,19,32765
1.51808,-0.454541,0.220939,18,32765
1.47873,-0.447892,0.215311,19,32765
1.48681,-0.455471,0.216451,19,32765
1.48542,-0.460091,0.216187,19,32765
1.49346,-0.467638,0.217435,19,32765
1.45425,-0.460373,0.211668,18,32765
1.4717,-0.470965,0.214234,19,32765
1.47969,-0.478634,0.215207,19,32765
1.47826,-0.483174,0.214911,17,32765
1.45809,-0.4814,0.211468,19,32765
1.73393,0.014436,0.236148,17,32765
1.72419,0.00874547,0.233866,18,32765
1.74414,0.00310979,0.235758,17,32765
1.70459,-0.00267392,0.229711,18,32765
1.7344,-0.0084409,0.233001,17,32765
1.675,-0.0137163,0.224248,17,32765
1.67499,-0.0191861,0.223905,18,32765
1.71464,-0.0252243,0.228654,18,32765
1.69478,-0.030411,0.22558,18,32765
1.69471,-0.0360149,0.225283,18,32765
1.69466,-0.0416689,0.224713,18,32765
1.69456,-0.0473516,0.224345,17,32765
1.68455,-0.052586,0.222562,18,32765
1.67451,-0.0578697,0.220798,18,32765
1.69418,-0.0640803,0.223035,18,32765
1.66428,-0.0684439,0.218806,18,32765
1.68391,-0.0747762,0.221018,18,32765
1.67379,-0.0798287,0.21947,18,32765
1.66365,-0.0848095,0.217862,19,32765
1.66339,-0.0902714,0.217655,18,32765
1.67304,-0.0963063,0.218568,19,32765
1.67275,-0.101853,0.218232,19,32765
1.65262,-0.106112,0.215581,18,32765
1.65229,-0.111581,0.215388,18,32765
1.64202,-0.1163,0.214126,18,32765
1.67133,-0.123869,0.217724,19,32765
1.67096,-0.129365,0.217377,18,32765
1.64088,-0.132419,0.213501,19,32765
1.62068,-0.13611,0.210851,18,32765
1.63014,-0.142233,0.211965,18,32765
1.6593,-0.150327,0.215699,19,32765
1.62917,-0.153121,0.21177,19,32765
1.65828,-0.161506,0.215451,19,32765
1.62812,-0.164157,0.211577,19,32765
1.62759,-0.169475,0.211522,18,32765
1.61718,-0.173667,0.210171,19,32765
1.64617,-0.182179,0.214069,19,32765
1.62586,-0.185264,0.211537,19,32765
1.62525,-0.190621,0.211477,19,32765
1.6246,-0.195978,0.211588,19,32765
1.61411,-0.200181,0.210203,18,32765
1.63312,-0.208012,0.212744,18,32765
1.62258,-0.21211,0.21152,19,32765
1.62185,-0.217556,0.211582,19,32765
1.61132,-0.221517,0.210178,19,32765
1.61056,-0.22686,0.210288,18,32765
1.60981,-0.232161,0.210289,18,32765
1.59921,-0.235994,0.209126,19,32765
1.60823,-0.242727,0.210408,19,32765
1.60739,-0.248047,0.210607,18,32765
1.59676,-0.251871,0.209353,19,32765
1.61548,-0.26041,0.211913,19,32765
1.58524,-0.261004,0.20804,19,32765
1.60389,-0.269644,0.210765,19,32765
1.60297,-0.275007,0.210874,19,32765
1.5825,-0.276914,0.208355,18,32765
1.59133,-0.283952,0.209597,18,32765
1.60008,-0.291041,0.211253,19,32765
1.57961,-0.292725,0.20868,18,32765
1.58839,-0.299752,0.209897,19,32765
1.57764,-0.303084,0.208752,19,32765
1.56689,-0.306394,0.207553,18,32765
1.58531,-0.315442,0.210248,19,32765
1.5648,-0.31677,0.207709,18,32765
1.56373,-0.321968,0.207775,18,32765
1.56267,-0.327141,0.207701,18,32765
1.56155,-0.332401,0.207795,16,32765
1.56041,-0.337572,0.207976,16,32765
1.54959,-0.340658,0.206707,16,32765
1.53876,-0.343673,0.20546,16,32765
1.5473,-0.350931,0.20667,17,32765
1.53645,-0.353778,0.205595,19,32765
1.53529,-0.358788,0.205574,19,32765
1.56306,-0.37067,0.209432,19,32765
1.52328,-0.366465,0.204281,19,32765
1.56057,-0.380954,0.209487,19,32765
1.49193,-0.369448,0.200383,19,32765
1.52918,-0.384039,0.205492,19,32765
1.50868,-0.384172,0.202941,18,32765
1.54584,-0.398948,0.208102,20,32765
1.50616,-0.393901,0.203036,19,32765
1.50492,-0.398731,0.202789,19,32765
1.52278,-0.408697,0.205423,19,32765
1.49276,-0.405803,0.201506,19,32765
1.52014,-0.41849,0.205285,19,32765
1.50922,-0.420754,0.203981,20,32765
1.52693,-0.431104,0.206504,19,32765
1.516,-0.433321,0.205157,19,32765
1.49556,-0.432701,0.20239,19,32765
1.48466,-0.434732,0.200999,19,32765
1.51179,-0.44796,0.204761,18,32765
1.48183,-0.444328,0.200843,19,32765
1.48991,-0.451935,0.202026,19,32765
1.46954,-0.450839,0.199215,19,32765
1.48711,-0.461289,0.201522,19,32765
1.48569,-0.465889,0.201395,19,32765
1.45589,-0.461575,0.197283,19,32765
1.46391,-0.469168,0.198383,18,32765
1.52853,-0.495168,0.206929,17,32765
1.47048,-0.481352,0.198971,19,32765
1.46912,-0.485773,0.198261,19,32765
1.74723,0.0178732,0.210905,17,32765
1.7075,0.0116573,0.206688,16,32765
1.68761,0.00592148,0.204809,16,32765
1.70743,0.000519238,0.207601,17,32765
1.69746,-0.00484204,0.206674,16,32765
1.6577,-0.0101653,0.202025,15,32765
1.71717,-0.0162208,0.209648,17,32765
1.727,-0.0220538,0.211112,16,32765
1.69713,-0.027271,0.207656,16,32765
1.64738,-0.0318522,0.201809,16,32765
1.66708,-0.0377101,0.204467,16,32765
1.67686,-0.0433918,0.205809,16,32765
1.68662,-0.0492135,0.207107,16,32765
1.67651,-0.0545054,0.206034,16,32765
1.71597,-0.0615053,0.211101,17,32765
1.70583,-0.0668986,0.209889,17,32765
1.656,-0.0704449,0.203957,16,32765
1.63591,-0.0749356,0.20167,17,32765
1.67529,-0.0822279,0.206731,17,32765
1.68491,-0.0881629,0.208081,17,32765
1.69451,-0.0942568,0.209378,17,32765
1.64465,-0.0969053,0.203279,17,32765
1.69385,-0.105389,0.209454,17,32765
1.65388,-0.108348,0.204559,17,32765
1.6535,-0.11376,0.204708,17,32765
1.64321,-0.118568,0.203501,17,32765
1.62301,-0.122582,0.201006,18,32765
1.65226,-0.1304,0.204789,18,32765
1.64194,-0.135059,0.203471,18,32765
1.6118,-0.137915,0.199934,18,32765
1.62121,-0.14405,0.201296,18,32765
1.64052,-0.151128,0.203628,18,32765
1.65976,-0.158445,0.206149,18,32765
1.6296,-0.161076,0.202394,18,32765
1.60929,-0.164563,0.200035,18,32765
1.59885,-0.168908,0.198843,18,32765
1.60817,-0.175246,0.199916,18,32765
1.59771,-0.179424,0.198803,18,32765
1.59712,-0.184636,0.198782,18,32765
1.61624,-0.192235,0.200998,18,32765
1.58602,-0.193989,0.197535,18,32765
1.6149,-0.203001,0.201223,18,32765
1.59453,-0.20582,0.19875,19,32765
1.57415,-0.208525,0.1964,18,32765
1.59313,-0.216385,0.198799,18,32765
1.58259,-0.220289,0.197474,19,32765
1.6015,-0.228283,0.199926,18,32765
1.58109,-0.230745,0.197539,19,32765
1.59993,-0.238971,0.200062,18,32765
1.55006,-0.236839,0.193941,18,32765
1.57868,-0.246638,0.197561,18,32765
1.55826,-0.24877,0.195018,19,32765
1.55744,-0.253909,0.194944,19,32765
1.57616,-0.262298,0.197574,18,32765
1.56549,-0.265874,0.196363,18,32765
1.59393,-0.276179,0.199994,18,32765
1.57344,-0.27808,0.19764,19,32765
1.56274,-0.281541,0.196381,18,32765
1.57158,-0.288442,0.197565,18,32765
1.55111,-0.289908,0.195236,18,32765
1.55989,-0.296829,0.196522,18,32765
1.54916,-0.300072,0.195366,18,32765
1.54816,-0.305197,0.195358,18,32765
1.51793,-0.304448,0.191835,18,32765
1.54606,-0.315505,0.195606,18,32765
1.54497,-0.320696,0.195746,19,32765
1.53416,-0.323767,0.194715,18,32765
1.53311,-0.328752,0.19466,18,32765
1.54171,-0.335837,0.19605,19,32765
1.55027,-0.343061,0.197441,18,32765
1.54909,-0.348233,0.197651,18,32765
1.68334,-0.384321,0.215071,14,32765
1.61434,-0.374249,0.206729,14,32765
1.52616,-0.359045,0.195741,18,32765
1.51532,-0.361688,0.194641,19,32765
1.5141,-0.366576,0.194958,19,32765
1.52252,-0.373869,0.196353,19,32765
1.54054,-0.38358,0.199025,19,32765
1.52963,-0.386129,0.198117,19,32765
1.4995,-0.383717,0.194577,18,32765
1.4982,-0.388593,0.194948,19,32765
1.5257,-0.400965,0.198931,19,32765
1.50517,-0.400836,0.196704,19,32765
1.55171,-0.418608,0.203368,18,32765
1.50246,-0.410573,0.197367,19,32765
1.51061,-0.418144,0.199033,19,32765
1.49011,-0.41766,0.196806,19,32765
1.51734,-0.430611,0.200898,19,32765
1.51587,-0.435485,0.201438,19,32765
1.51438,-0.4404,0.201991,19,32765
1.49387,-0.439699,0.199765,19,32765
1.50189,-0.447333,0.201519,18,32765
1.5004,-0.452121,0.201986,19,32765
1.48941,-0.453963,0.201182,19,32765
1.46892,-0.452855,0.199268,19,32765
1.50528,-0.469334,0.204854,19,32765
1.49427,-0.471108,0.20402,19,32765
1.46435,-0.466703,0.200913,19,32765
1.49114,-0.480333,0.205417,18,32765
1.4895,-0.485039,0.206243,16,32765
1.49723,-0.49298,0.208291,19,32765
1.70938,0.0176617,0.189995,17,32765
1.70937,0.0118359,0.190572,18,32765
1.71928,0.00618979,0.192214,17,32765
1.68943,0.000659017,0.189259,18,32765
1.69933,-0.00471046,0.190652,18,32765
1.68935,-0.0102328,0.189727,18,32765
1.68927,-0.0158401,0.190085,18,32765
1.69911,-0.0215895,0.191451,18,32765
1.6692,-0.0267256,0.188273,18,32765
1.66908,-0.0321844,0.188501,18,32765
1.68881,-0.0381227,0.190974,18,32765
1.66879,-0.0431145,0.188852,18,32765
1.67857,-0.0489192,0.190056,18,32765
1.65852,-0.0538713,0.18795,18,32765
1.67817,-0.0601102,0.190387,18,32765
1.65809,-0.0649966,0.188143,18,32765
1.65785,-0.0705033,0.188312,17,32765
1.68737,-0.0772815,0.191856,19,32765
1.67716,-0.0823182,0.1909,19,32765
1.65703,-0.0867116,0.188765,18,32765
1.66665,-0.092724,0.189967,19,32765
1.65641,-0.0976248,0.188859,19,32765
1.64616,-0.102458,0.18778,19,32765
1.64581,-0.107865,0.187784,19,32765
1.63552,-0.112578,0.1868,19,32765
1.63513,-0.11805,0.186819,19,32765
1.63473,-0.123541,0.186775,19,32765
1.6541,-0.13063,0.189145,18,32765
1.63387,-0.134489,0.186789,18,32765
1.6433,-0.140713,0.188064,19,32765
1.63292,-0.145202,0.187067,18,32765
1.65224,-0.152331,0.189211,19,32765
1.63194,-0.15592,0.187012,19,32765
1.63141,-0.161396,0.186938,19,32765
1.64073,-0.16793,0.188167,19,32765
1.61051,-0.170298,0.184802,19,32765
1.62971,-0.177763,0.186913,19,32765
1.62911,-0.183129,0.187029,19,32765
1.61863,-0.187311,0.185874,19,32765
1.61803,-0.192645,0.185637,19,32765
1.61736,-0.198029,0.185854,19,32765
1.61668,-0.203443,0.185862,19,32765
1.616,-0.208818,0.185843,19,32765
1.60543,-0.212904,0.184816,19,32765
1.61457,-0.219544,0.185893,18,32765
1.60401,-0.223526,0.18466,18,32765
1.60326,-0.228798,0.184659,19,32765
1.61231,-0.235578,0.185859,19,32765
1.62133,-0.242455,0.187063,19,32765
1.59104,-0.243393,0.183678,19,32765
1.57059,-0.245672,0.181349,19,32765
1.59921,-0.25562,0.184658,18,32765
1.58856,-0.259303,0.18345,18,32765
1.58767,-0.264545,0.183629,19,32765
1.59657,-0.271496,0.18478,19,32765
1.57608,-0.273434,0.182462,19,32765
1.56536,-0.277008,0.181429,18,32765
1.59377,-0.287502,0.184798,19,32765
1.59282,-0.292723,0.184755,19,32765
1.56255,-0.292431,0.18148,18,32765
1.57133,-0.299402,0.182674,19,32765
1.55082,-0.300796,0.180477,19,32765
1.57906,-0.311708,0.183874,19,32765
1.578,-0.316925,0.184044,19,32765
1.53798,-0.314284,0.179581,19,32765
1.56608,-0.325523,0.183133,19,32765
1.55524,-0.328667,0.182199,19,32765
1.54446,-0.331645,0.181005,19,32765
1.54335,-0.336663,0.181164,19,32765
1.52282,-0.337458,0.17904,19,32765
1.56042,-0.351276,0.183813,20,32765
1.54954,-0.354274,0.182788,18,32765
1.54831,-0.359453,0.183086,15,32765
1.58579,-0.373608,0.187822,14,32765
1.53624,-0.367209,0.182237,14,32765
1.53501,-0.372173,0.182558,15,32765
1.53377,-0.377177,0.182714,18,32765
1.54216,-0.384542,0.18405,19,32765
1.51197,-0.38223,0.180931,19,32765
1.53956,-0.394546,0.184592,20,32765
1.48054,-0.384579,0.178036,18,32765
1.51769,-0.39945,0.182894,20,32765
1.52594,-0.40697,0.184331,19,32765
1.48622,-0.401535,0.180077,19,32765
1.53277,-0.41948,0.186168,19,32765
1.49305,-0.413901,0.181918,19,32765
1.47254,-0.413355,0.179875,19,32765
1.49982,-0.42628,0.183683,19,32765
1.49837,-0.431107,0.184217,19,32765
1.49689,-0.435973,0.184764,19,32765
1.49543,-0.440826,0.18508,19,32765
1.49394,-0.445643,0.18556,19,32765
1.49246,-0.450414,0.186025,19,32765
1.49096,-0.455132,0.186499,20,32765
1.47045,-0.454022,0.184774,19,32765
1.47842,-0.461667,0.186402,19,32765
1.51476,-0.478304,0.191643,20,32765
1.50371,-0.479986,0.191233,19,32765
1.49269,-0.481578,0.190646,17,32765
1.47218,-0.480142,0.18905,19,32765
1.48937,-0.491153,0.192213,19,32765
1.71869,0.0169369,0.196767,17,32765
1.66917,0.010779,0.190168,17,32765
1.69909,0.00518713,0.19281,17,32765
1.71904,-0.000411838,0.194439,17,32765
1.66941,-0.00580258,0.188279,17,32765
1.6496,-0.0110713,0.185225,17,32765
1.66948,-0.0167117,0.186979,17,32765
1.64959,-0.0219356,0.184317,17,32765
1.64955,-0.0273231,0.183953,17,32765
1.66939,-0.0331304,0.185568,17,32765
1.65936,-0.0383998,0.184287,17,32765
1.64935,-0.0435921,0.182647,17,32765
1.66911,-0.0496463,0.184436,17,32765
1.65904,-0.0548719,0.182924,18,32765
1.64895,-0.0600625,0.181573,17,32765
1.66863,-0.0663611,0.18348,18,32765
1.61876,-0.069782,0.177915,18,32765
1.63843,-0.0759874,0.179681,18,32765
1.64812,-0.0818106,0.180571,18,32765
1.62804,-0.0860668,0.177949,19,32765
1.63769,-0.0919003,0.178954,19,32765
1.62748,-0.0966543,0.177644,19,32765
1.60735,-0.100731,0.175195,19,32765
1.61695,-0.106629,0.176069,19,32765
1.64636,-0.114025,0.179119,20,32765
1.6063,-0.11663,0.174907,19,32765
1.62574,-0.12348,0.176949,18,32765
1.61544,-0.128072,0.175653,19,32765
1.63482,-0.135023,0.177812,18,32765
1.60466,-0.137893,0.174497,18,32765
1.61413,-0.144078,0.175258,17,32765
1.60376,-0.148506,0.174057,18,32765
1.63296,-0.156687,0.177153,18,32765
1.61265,-0.16005,0.175066,18,32765
1.61212,-0.165378,0.174973,18,32765
1.61157,-0.170675,0.17494,18,32765
1.58137,-0.172748,0.171575,19,32765
1.59068,-0.179112,0.172535,20,32765
1.58018,-0.18321,0.171682,19,32765
1.57959,-0.188407,0.171432,20,32765
1.56907,-0.192387,0.170581,19,32765
1.58816,-0.199998,0.172785,20,32765
1.58748,-0.205252,0.172824,19,32765
1.5868,-0.210501,0.172791,19,32765
1.56636,-0.213131,0.170819,18,32765
1.56565,-0.218332,0.170766,19,32765
1.54521,-0.220751,0.168806,18,32765
1.57398,-0.230256,0.17195,19,32765
1.60267,-0.239976,0.175389,19,32765
1.56254,-0.239325,0.171144,19,32765
1.57155,-0.246087,0.172234,18,32765
1.58052,-0.252971,0.17338,19,32765
1.56984,-0.256592,0.172477,19,32765
1.58858,-0.265066,0.174802,20,32765
1.55828,-0.265323,0.171637,19,32765
1.55741,-0.270443,0.171569,18,32765
1.5467,-0.273937,0.170494,19,32765
1.53599,-0.277279,0.169588,19,32765
1.5546,-0.285988,0.17187,19,32765
1.55363,-0.291143,0.17192,20,32765
1.52335,-0.290694,0.168851,19,32765
1.56143,-0.303288,0.173062,19,32765
1.52139,-0.300741,0.168913,19,32765
1.53013,-0.307709,0.170041,19,32765
1.52911,-0.312804,0.169947,18,32765
1.53778,-0.319885,0.171201,19,32765
1.51724,-0.320924,0.169092,19,32765
1.53558,-0.330142,0.17142,19,32765
1.53449,-0.335219,0.171393,19,32765
1.54305,-0.342484,0.17262,19,32765
1.55161,-0.349805,0.173652,19,32765
1.50197,-0.343889,0.168344,19,32765
1.48146,-0.344388,0.166057,18,32765
1.49965,-0.353804,0.168418,18,32765
1.51783,-0.363316,0.170575,19,32765
1.49733,-0.363559,0.168344,14,32765
1.53473,-0.377913,0.172914,13,32765
1.62992,-0.407003,0.183831,13,32765
1.59004,-0.402554,0.179508,14,32765
1.50208,-0.385467,0.169595,18,32765
1.50082,-0.39036,0.169604,19,32765
1.49954,-0.395227,0.169657,19,32765
1.53667,-0.410324,0.173969,18,32765
1.47776,-0.399721,0.167462,19,32765
1.48603,-0.407195,0.168502,18,32765
1.48469,-0.412098,0.168416,19,32765
1.47377,-0.414275,0.167252,18,32765
1.49157,-0.424434,0.169342,19,32765
1.48063,-0.426518,0.168262,19,32765
1.47929,-0.431235,0.168052,19,32765
1.46836,-0.433155,0.167001,17,32765
1.46698,-0.437841,0.166894,19,32765
1.47514,-0.445323,0.167788,19,32765
1.45476,-0.444053,0.165482,18,32765
1.47237,-0.454478,0.167532,19,32765
1.46143,-0.45622,0.166375,19,32765
1.47895,-0.466938,0.168194,19,32765
1.48697,-0.474623,0.169017,18,32765
1.4288,-0.460768,0.162246,15,32765
1.46525,-0.477384,0.166236,18,32765
1.49216,-0.491222,0.169017,18,32765
1.71052,0.0170236,0.179502,17,32765
1.71067,0.0112032,0.178567,17,32765
1.69088,0.00530557,0.175741,17,32765
1.74069,-0.000280026,0.180275,17,32765
1.72084,-0.00585631,0.177657,13,32765
0,-0,0,13,32765
1.77064,-0.0176175,0.181413,14,32765
1.77062,-0.0234491,0.180945,15,32765
1.691,-0.0279281,0.172439,16,32765
1.68102,-0.0332905,0.17082,17,32765
1.68091,-0.0388382,0.17064,18,32765
1.66094,-0.0438491,0.168081,18,32765
1.68072,-0.049952,0.16968,18,32765
1.6607,-0.0548977,0.167257,18,32765
1.67047,-0.0608279,0.168,18,32765
1.67029,-0.0664186,0.167718,19,32765
1.64024,-0.0707101,0.164618,19,32765
1.66987,-0.0774577,0.167186,18,32765
1.67956,-0.0833936,0.167978,19,32765
1.66939,-0.0882852,0.166527,19,32765
1.6393,-0.0920323,0.163472,19,32765
1.66881,-0.0991615,0.166214,19,32765
1.63871,-0.102758,0.162958,18,32765
1.62846,-0.107459,0.161762,19,32765
1.63804,-0.11353,0.162558,19,32765
1.63764,-0.118997,0.162664,20,32765
1.63725,-0.124455,0.162546,20,32765
1.63685,-0.129881,0.162326,20,32765
1.6265,-0.134456,0.161346,19,32765
1.63596,-0.140714,0.162247,20,32765
1.63552,-0.146129,0.161927,20,32765
1.62513,-0.150636,0.160817,19,32765
1.62463,-0.15605,0.160691,19,32765
1.63401,-0.162343,0.161732,20,32765
1.61367,-0.165718,0.159679,20,32765
1.60323,-0.169981,0.158666,19,32765
1.61256,-0.176357,0.159498,18,32765
1.61198,-0.181721,0.159384,20,32765
1.60146,-0.185897,0.158628,20,32765
1.59098,-0.189994,0.157398,20,32765
1.60021,-0.196443,0.1586,19,32765
1.58967,-0.200436,0.157679,20,32765
1.589,-0.205705,0.157718,19,32765
1.59817,-0.212279,0.158665,18,32765
1.6073,-0.218981,0.159823,19,32765
1.59671,-0.222952,0.158789,19,32765
1.58608,-0.226887,0.158002,20,32765
1.58532,-0.232222,0.15792,20,32765
1.57466,-0.236097,0.157151,20,32765
1.57385,-0.241383,0.15721,20,32765
1.57304,-0.246655,0.157224,20,32765
1.57218,-0.251981,0.157293,20,32765
1.5615,-0.255581,0.156484,20,32765
1.55081,-0.259125,0.155665,20,32765
1.54994,-0.264271,0.155737,21,32765
1.55887,-0.271079,0.156655,20,32765
1.56775,-0.278059,0.157644,20,32765
1.55701,-0.281476,0.156835,20,32765
1.52669,-0.281258,0.153996,20,32765
1.5453,-0.290001,0.156019,20,32765
1.54431,-0.295124,0.156197,19,32765
1.54334,-0.300214,0.15608,19,32765
1.55208,-0.307261,0.157249,19,32765
1.5413,-0.310415,0.156306,20,32765
1.55976,-0.31955,0.158189,19,32765
1.52945,-0.318629,0.155394,19,32765
1.52837,-0.323765,0.155452,19,32765
1.56618,-0.337229,0.159577,20,32765
1.53589,-0.336036,0.156577,19,32765
1.52503,-0.339002,0.155727,19,32765
1.54331,-0.348469,0.157658,20,32765
1.53243,-0.351404,0.156787,20,32765
1.52157,-0.35426,0.155677,19,32765
1.52038,-0.359251,0.155871,19,32765
1.50952,-0.361891,0.154863,19,32765
1.51801,-0.369158,0.155797,19,32765
1.51678,-0.374082,0.156019,19,32765
1.51554,-0.37904,0.156059,19,32765
1.46607,-0.371757,0.151116,19,32765
1.46487,-0.376516,0.150997,19,32765
1.54066,-0.401364,0.158954,18,32765
1.53934,-0.40637,0.159009,18,32765
1.52841,-0.408776,0.157977,19,32765
1.47906,-0.400719,0.153026,19,32765
1.48733,-0.408213,0.153973,19,32765
1.4764,-0.410464,0.152895,18,32765
1.51336,-0.4261,0.156787,19,32765
1.44501,-0.41186,0.149762,17,32765
1.50102,-0.433106,0.155718,17,32765
1.58562,-0.462998,0.16442,14,32765
1.50778,-0.445523,0.156531,15,32765
1.45869,-0.436092,0.151471,14,32765
1.45733,-0.440683,0.151284,15,32765
1.50356,-0.45972,0.156083,14,32765
1.52113,-0.470322,0.157943,15,32765
1.48164,-0.463311,0.153917,15,32765
1.48016,-0.468117,0.153575,16,32765
1.4787,-0.472791,0.153322,17,32765
1.51519,-0.489465,0.156924,19,32765
1.46644,-0.478591,0.151712,19,32765
1.465,-0.483114,0.151284,19,32765
1.69304,0.0200007,0.152324,18,32765
1.67314,0.0141288,0.151036,18,32765
1.69306,0.0086951,0.153173,18,32765
1.70301,0.00306684,0.154441,17,32765
1.66313,-0.00251167,0.151303,17,32765
1.683,-0.00817683,0.153404,17,32765
1.673,-0.013624,0.152634,17,32765
1.7028,-0.0193392,0.155565,17,32765
1.67283,-0.0244981,0.153071,17,32765
1.64285,-0.0294805,0.150535,17,32765
1.66263,-0.0354179,0.152717,17,32765
1.64259,-0.0404775,0.150853,17,32765
1.65238,-0.0461734,0.152037,17,32765
1.66216,-0.0519612,0.153052,17,32765
1.64208,-0.0566609,0.151213,17,32765
1.6518,-0.0624408,0.152506,17,32765
1.67148,-0.068708,0.154336,17,32765
1.6414,-0.072982,0.151599,19,32765
1.64113,-0.0785191,0.151724,18,32765
1.61102,-0.0824991,0.148993,18,32765
1.61073,-0.0878312,0.149166,18,32765
1.62037,-0.0936963,0.150083,19,32765
1.61012,-0.0983352,0.14914,18,32765
1.64954,-0.106111,0.152888,19,32765
1.62932,-0.110102,0.150971,19,32765
1.62892,-0.115576,0.151208,18,32765
1.61857,-0.120299,0.15048,19,32765
1.64795,-0.127984,0.153261,18,32765
1.59788,-0.129479,0.148738,19,32765
1.63713,-0.138111,0.152447,18,32765
1.61683,-0.141764,0.150551,19,32765
1.60644,-0.146258,0.149543,18,32765
1.61584,-0.152471,0.150718,19,32765
1.61534,-0.157821,0.150613,19,32765
1.60488,-0.16214,0.149871,19,32765
1.59443,-0.166478,0.148947,18,32765
1.62357,-0.175032,0.151619,18,32765
1.5834,-0.176108,0.147805,19,32765
1.61247,-0.184821,0.15062,19,32765
1.59206,-0.187841,0.148885,18,32765
1.57166,-0.190691,0.147011,19,32765
1.5908,-0.198331,0.148686,20,32765
1.60003,-0.204796,0.149575,19,32765
1.59934,-0.210092,0.149565,19,32765
1.57889,-0.212733,0.147774,18,32765
1.57817,-0.217996,0.147859,18,32765
1.59715,-0.226033,0.149705,19,32765
1.55696,-0.225664,0.146101,18,32765
1.56605,-0.232355,0.14692,19,32765
1.58494,-0.240551,0.148977,19,32765
1.56444,-0.24285,0.147175,19,32765
1.55377,-0.246536,0.146385,19,32765
1.56277,-0.253301,0.147225,19,32765
1.56192,-0.258503,0.147197,19,32765
1.53162,-0.258613,0.144437,19,32765
1.55036,-0.267171,0.14634,19,32765
1.55924,-0.274141,0.147321,19,32765
1.52891,-0.274054,0.144655,18,32765
1.58675,-0.289858,0.150309,18,32765
1.56622,-0.291333,0.14855,18,32765
1.55547,-0.294642,0.147641,18,32765
1.5447,-0.297896,0.146854,19,32765
1.53394,-0.301046,0.145971,19,32765
1.55244,-0.310074,0.147941,19,32765
1.51237,-0.307235,0.144352,18,32765
1.54057,-0.318332,0.147348,20,32765
1.5395,-0.323487,0.147328,19,32765
1.5384,-0.328575,0.147549,19,32765
1.5081,-0.327309,0.144909,18,32765
1.53618,-0.338648,0.147883,19,32765
1.52533,-0.34156,0.147035,19,32765
1.51446,-0.344398,0.146242,18,32765
1.50361,-0.347069,0.145632,19,32765
1.50245,-0.352008,0.145768,19,32765
1.52064,-0.361479,0.147946,19,32765
1.51943,-0.366493,0.148057,19,32765
1.49885,-0.366758,0.146393,19,32765
1.49763,-0.371634,0.146594,19,32765
1.48673,-0.374109,0.145886,18,32765
1.51441,-0.386305,0.149118,19,32765
1.49382,-0.386283,0.147564,19,32765
1.59845,-0.418954,0.158243,15,32765
1.4912,-0.396068,0.148195,17,32765
1.52832,-0.411256,0.152303,19,32765
1.48856,-0.405661,0.148733,18,32765
1.50638,-0.415782,0.151162,19,32765
1.52418,-0.426007,0.1533,17,32765
1.51316,-0.428208,0.15292,17,32765
1.5117,-0.43319,0.153318,16,32765
1.55805,-0.451882,0.158687,15,32765
1.57564,-0.462523,0.161043,13,32765
1.49775,-0.444994,0.153666,14,32765
1.54393,-0.464113,0.159016,13,32765
1.49477,-0.454551,0.154724,14,32765
1.55986,-0.47971,0.16226,15,32765
1.55827,-0.484691,0.162712,14,32765
1.47122,-0.462794,0.154422,14,32765
1.4602,-0.464423,0.154056,15,32765
1.43025,-0.459848,0.151727,14,32765
1.41928,-0.461182,0.151466,15,32765
1.45555,-0.478023,0.156442,16,32765
1.70437,0.0202782,0.137148,18,32765
1.69442,0.014441,0.136856,19,32765
1.68446,0.00877234,0.136388,18,32765
1.68446,0.00314449,0.136751,19,32765
1.68442,-0.00244292,0.137231,19,32765
1.69434,-0.0081409,0.138335,19,32765
1.6943,-0.0137168,0.138474,19,32765
1.67429,-0.0189458,0.137047,19,32765
1.66424,-0.0243131,0.136465,19,32765
1.69403,-0.0303489,0.13912,19,32765
1.67396,-0.0356203,0.137843,19,32765
1.68379,-0.0414643,0.138628,19,32765
1.69359,-0.0473065,0.139724,19,32765
1.68345,-0.0526189,0.139003,19,32765
1.64343,-0.05671,0.135706,19,32765
1.65316,-0.0625047,0.136906,19,32765
1.66291,-0.0683782,0.137723,19,32765
1.66267,-0.0739608,0.137742,18,32765
1.6624,-0.0795802,0.137869,18,32765
1.63226,-0.0836399,0.13542,18,32765
1.64191,-0.0895954,0.136423,18,32765
1.63166,-0.0944225,0.135592,18,32765
1.65124,-0.100931,0.137223,19,32765
1.64095,-0.105653,0.136461,19,32765
1.63066,-0.110296,0.13556,19,32765
1.6402,-0.116491,0.136625,19,32765
1.63979,-0.122,0.136821,19,32765
1.62943,-0.12668,0.136004,19,32765
1.62899,-0.132145,0.136099,19,32765
1.62854,-0.137542,0.136112,19,32765
1.61816,-0.142045,0.135234,19,32765
1.63753,-0.149265,0.136808,20,32765
1.62709,-0.153719,0.136233,20,32765
1.61666,-0.158145,0.135297,20,32765
1.6062,-0.162476,0.134649,20,32765
1.61555,-0.168899,0.135482,19,32765
1.61499,-0.174333,0.135378,19,32765
1.6144,-0.179793,0.135261,19,32765
1.62368,-0.186355,0.136135,20,32765
1.57356,-0.18591,0.132096,19,32765
1.61251,-0.195915,0.135394,19,32765
1.60198,-0.200002,0.134389,19,32765
1.60132,-0.205248,0.134354,19,32765
1.60063,-0.210559,0.134344,19,32765
1.58017,-0.213208,0.132742,19,32765
1.60905,-0.222583,0.135317,20,32765
1.55897,-0.220949,0.131165,19,32765
1.59766,-0.231902,0.13458,20,32765
1.57716,-0.234349,0.132813,19,32765
1.57636,-0.239604,0.13302,20,32765
1.57553,-0.244938,0.13307,20,32765
1.56485,-0.248668,0.132374,20,32765
1.56401,-0.253887,0.132288,20,32765
1.57299,-0.260733,0.133093,20,32765
1.56231,-0.2642,0.132279,20,32765
1.58104,-0.27288,0.133995,20,32765
1.56047,-0.274784,0.132386,19,32765
1.56934,-0.281741,0.133335,19,32765
1.56839,-0.286954,0.133425,19,32765
1.53806,-0.286546,0.131018,19,32765
1.52731,-0.289768,0.130203,19,32765
1.52633,-0.294823,0.130343,19,32765
1.54491,-0.303685,0.132062,19,32765
1.5341,-0.306904,0.131336,19,32765
1.54284,-0.31393,0.132307,19,32765
1.532,-0.317075,0.131671,19,32765
1.53093,-0.322211,0.131652,19,32765
1.64677,-0.352296,0.141951,13,32765
1.68453,-0.366199,0.145492,13,32765
1.55682,-0.343763,0.134731,13,32765
1.59455,-0.357652,0.138192,13,32765
1.57391,-0.35851,0.136656,14,32765
1.54358,-0.356889,0.134462,14,32765
1.53269,-0.359693,0.133755,14,32765
1.54118,-0.366974,0.134904,14,32765
1.50121,-0.362706,0.13162,15,32765
1.49998,-0.367653,0.131842,16,32765
1.52777,-0.379753,0.1346,16,32765
1.50717,-0.379895,0.133137,17,32765
1.50589,-0.384785,0.133526,18,32765
1.51423,-0.392228,0.134732,19,32765
1.49364,-0.392154,0.13321,15,32765
1.5212,-0.404728,0.136235,16,32765
1.49099,-0.401898,0.133926,17,32765
1.45123,-0.396167,0.130724,17,32765
1.4883,-0.411499,0.134692,18,32765
1.51572,-0.424375,0.137511,18,32765
1.48553,-0.421118,0.135473,19,32765
1.4841,-0.426018,0.135864,19,32765
1.47312,-0.427991,0.135478,19,32765
1.4908,-0.438381,0.137624,19,32765
1.47977,-0.440418,0.137169,18,32765
1.46877,-0.442293,0.136718,18,32765
1.45777,-0.444075,0.136432,19,32765
1.48486,-0.457448,0.139714,19,32765
1.44532,-0.450348,0.136551,18,32765
1.46281,-0.460959,0.138984,18,32765
1.45179,-0.462563,0.138709,19,32765
1.45975,-0.470159,0.140302,19,32765
1.47715,-0.480833,0.142899,18,32765
1.42826,-0.469888,0.139239,19,32765
1.69396,0.0192085,0.141861,17,32765
1.66419,0.0132526,0.138535,17,32765
1.70416,0.00789141,0.141028,18,32765
1.64442,0.00223224,0.135571,17,32765
1.67439,-0.00324312,0.137197,18,32765
1.66443,-0.00879302,0.135946,18,32765
1.64451,-0.0141407,0.133713,18,32765
1.65446,-0.0197127,0.134095,18,32765
1.67436,-0.0253876,0.135147,18,32765
1.65437,-0.030556,0.133124,19,32765
1.66426,-0.0362491,0.13347,18,32765
1.64422,-0.0412965,0.131601,18,32765
1.64411,-0.0467455,0.131213,18,32765
1.65394,-0.0524349,0.131615,18,32765
1.65379,-0.0578504,0.131233,18,32765
1.6337,-0.0624719,0.129332,18,32765
1.65342,-0.0687107,0.130636,18,32765
1.62334,-0.0728554,0.127927,18,32765
1.6231,-0.0782257,0.127771,18,32765
1.62285,-0.083672,0.127486,17,32765
1.63254,-0.0895348,0.128068,18,32765
1.62229,-0.0943191,0.127161,18,32765
1.63195,-0.100268,0.127617,18,32765
1.63163,-0.105553,0.127489,19,32765
1.62134,-0.11024,0.126493,19,32765
1.64088,-0.116952,0.127808,19,32765
1.63054,-0.121654,0.12708,19,32765
1.60031,-0.124758,0.12469,19,32765
1.60984,-0.130819,0.125268,19,32765
1.61934,-0.137015,0.125916,19,32765
1.61889,-0.142353,0.125779,19,32765
1.59856,-0.145924,0.124133,19,32765
1.59806,-0.15129,0.124137,19,32765
1.59756,-0.156572,0.124053,19,32765
1.61687,-0.163929,0.125527,19,32765
1.62624,-0.170327,0.126275,18,32765
1.58601,-0.171436,0.123215,19,32765
1.59533,-0.177854,0.124066,19,32765
1.60464,-0.184244,0.12485,19,32765
1.58422,-0.187232,0.123256,18,32765
1.57369,-0.19129,0.12257,19,32765
1.57304,-0.196474,0.122626,19,32765
1.59215,-0.204295,0.124138,20,32765
1.56182,-0.205622,0.121837,19,32765
1.58088,-0.213505,0.123427,20,32765
1.56041,-0.215988,0.121896,20,32765
1.56958,-0.222522,0.122548,20,32765
1.57868,-0.229198,0.123396,20,32765
1.55817,-0.231467,0.122123,20,32765
1.58695,-0.241186,0.124611,20,32765
1.57628,-0.244987,0.123745,20,32765
1.57542,-0.250351,0.123938,19,32765
1.54502,-0.250971,0.121774,19,32765
1.55399,-0.257765,0.122752,20,32765
1.54329,-0.261312,0.122011,19,32765
1.54241,-0.266432,0.122045,19,32765
1.52187,-0.268041,0.120637,19,32765
1.54057,-0.276653,0.122441,20,32765
1.54947,-0.283493,0.123192,20,32765
1.53871,-0.286846,0.12249,19,32765
1.50834,-0.286363,0.120406,19,32765
1.54654,-0.29893,0.123555,19,32765
1.54552,-0.304118,0.123621,19,32765
1.52495,-0.305275,0.122193,19,32765
1.53368,-0.312384,0.123001,19,32765
1.53263,-0.317477,0.123074,19,32765
1.52179,-0.320568,0.122419,19,32765
1.54019,-0.329899,0.124038,18,32765
1.62674,-0.354099,0.131222,12,32765
1.51847,-0.33588,0.122651,12,32765
1.64381,-0.369219,0.1329,12,32765
1.51623,-0.345769,0.122872,13,32765
1.43739,-0.332769,0.116465,14,32765
1.49451,-0.351129,0.121413,15,32765
1.43517,-0.342183,0.116641,16,32765
1.46311,-0.353889,0.119023,17,32765
1.49097,-0.365851,0.121516,18,32765
1.48974,-0.370806,0.121509,18,32765
1.50784,-0.380584,0.123195,18,32765
1.49694,-0.38305,0.12229,18,32765
1.47637,-0.382944,0.120712,18,32765
1.47513,-0.387697,0.120766,18,32765
1.49312,-0.397646,0.122312,18,32765
1.47259,-0.397212,0.120861,18,32765
1.45206,-0.396757,0.119204,18,32765
1.48919,-0.412107,0.122379,18,32765
1.43985,-0.403497,0.118369,18,32765
1.45772,-0.413659,0.119764,18,32765
1.46595,-0.421082,0.120697,18,32765
1.47417,-0.428599,0.121384,18,32765
1.45368,-0.427624,0.119815,18,32765
1.42366,-0.423696,0.117313,17,32765
1.4605,-0.439744,0.120305,18,32765
1.48772,-0.453075,0.122544,19,32765
1.43863,-0.443138,0.118616,17,32765
1.45629,-0.453601,0.119904,17,32765
1.42635,-0.449159,0.117419,17,32765
1.44395,-0.459685,0.118686,17,32765
1.41408,-0.454983,0.116083,17,32765
1.42213,-0.462558,0.116569,18,32765
1.43021,-0.470017,0.117015,18,32765
1.70519,0.0194709,0.126614,19,32765
1.6754,0.013463,0.123565,18,32765
1.69544,0.00796225,0.124215,18,32765
1.68552,0.00238761,0.122963,18,32765
1.68558,-0.00317653,0.122119,19,32765
1.67562,-0.00877547,0.120959,19,32765
1.69557,-0.0145136,0.121775,19,32765
1.65565,-0.0196731,0.118481,19,32765
1.67556,-0.0253624,0.119344,19,32765
1.66553,-0.0307299,0.118217,19,32765
1.68539,-0.036688,0.119171,19,32765
1.67531,-0.0420671,0.118191,19,32765
1.66522,-0.0473465,0.117094,19,32765
1.65511,-0.0524837,0.115999,19,32765
1.64499,-0.0575648,0.11492,19,32765
1.64481,-0.0629301,0.114598,19,32765
1.64461,-0.0683886,0.114326,19,32765
1.66433,-0.074751,0.115355,19,32765
1.63419,-0.0788257,0.113126,19,32765
1.65387,-0.0853484,0.114216,19,32765
1.65359,-0.0907775,0.114012,19,32765
1.65329,-0.0962202,0.113885,19,32765
1.65299,-0.10167,0.113556,19,32765
1.61283,-0.104455,0.110693,19,32765
1.6324,-0.111122,0.11184,19,32765
1.642,-0.117173,0.112284,19,32765
1.63165,-0.121889,0.111651,19,32765
1.63124,-0.127332,0.111584,19,32765
1.62088,-0.131888,0.110707,19,32765
1.63038,-0.138132,0.11126,19,32765
1.59017,-0.140018,0.108411,20,32765
1.60957,-0.147133,0.109664,20,32765
1.60907,-0.152546,0.109667,20,32765
1.61849,-0.158849,0.11026,20,32765
1.61795,-0.164276,0.110192,20,32765
1.59755,-0.167568,0.108819,20,32765
1.58707,-0.171804,0.108163,20,32765
1.60631,-0.179345,0.109596,20,32765
1.57597,-0.181225,0.10758,19,32765
1.61499,-0.191159,0.110234,20,32765
1.59454,-0.194122,0.108967,19,32765
1.59388,-0.199386,0.109023,19,32765
1.5932,-0.204749,0.108994,19,32765
1.60241,-0.211298,0.109683,19,32765
1.61158,-0.217996,0.110408,20,32765
1.5812,-0.219215,0.108389,19,32765
1.58048,-0.224428,0.108269,19,32765
1.57971,-0.229718,0.108346,19,32765
1.55919,-0.231994,0.107262,19,32765
1.55839,-0.237233,0.107428,19,32765
1.55759,-0.242479,0.107338,19,32765
1.55674,-0.24779,0.107529,20,32765
1.58541,-0.257959,0.109735,20,32765
1.58452,-0.263267,0.109941,20,32765
1.54428,-0.261918,0.107246,19,32765
1.51391,-0.261948,0.105231,18,32765
1.55232,-0.273865,0.108114,18,32765
1.55138,-0.279066,0.108363,18,32765
1.55046,-0.284157,0.108334,17,32765
1.54949,-0.28935,0.108414,18,32765
1.5485,-0.294492,0.108677,17,32765
1.54752,-0.299634,0.108699,17,32765
1.52692,-0.300978,0.107389,18,32765
1.53569,-0.307958,0.108215,18,32765
1.54442,-0.315118,0.10893,19,32765
1.52382,-0.316203,0.107624,19,32765
1.52274,-0.32133,0.107753,18,32765
1.47287,-0.316034,0.104347,18,32765
1.52053,-0.331564,0.107914,18,32765
1.49992,-0.332365,0.106602,19,32765
1.52803,-0.343823,0.108705,19,32765
1.49771,-0.342153,0.106821,18,32765
1.48686,-0.344836,0.106019,18,32765
1.51484,-0.356543,0.108327,19,32765
1.47485,-0.352276,0.105507,18,32765
1.50277,-0.364138,0.107608,19,32765
1.50155,-0.369114,0.107738,19,32765
1.48095,-0.369287,0.106341,19,32765
1.47005,-0.37172,0.105752,19,32765
1.49782,-0.383975,0.107724,19,32765
1.45793,-0.378852,0.104945,18,32765
1.44705,-0.381015,0.104303,18,32765
1.49399,-0.398609,0.107748,18,32765
1.46381,-0.395573,0.10579,18,32765
1.48176,-0.405621,0.107102,18,32765
1.4612,-0.405112,0.10573,18,32765
1.46948,-0.412567,0.106362,18,32765
1.44894,-0.411937,0.104789,18,32765
1.45719,-0.419347,0.105628,18,32765
1.44625,-0.421273,0.104835,18,32765
1.48319,-0.437126,0.107619,18,32765
1.44356,-0.430429,0.104704,19,32765
1.40398,-0.423529,0.101779,19,32765
1.42172,-0.4338,0.10305,19,32765
1.4108,-0.435394,0.102358,18,32765
1.42848,-0.445792,0.103464,19,32765
1.41758,-0.447254,0.102643,18,32765
1.41619,-0.451712,0.102349,19,32765
1.4053,-0.453033,0.101404,19,32765
1.42285,-0.463688,0.102483,19,32765
1.40249,-0.461804,0.100791,19,32765
0,0,0,0,32765
1.67696,0.0164452,0.0997232,17,32765
1.64703,0.010708,0.0983148,17,32765
1.68697,0.00537754,0.101004,18,32765
1.69693,-0.000297682,0.102112,17,32765
1.6969,-0.00596587,0.102383,18,32765
1.65693,-0.0113152,0.100207,18,32765
1.66686,-0.0168053,0.100976,18,32765
1.68674,-0.022577,0.102524,18,32765
1.6567,-0.0275604,0.100874,18,32765
1.68652,-0.033728,0.102944,19,32765
1.64648,-0.0384379,0.100706,19,32765
1.64634,-0.0439,0.100739,18,32765
1.64617,-0.0493252,0.100906,18,32765
1.646,-0.054764,0.101,18,32765
1.64579,-0.0602375,0.101169,18,32765
1.65555,-0.0661429,0.101851,18,32765
1.64534,-0.0712171,0.101399,18,32765
1.63512,-0.0762124,0.10093,19,32765
1.62488,-0.0810916,0.100392,18,32765
1.62461,-0.0864042,0.100375,18,32765
1.6243,-0.0917289,0.100606,18,32765
1.61403,-0.0964463,0.100061,18,32765
1.62367,-0.102376,0.100597,19,32765
1.63327,-0.108441,0.101405,19,32765
1.64286,-0.114556,0.101998,20,32765
1.62256,-0.118633,0.100672,19,32765
1.61219,-0.123298,0.100177,19,32765
1.60182,-0.127982,0.0995311,19,32765
1.59142,-0.132512,0.0991525,19,32765
1.6208,-0.140419,0.100895,20,32765
1.61038,-0.144931,0.10028,20,32765
1.59001,-0.148478,0.099152,19,32765
1.58949,-0.153822,0.0993389,19,32765
1.58896,-0.159092,0.0994943,19,32765
1.58842,-0.164408,0.0994385,18,32765
1.58787,-0.169718,0.0993486,19,32765
1.58729,-0.175009,0.0993324,19,32765
1.58669,-0.18032,0.099433,19,32765
1.57618,-0.184335,0.0988889,19,32765
1.57555,-0.189582,0.0989493,19,32765
1.57492,-0.194829,0.0988335,19,32765
1.58417,-0.201404,0.0992769,19,32765
1.57357,-0.205431,0.0988412,19,32765
1.60254,-0.21464,0.100901,19,32765
1.56226,-0.214571,0.0985665,18,32765
1.57142,-0.221189,0.099133,19,32765
1.57068,-0.226424,0.0990483,19,32765
1.58963,-0.234702,0.100389,19,32765
1.56911,-0.236953,0.099306,19,32765
1.57818,-0.24366,0.0999668,17,32765
1.57736,-0.248916,0.0998819,17,32765
1.6258,-0.262068,0.102904,16,32765
1.57567,-0.259449,0.0998081,16,32765
1.53541,-0.258107,0.0975,17,32765
1.52469,-0.261621,0.0968049,16,32765
1.51397,-0.264997,0.0963512,18,32765
1.51308,-0.269975,0.0963925,18,32765
1.53183,-0.278544,0.097576,18,32765
1.53089,-0.283577,0.0977908,19,32765
1.53973,-0.290553,0.0985669,19,32765
1.53873,-0.295778,0.0985713,19,32765
1.52795,-0.298926,0.0980522,19,32765
1.52694,-0.304024,0.098154,19,32765
1.51614,-0.307046,0.0976112,19,32765
1.49557,-0.308002,0.0964944,18,32765
1.53359,-0.321161,0.0992357,19,32765
1.51299,-0.322045,0.0981838,19,32765
1.51191,-0.327073,0.098309,19,32765
1.52057,-0.334151,0.0991101,19,32765
1.49022,-0.332652,0.0973795,18,32765
1.51829,-0.344212,0.0995779,19,32765
1.4685,-0.338063,0.0966189,19,32765
1.49652,-0.349713,0.0986457,18,32765
1.49534,-0.354645,0.0989646,19,32765
1.47475,-0.354849,0.0979327,18,32765
1.49294,-0.364451,0.0995089,19,32765
1.49173,-0.369314,0.0997328,19,32765
1.48082,-0.371777,0.0992719,19,32765
1.46991,-0.374103,0.0991092,18,32765
1.49763,-0.386426,0.101462,18,32765
1.49635,-0.391291,0.101613,18,32765
1.49505,-0.396113,0.102025,19,32765
1.47447,-0.395795,0.100864,18,32765
1.46353,-0.397928,0.10068,18,32765
1.44294,-0.397456,0.0997646,18,32765
1.45121,-0.404914,0.100733,18,32765
1.44985,-0.409607,0.101309,18,32765
1.43889,-0.411588,0.100992,18,32765
1.42796,-0.413387,0.100765,18,32765
1.4649,-0.429153,0.103864,19,32765
1.43475,-0.425434,0.102451,18,32765
1.4429,-0.432907,0.103577,18,32765
1.41283,-0.42883,0.102009,18,32765
1.45913,-0.447903,0.105994,18,32765
1.40051,-0.434741,0.102358,18,32765
1.46568,-0.460122,0.107973,19,32765
1.41664,-0.449679,0.105008,18,32765
1.44363,-0.46333,0.107905,18,32765
1.42315,-0.46171,0.107122,18,32765
1.41215,-0.463036,0.107394,18,32765
0,0,0,0,32765
0,0,0,13,32765
1.73777,0.0113899,0.0872882,13,32765
1.67786,0.00542633,0.0845827,19,32765
1.69782,-0.000230257,0.0861002,19,32765
1.69779,-0.00591268,0.0863713,18,32765
1.67778,-0.011413,0.0855905,18,32765
1.66774,-0.0167807,0.0852465,19,32765
1.67764,-0.0224325,0.0860935,19,32765
1.67755,-0.0278954,0.0862661,18,32765
1.65747,-0.0331462,0.0854818,19,32765
1.6773,-0.0391681,0.0867143,19,32765
1.6572,-0.044211,0.0857144,19,32765
1.64705,-0.0493837,0.0853653,19,32765
1.6868,-0.0561657,0.0875311,19,32765
1.66663,-0.0610549,0.0866663,20,32765
1.63648,-0.0654456,0.0851775,19,32765
1.63624,-0.0708989,0.0853387,19,32765
1.65594,-0.0772707,0.0865272,20,32765
1.6457,-0.0822285,0.0860843,20,32765
1.65539,-0.0881511,0.086589,19,32765
1.64511,-0.0930237,0.0863014,19,32765
1.63483,-0.0978189,0.0858511,19,32765
1.62453,-0.10257,0.0852456,19,32765
1.61421,-0.107326,0.0849121,18,32765
1.62381,-0.11339,0.0854109,19,32765
1.64334,-0.120328,0.0863685,20,32765
1.64292,-0.125834,0.0864934,19,32765
1.63253,-0.130633,0.0859414,19,32765
1.62212,-0.135275,0.0856616,19,32765
1.63161,-0.141574,0.0860697,19,32765
1.60129,-0.144338,0.0844991,18,32765
1.64056,-0.153441,0.0867127,19,32765
1.6102,-0.156076,0.0853256,18,32765
1.62954,-0.163418,0.0865385,19,32765
1.60912,-0.166822,0.0854268,19,32765
1.60856,-0.172212,0.085336,18,32765
1.58812,-0.175391,0.0842664,18,32765
1.60737,-0.182974,0.0854219,17,32765
1.59684,-0.187064,0.0849732,17,32765
1.5962,-0.192391,0.0850346,18,32765
1.60547,-0.198946,0.085445,17,32765
1.6147,-0.205638,0.085791,17,32765
1.59418,-0.20848,0.0849259,18,32765
1.59347,-0.213794,0.0851201,18,32765
1.60263,-0.220499,0.0858097,19,32765
1.56233,-0.220295,0.0836342,18,32765
1.56159,-0.22551,0.0835503,19,32765
1.55093,-0.229391,0.0831142,19,32765
1.5699,-0.237493,0.0843375,19,32765
1.5691,-0.24269,0.0843739,19,32765
1.5387,-0.243249,0.0826994,18,32765
1.55761,-0.251527,0.0836645,19,32765
1.55674,-0.256795,0.0836874,19,32765
1.53617,-0.258702,0.0828156,19,32765
1.55497,-0.267301,0.0838062,19,32765
1.54422,-0.270785,0.0834504,19,32765
1.53349,-0.274115,0.0829611,19,32765
1.52275,-0.277402,0.0823617,18,32765
1.54145,-0.286059,0.083641,19,32765
1.55029,-0.293085,0.0843244,19,32765
1.50025,-0.288915,0.0816606,19,32765
1.55808,-0.305387,0.0849743,19,32765
1.49829,-0.298876,0.081868,18,32765
1.54623,-0.313723,0.0846319,18,32765
1.49628,-0.308725,0.0820968,17,32765
1.55386,-0.326017,0.0855382,18,32765
1.53324,-0.326969,0.0846778,18,32765
1.51262,-0.327844,0.0837248,18,32765
1.51153,-0.332792,0.0838911,18,32765
1.49092,-0.333438,0.0829845,18,32765
1.46057,-0.331756,0.0816358,18,32765
1.47891,-0.341107,0.082959,18,32765
1.46804,-0.343714,0.0825189,18,32765
1.48631,-0.353178,0.0839293,19,32765
1.46572,-0.353352,0.0830844,19,32765
1.46453,-0.358201,0.083367,19,32765
1.47303,-0.365385,0.0841407,18,32765
1.45244,-0.365356,0.0832172,18,32765
1.4609,-0.372528,0.0842557,19,32765
1.47897,-0.38235,0.085764,19,32765
1.44873,-0.379573,0.0842286,18,32765
1.45713,-0.386813,0.0851924,19,32765
1.47513,-0.396742,0.0864771,18,32765
1.42565,-0.388384,0.0841147,18,32765
1.45321,-0.401065,0.0862322,18,32765
1.45185,-0.405885,0.0865358,18,32765
1.45049,-0.410591,0.087113,19,32765
1.45872,-0.418078,0.0880493,18,32765
1.42859,-0.414382,0.0867582,18,32765
1.45597,-0.427374,0.088897,18,32765
1.43538,-0.426459,0.0883524,19,32765
1.42442,-0.428203,0.0882009,18,32765
1.43256,-0.435674,0.0892899,18,32765
1.4216,-0.437246,0.0892202,18,32765
1.41065,-0.438756,0.0891469,18,32765
1.41872,-0.44626,0.0904669,19,32765
1.41726,-0.450768,0.0910082,18,32765
1.43477,-0.461397,0.0930086,19,32765
1.3953,-0.453573,0.0911695,18,32765
1.41277,-0.46416,0.0933967,18,32765
0,0,0,0,32765
0,0,0,0,32765
1.71765,0.0104243,0.0893251,15,32765
1.6478,0.00441747,0.0850827,18,32765
1.66781,-0.00100628,0.0855507,18,32765
1.6878,-0.00649286,0.0859261,18,32765
1.65784,-0.01182,0.0839151,18,32765
1.67779,-0.0174953,0.0844126,18,32765
1.67774,-0.0230991,0.083987,19,32765
1.64772,-0.028161,0.0819519,18,32765
1.64764,-0.0335966,0.0815381,19,32765
1.65751,-0.0393309,0.0819059,18,32765
1.64741,-0.044598,0.0809546,18,32765
1.66723,-0.0507037,0.0816686,19,32765
1.63712,-0.055255,0.0798565,19,32765
1.63695,-0.0606654,0.079448,19,32765
1.61679,-0.0652307,0.0782457,19,32765
1.64651,-0.071906,0.0794924,18,32765
1.63631,-0.076834,0.0787208,18,32765
1.64603,-0.0828054,0.0789673,18,32765
1.63579,-0.0876784,0.0782055,19,32765
1.62553,-0.0924988,0.0775156,19,32765
1.60527,-0.0966409,0.0765689,18,32765
1.595,-0.101203,0.0757869,19,32765
1.61459,-0.107841,0.0765989,19,32765
1.60427,-0.112509,0.0759479,19,32765
1.60389,-0.117878,0.0758002,19,32765
1.61346,-0.123984,0.0760858,18,32765
1.623,-0.130124,0.0764836,19,32765
1.60265,-0.133829,0.0754792,18,32765
1.60221,-0.139104,0.0754122,19,32765
1.62163,-0.146227,0.0763748,19,32765
1.60125,-0.149808,0.0752876,17,32765
1.63056,-0.15806,0.0767781,16,32765
1.63996,-0.164508,0.0772081,16,32765
1.5798,-0.163775,0.074234,16,32765
1.56931,-0.167919,0.0739321,16,32765
1.57867,-0.174308,0.0743461,17,32765
1.56815,-0.178501,0.0738722,18,32765
1.57746,-0.184983,0.0742524,18,32765
1.55699,-0.187832,0.0734132,19,32765
1.5762,-0.195379,0.0743216,19,32765
1.57553,-0.200589,0.0745633,19,32765
1.57487,-0.205812,0.0743695,19,32765
1.56426,-0.209756,0.0740624,19,32765
1.56354,-0.215045,0.0740971,19,32765
1.5628,-0.220259,0.0745212,19,32765
1.5423,-0.222575,0.0733226,19,32765
1.54154,-0.227733,0.073388,19,32765
1.57039,-0.23735,0.0750549,19,32765
1.53009,-0.236539,0.0732643,18,32765
1.51942,-0.240099,0.0728216,18,32765
1.54819,-0.249938,0.0744984,18,32765
1.52762,-0.251901,0.0735902,19,32765
1.54646,-0.260372,0.0746066,19,32765
1.54557,-0.265586,0.0745906,18,32765
1.525,-0.267291,0.0737729,18,32765
1.53392,-0.27414,0.0745121,18,32765
1.51334,-0.275678,0.0735929,17,32765
1.5517,-0.287971,0.075571,18,32765
1.53109,-0.289421,0.0748227,17,32765
1.5203,-0.292606,0.0746168,17,32765
1.49972,-0.293786,0.0737184,17,32765
1.50852,-0.300742,0.0742373,17,32765
1.48794,-0.301788,0.0732343,18,32765
1.51627,-0.312733,0.0749435,18,32765
1.50545,-0.315745,0.0744253,18,32765
1.49461,-0.318666,0.0741859,19,32765
1.47399,-0.319488,0.0732722,18,32765
1.49241,-0.328766,0.0743026,19,32765
1.51078,-0.33815,0.0754957,18,32765
1.49991,-0.340946,0.0749338,18,32765
1.49877,-0.3459,0.0750727,19,32765
1.49762,-0.350811,0.0752092,19,32765
1.45759,-0.346512,0.0732631,18,32765
