x, y, z, intensity, ring
2.61996,0.160389,-0.430931,20,32765
2.65989,0.153767,-0.437451,19,32765
2.61108,0.142177,-0.429604,18,32765
2.67066,0.136321,-0.439445,20,32765
2.64153,0.125941,-0.434608,20,32765
2.60251,0.115352,-0.428064,19,32765
2.65218,0.108645,-0.436156,20,32765
2.65256,0.0997708,-0.435977,19,32765
2.64303,0.0904199,-0.43432,19,32765
2.65319,0.0817614,-0.435905,20,32765
2.61398,0.0718017,-0.429507,20,32765
2.60439,0.062772,-0.427564,19,32765
2.66384,0.0551954,-0.436961,20,32765
2.5851,0.044819,-0.423842,19,32765
2.62475,0.0367208,-0.430061,20,32765
2.63478,0.0282413,-0.431296,20,32765
2.60535,0.0193196,-0.425894,19,32765
2.60548,0.0108115,-0.425398,19,32765
2.61544,0.00204096,-0.426552,19,32765
2.61554,-0.00665463,-0.425946,18,32765
2.63534,-0.0155413,-0.428517,19,32765
2.64531,-0.0244004,-0.429138,19,32765
0,-0,-0,0,32765
3.69986,2.72947,0.818495,14,32765
0,0,0,0,32765
3.77372,2.7462,0.827666,14,32765
0,0,0,0,32765
3.73673,2.68092,0.811438,14,32765
3.7621,2.67991,0.812857,13,32765
3.85978,2.73003,0.830093,14,32765
0,0,0,0,32765
3.95159,2.75493,0.841058,14,32765
0,0,0,0,32765
0,0,0,13,32765
0,0,0,0,32765
3.8908,2.63725,0.812071,13,32765
3.94075,2.65204,0.818282,12,32765
4.18744,2.79804,0.865099,14,32765
4.00808,2.65901,0.824255,13,32765
4.02544,2.65132,0.823679,13,32765
0,0,0,0,32765
3.96895,2.57688,0.80442,14,32765
0,0,0,0,32765
3.97821,2.54559,0.798686,13,32765
0,0,0,0,32765
3.99543,2.51962,0.795071,13,32765
3.8368,2.402,0.759902,12,32765
4.08787,2.54061,0.805634,14,32765
0,0,0,0,32765
3.91167,2.39521,0.764388,12,32765
4.07994,2.47973,0.794115,13,32765
4.13089,2.49161,0.79981,13,32765
3.91074,2.3413,0.754181,12,32765
4.0969,2.43433,0.786344,13,32765
4.19019,2.47101,0.800809,13,32765
4.1559,2.43252,0.791017,13,32765
4.15557,2.41402,0.787824,13,32765
4.21499,2.4301,0.795825,13,32765
4.19751,2.40169,0.789174,13,32765
4.20576,2.38786,0.787207,13,32765
4.23959,2.38857,0.790862,13,32765
4.17885,2.33612,0.776086,12,32765
4.21258,2.33687,0.779515,13,32765
4.23787,2.33261,0.78063,12,32765
4.24588,2.31851,0.779149,12,32765
4.27118,2.31366,0.781299,12,32765
4.23574,2.27596,0.771613,12,32765
4.32183,2.3039,0.784503,12,32765
4.2945,2.2715,0.777146,12,32765
4.33703,2.27601,0.781976,12,32765
4.30959,2.24376,0.774175,12,32765
4.35237,2.24756,0.779044,12,32765
4.36002,2.2331,0.777902,12,32765
4.36787,2.21836,0.775998,12,32765
4.37564,2.20356,0.774406,12,32765
4.41852,2.2065,0.779754,12,32765
4.35534,2.15649,0.766115,12,32765
4.4336,2.17697,0.777155,12,32765
4.36997,2.12777,0.763152,12,32765
4.44836,2.14769,0.774287,12,32765
4.54469,2.17574,0.788638,12,32765
4.46289,2.11835,0.771504,12,32765
4.5058,2.12053,0.776313,12,32765
4.56675,2.13072,0.784088,12,32765
4.4933,2.07823,0.769001,13,32765
4.41052,2.02227,0.752231,14,32765
4.44443,2.01989,0.755444,18,32765
0,0,0,0,32765
4.56648,2.03883,0.770755,12,32765
4.62774,2.04758,0.778388,12,32765
4.55317,1.99666,0.763492,12,32765
4.57825,1.98939,0.764499,12,32765
4.65764,2.0054,0.775678,12,32765
4.66452,1.98998,0.774047,12,32765
4.6804,1.9784,0.774198,12,32765
4.70544,1.97059,0.775398,12,32765
4.71229,1.95498,0.773305,12,32765
4.70972,1.93571,0.77076,12,32765
4.66143,1.89789,0.759754,12,32765
4.71363,1.90121,0.765946,12,32765
4.75674,1.90063,0.770322,12,32765
4.76327,1.88508,0.76818,12,32765
4.77882,1.87331,0.767894,12,32765
4.75753,1.8469,0.761887,12,32765
4.78229,1.83836,0.763242,12,32765
4.81625,1.83352,0.765538,12,32765
4.79476,1.80728,0.759239,12,32765
4.8842,1.82293,0.770967,12,32765
4.83471,1.7865,0.760317,12,32765
4.85945,1.77746,0.761113,12,32765
4.90255,1.77529,0.765673,12,32765
4.87143,1.74591,0.757568,12,32765
4.9145,1.74375,0.761528,12,32765
4.92042,1.72797,0.759261,12,32765
4.92627,1.71225,0.756919,12,32765
4.96946,1.70944,0.760526,12,32765
4.97528,1.69341,0.758286,12,32765
5.00899,1.68729,0.760697,12,32765
4.98656,1.66191,0.753911,12,32765
5.02025,1.65566,0.755966,12,32765
4.99748,1.63108,0.748886,13,32765
5.11603,1.652,0.76288,12,32765
5.00833,1.60003,0.743406,12,32765
5.10819,1.61439,0.75384,13,32765
3.89479,2.87654,0.814994,16,32765
3.87254,2.84065,0.806888,18,32765
3.86607,2.81657,0.801857,15,32765
3.66009,2.64753,0.755441,14,32765
3.61317,2.59516,0.741769,13,32765
3.6222,2.58312,0.739788,13,32765
3.78405,2.67943,0.769159,13,32765
3.69652,2.59874,0.747472,14,32765
3.91604,2.73314,0.78751,15,32765
0,0,0,0,32765
3.72332,2.5621,0.740904,13,32765
3.69934,2.52787,0.73235,13,32765
3.8303,2.59905,0.754879,14,32765
3.89653,2.6251,0.763869,13,32765
3.83984,2.56853,0.748815,14,32765
3.84859,2.55593,0.746983,14,32765
3.72548,2.45637,0.719348,12,32765
3.81639,2.49849,0.732889,13,32765
4.13119,2.68505,0.789877,14,32765
3.94941,2.5485,0.751594,14,32765
4.06632,2.60469,0.769897,15,32765
4.05849,2.58077,0.764984,15,32765
4.04217,2.55173,0.758364,15,32765
0,0,0,0,32765
4.15167,2.58292,0.771153,14,32765
0,0,0,0,32765
3.98393,2.44194,0.733541,13,32765
3.94155,2.39805,0.72278,13,32765
4.11913,2.48703,0.751231,14,32765
3.91563,2.34658,0.711197,13,32765
4.16996,2.48022,0.753681,14,32765
4.21245,2.4866,0.757995,14,32765
4.01614,2.35305,0.719629,13,32765
4.1864,2.43433,0.747073,14,32765
4.05762,2.34166,0.721036,13,32765
4.20277,2.40704,0.743563,14,32765
4.254,2.41759,0.749159,14,32765
4.20186,2.36959,0.73741,14,32765
4.29624,2.40405,0.750522,14,32765
4.2438,2.35643,0.73859,14,32765
4.29515,2.36638,0.744002,14,32765
4.3293,2.36628,0.746991,14,32765
4.29394,2.32816,0.73847,14,32765
4.34558,2.33715,0.744151,14,32765
4.35345,2.3229,0.74277,14,32765
4.35236,2.30421,0.740237,14,32765
4.36003,2.29016,0.73874,14,32765
4.37643,2.28062,0.738704,14,32765
4.4106,2.27968,0.741699,14,32765
4.40955,2.26048,0.739066,14,32765
4.41749,2.24554,0.73714,14,32765
4.45185,2.24391,0.739933,14,32765
4.41528,2.2068,0.731694,14,32765
4.5027,2.23138,0.743688,14,32765
4.457,2.19033,0.733479,14,32765
4.50893,2.1973,0.739165,13,32765
4.47184,2.16085,0.730594,14,32765
4.54156,2.17606,0.739646,13,32765
4.57583,2.17376,0.742292,14,32765
4.56526,2.15029,0.73801,14,32765
4.55465,2.12681,0.733652,14,32765
4.34637,2.0119,0.697781,13,32765
4.26325,1.95632,0.68199,14,32765
4.37804,1.99131,0.697893,21,32765
4.48407,2.02155,0.712283,20,32765
4.60846,2.05919,0.729286,14,32765
4.66985,2.06782,0.736346,14,32765
4.65869,2.0445,0.73225,14,32765
4.64764,2.02109,0.72734,14,32765
4.6636,2.00948,0.727826,13,32765
4.67049,1.99402,0.726193,13,32765
4.71374,1.99397,0.730487,14,32765
4.71146,1.97456,0.727258,14,32765
4.71831,1.9589,0.725162,14,32765
4.75237,1.95464,0.728321,14,32765
4.75908,1.93903,0.726252,14,32765
4.76557,1.92351,0.724966,14,32765
4.75362,1.90071,0.720587,13,32765
4.79697,1.89973,0.724005,13,32765
4.84023,1.89868,0.727771,14,32765
4.80975,1.86843,0.72064,14,32765
4.81611,1.8526,0.71903,14,32765
4.8594,1.85117,0.722407,14,32765
4.9028,1.84922,0.725977,14,32765
4.90897,1.83337,0.724505,13,32765
4.91518,1.8174,0.722601,13,32765
4.88421,1.78766,0.715003,14,32765
4.92739,1.7854,0.719183,13,32765
4.93355,1.76927,0.71686,13,32765
4.98607,1.77023,0.721773,13,32765
4.99207,1.75419,0.719473,13,32765
5.03543,1.75124,0.722468,14,32765
4.98508,1.71583,0.712265,14,32765
4.99091,1.69972,0.710018,13,32765
5.05284,1.70304,0.716136,13,32765
5.05862,1.68689,0.713587,14,32765
5.06417,1.67109,0.711363,14,32765
5.06967,1.65557,0.708488,14,32765
5.09409,1.64582,0.708203,14,32765
5.10897,1.63307,0.706847,14,32765
5.13339,1.62324,0.705877,14,32765
3.87871,2.86051,0.766496,16,32765
0,0,0,0,32765
3.66562,2.6669,0.720357,13,32765
3.88266,2.80531,0.760063,15,32765
3.91604,2.80974,0.764448,13,32765
0,0,0,0,32765
3.87021,2.73833,0.750363,14,32765
0,0,0,0,32765
3.92852,2.74177,0.756284,15,32765
3.89703,2.70087,0.747288,13,32765
4.01181,2.76099,0.766287,13,32765
3.79266,2.59171,0.721949,13,32765
3.9567,2.68469,0.750057,13,32765
3.86746,2.60535,0.730271,13,32765
3.95021,2.64196,0.742959,13,32765
0,0,0,0,32765
3.95133,2.60529,0.737247,13,32765
0,0,0,0,32765
4.05155,2.63332,0.750089,13,32765
0,0,0,0,32765
3.91967,2.51052,0.719442,14,32765
4.0781,2.59326,0.745757,13,32765
4.05343,2.55882,0.738002,14,32765
0,0,0,0,32765
4.079,2.53751,0.736513,13,32765
4.11291,2.53948,0.739677,14,32765
4.16367,2.55166,0.745991,14,32765
0,0,0,0,32765
4.10483,2.47826,0.728768,13,32765
4.19803,2.51561,0.742152,12,32765
0,0,0,0,32765
4.09559,2.41777,0.718778,12,32765
4.24046,2.4841,0.740685,13,32765
4.18049,2.43025,0.727629,12,32765
4.25747,2.4558,0.737477,13,32765
4.22285,2.41732,0.728349,12,32765
4.18784,2.37932,0.719557,12,32765
4.22171,2.38018,0.722449,12,32765
4.24703,2.37602,0.723637,12,32765
0,0,0,0,32765
4.26348,2.34737,0.720411,12,32765
4.25407,2.3239,0.715809,12,32765
4.27947,2.31911,0.717122,13,32765
4.28735,2.30513,0.715122,13,32765
4.2953,2.29082,0.713431,13,32765
4.33817,2.29504,0.717406,13,32765
4.31089,2.26248,0.70978,12,32765
4.19565,2.18435,0.688146,12,32765
4.32604,2.23438,0.706607,12,32765
4.36899,2.23814,0.710107,12,32765
4.41189,2.24158,0.714528,12,32765
4.38426,2.20893,0.707481,12,32765
4.39192,2.19409,0.706108,12,32765
4.43501,2.19694,0.71002,12,32765
4.44273,2.18193,0.708043,12,32765
4.4502,2.16712,0.706593,12,32765
4.42191,2.13532,0.699088,12,32765
4.50933,2.15943,0.710837,12,32765
4.51661,2.14477,0.70901,12,32765
4.53278,2.13415,0.709166,12,32765
4.57588,2.13604,0.713214,12,32765
4.637,2.14596,0.720194,15,32765
4.45536,2.04395,0.688901,16,32765
4.38112,1.99236,0.675162,15,32765
4.34279,1.95753,0.666614,12,32765
4.6478,2.07652,0.711042,12,32765
4.57324,2.02516,0.697623,12,32765
4.6436,2.03786,0.706068,12,32765
4.66861,2.03057,0.707448,12,32765
4.65746,2.00715,0.702714,12,32765
4.7006,2.00733,0.707542,12,32765
4.69825,1.98812,0.704518,12,32765
4.73227,1.98412,0.708028,12,32765
4.70222,1.95366,0.701376,12,32765
4.74555,1.95324,0.704954,12,32765
4.73359,1.93042,0.701572,12,32765
4.73991,1.91512,0.700841,12,32765
4.76468,1.90702,0.702526,12,32765
4.78021,1.89519,0.702786,12,32765
4.77728,1.87598,0.700472,12,32765
4.78351,1.86032,0.699728,12,32765
4.78961,1.84483,0.699037,12,32765
4.82357,1.83971,0.701985,12,32765
4.82956,1.82412,0.70143,12,32765
4.83561,1.80825,0.700864,12,32765
4.89728,1.81329,0.708168,12,32765
4.90317,1.79754,0.707599,12,32765
4.94639,1.79505,0.712113,12,32765
4.87772,1.75218,0.700459,12,32765
4.92084,1.74946,0.705454,12,32765
0,0,0,0,32765
0,0,0,0,32765
0,0,0,0,32765
0,0,0,0,32765
5.04204,1.70272,0.717985,12,32765
5.02874,1.68001,0.715446,12,32765
5.03421,1.66376,0.714904,12,32765
5.04887,1.65068,0.716803,12,32765
5.0351,1.6287,0.714635,12,32765
5.10619,1.63392,0.724733,12,32765
5.05446,1.6,0.717607,13,32765
3.68357,2.72032,0.684163,14,32765
3.62059,2.65576,0.670752,14,32765
3.64524,2.65566,0.673231,15,32765
3.69417,2.67272,0.679566,13,32765
3.67092,2.63738,0.67337,13,32765
3.65566,2.60795,0.668116,13,32765
3.90638,2.76757,0.711583,15,32765
3.88306,2.73219,0.704978,15,32765
3.94061,2.7538,0.712617,14,32765
3.80347,2.63945,0.685052,14,32765
3.99962,2.75615,0.717481,16,32765
3.82922,2.62005,0.684507,13,32765
3.81347,2.59081,0.678786,13,32765
3.75663,2.5339,0.665976,13,32765
3.83099,2.56546,0.676407,13,32765
3.72434,2.47611,0.654693,13,32765
3.99674,2.63853,0.699878,14,32765
3.95593,2.59288,0.689936,14,32765
4.0641,2.64474,0.705993,15,32765
3.91519,2.52922,0.677088,13,32765
3.79884,2.43611,0.65406,13,32765
4.09911,2.6098,0.703074,14,32765
3.87366,2.44831,0.661398,13,32765
3.93217,2.46724,0.66845,12,32765
3.82288,2.38103,0.647145,12,32765
4.10888,2.54002,0.692698,14,32765
4.21031,2.58331,0.707048,14,32765
3.97395,2.42001,0.664303,13,32765
4.16006,2.51457,0.692028,14,32765
4.12612,2.47542,0.683364,14,32765
4.16836,2.48225,0.687879,15,32765
3.99772,2.36274,0.657132,13,32765
4.17671,2.44958,0.68318,14,32765
3.86836,2.25139,0.630437,12,32765
4.07342,2.35232,0.660548,13,32765
4.21884,2.41777,0.681089,14,32765
4.25265,2.41888,0.683838,14,32765
4.2608,2.40493,0.682281,14,32765
4.26894,2.39096,0.68051,14,32765
4.04352,2.24662,0.641484,13,32765
4.28548,2.3621,0.677265,14,32765
4.31087,2.35753,0.678309,14,32765
4.3451,2.35727,0.680777,14,32765
4.37055,2.35244,0.681466,14,32765
4.3874,2.34248,0.681097,14,32765
4.41297,2.33714,0.681952,14,32765
4.41211,2.3181,0.678714,15,32765
4.3057,2.24405,0.659697,13,32765
4.43642,2.29384,0.676807,14,32765
4.42669,2.27011,0.671845,14,32765
4.42557,2.25091,0.669196,14,32765
4.45987,2.24939,0.671848,14,32765
4.50314,2.25199,0.675771,14,32765
4.47542,2.21926,0.66865,14,32765
4.51879,2.22157,0.671945,14,32765
4.5264,2.20649,0.670469,14,32765
4.55174,2.20026,0.671201,14,32765
4.55902,2.18543,0.670253,14,32765
4.56638,2.17059,0.668404,14,32765
4.60954,2.17247,0.672377,14,32765
4.59891,2.14893,0.668193,14,32765
4.57018,2.11712,0.661582,14,32765
4.33415,1.9903,0.624489,15,32765
4.48526,2.04171,0.644019,24,32765
4.36569,1.96976,0.624266,16,32765
4.65297,2.08083,0.663023,14,32765
4.65086,2.0615,0.660747,13,32765
4.68509,2.05802,0.663374,14,32765
4.692,2.04267,0.661988,14,32765
4.69908,2.02698,0.659988,14,32765
4.73321,2.02313,0.663157,14,32765
4.72176,1.99991,0.65894,14,32765
4.74672,1.99199,0.660892,14,32765
4.75328,1.97666,0.659694,14,32765
4.77839,1.96852,0.660342,14,32765
4.76645,1.94556,0.65714,14,32765
4.79122,1.93756,0.658933,14,32765
4.79766,1.9219,0.657894,14,32765
4.84092,1.92092,0.661834,13,32765
4.8473,1.90511,0.660859,14,32765
4.83514,1.88199,0.657588,14,32765
4.85982,1.87344,0.659401,14,32765
4.8661,1.85747,0.65829,14,32765
4.90928,1.85576,0.66274,14,32765
4.94332,1.85002,0.665919,14,32765
4.93076,1.82715,0.662643,14,32765
4.9367,1.81127,0.662069,14,32765
4.94271,1.79512,0.661212,14,32765
4.97666,1.7891,0.66401,15,32765
4.98255,1.77275,0.663642,15,32765
4.98831,1.75656,0.663428,16,32765
5.00318,1.74415,0.664588,16,32765
4.98057,1.7186,0.660671,16,32765
5.02351,1.71574,0.665677,15,32765
5.01027,1.69318,0.662789,14,32765
5.07221,1.6957,0.670386,14,32765
5.06832,1.67617,0.668595,13,32765
5.09246,1.66604,0.671648,14,32765
5.09762,1.64999,0.672161,14,32765
5.13107,1.64293,0.676628,14,32765
5.15499,1.63283,0.680049,14,32765
3.82938,2.81766,0.729887,14,32765
3.73538,2.72949,0.706518,13,32765
0,0,0,0,32765
0,0,0,0,32765
3.87648,2.77313,0.717701,16,32765
0,0,0,0,32765
3.90366,2.75346,0.713312,14,32765
0,0,0,0,32765
3.88981,2.70569,0.701957,13,32765
3.94791,2.72665,0.708423,13,32765
0,0,0,0,32765
0,0,0,0,32765
3.96794,2.68196,0.698687,14,32765
3.82115,2.56403,0.668619,12,32765
3.85456,2.56811,0.670508,13,32765
4.02845,2.66468,0.696751,13,32765
3.82243,2.51029,0.657177,13,32765
4.05483,2.64381,0.693346,12,32765
4.05551,2.62521,0.689532,12,32765
3.98946,2.5638,0.674715,12,32765
3.88972,2.48154,0.653936,12,32765
0,0,0,0,32765
0,0,0,0,32765
0,0,0,0,32765
4.06635,2.51891,0.669903,13,32765
0,0,0,0,32765
4.10038,2.50266,0.667893,12,32765
4.14263,2.50988,0.671739,13,32765
0,0,0,0,32765
4.10837,2.45255,0.659658,12,32765
4.11676,2.43897,0.657723,13,32765
0,0,0,0,32765
4.31337,2.51615,0.682203,13,32765
4.18493,2.42213,0.658783,13,32765
4.19306,2.40851,0.657013,12,32765
4.19245,2.39013,0.65388,12,32765
4.34699,2.45955,0.675181,13,32765
4.23417,2.37759,0.654888,12,32765
4.19894,2.33956,0.646414,12,32765
4.30222,2.37851,0.659697,12,32765
4.28434,2.34989,0.653749,13,32765
4.28359,2.33106,0.650701,13,32765
4.27401,2.30756,0.646554,12,32765
4.37806,2.34473,0.659513,12,32765
4.38599,2.33042,0.657498,13,32765
4.31495,2.27431,0.644307,12,32765
4.27871,2.23717,0.636117,12,32765
4.36541,2.26424,0.646528,12,32765
4.38187,2.25447,0.64615,13,32765
4.38062,2.23549,0.643705,12,32765
4.42367,2.23879,0.647262,12,32765
4.43143,2.2239,0.645504,12,32765
4.40361,2.19136,0.638572,12,32765
4.44673,2.19406,0.642413,12,32765
4.48096,2.19229,0.644836,12,32765
4.42596,2.14711,0.634311,12,32765
4.52276,2.1753,0.645228,12,32765
4.55695,2.17302,0.64834,12,32765
4.57332,2.16218,0.647883,12,32765
4.51779,2.11769,0.637086,12,32765
4.39893,2.04437,0.618089,13,32765
4.39685,2.02569,0.615407,18,32765
4.43077,2.02353,0.617832,16,32765
4.6094,2.08655,0.640108,12,32765
4.65273,2.08748,0.643554,12,32765
4.57828,2.0358,0.630345,12,32765
4.66703,2.0564,0.640062,12,32765
4.65579,2.03299,0.636341,13,32765
4.66279,2.01742,0.634633,12,32765
4.72445,2.0253,0.64041,13,32765
0,0,0,0,32765
0,0,0,0,32765
0,0,0,0,32765
0,0,0,0,32765
4.74888,1.94402,0.630732,13,32765
0,0,0,0,32765
0,0,0,0,32765
0,0,0,0,32765
4.83985,1.90635,0.631891,13,32765
0,0,0,0,32765
4.86174,1.87863,0.629856,15,32765
0,0,0,0,32765
4.88353,1.85088,0.626914,16,32765
4.83395,1.81417,0.61788,17,32765
4.88655,1.81591,0.621757,18,32765
0,0,0,0,32765
4.74018,1.72614,0.59793,17,32765
4.83942,1.74443,0.607768,17,32765
4.88274,1.74212,0.610111,17,32765
4.77622,1.68666,0.594043,18,32765
4.65062,1.62537,0.575752,17,32765
4.5998,1.59074,0.56695,14,32765
4.68969,1.60496,0.57537,15,32765
4.65742,1.5773,0.568388,15,32765
4.62494,1.55013,0.561402,15,32765
4.69597,1.55767,0.567393,21,32765
4.6634,1.53044,0.560392,18,32765
4.70626,1.52803,0.562723,17,32765
0,0,0,0,32765
5.16146,1.64008,0.609941,12,32765
5.18582,1.63046,0.608069,13,32765
3.84078,2.83011,0.686546,15,32765
3.87453,2.83523,0.687038,14,32765
3.65211,2.6538,0.642707,14,32765
3.66949,2.64742,0.641028,14,32765
3.77527,2.70459,0.654674,14,32765
3.8009,2.7036,0.654081,14,32765
3.93139,2.77697,0.67248,15,32765
3.91652,2.74717,0.665435,16,32765
3.95828,2.75722,0.668316,15,32765
3.93512,2.72166,0.660504,14,32765
3.74046,2.5684,0.623469,14,32765
3.70028,2.52243,0.612939,13,32765
3.87299,2.62146,0.637379,14,32765
3.7752,2.53674,0.617213,13,32765
3.81677,2.54648,0.620189,13,32765
4.0155,2.65983,0.648591,15,32765
3.77614,2.48335,0.606131,14,32765
3.75136,2.44933,0.598742,13,32765
4.05081,2.62579,0.642708,15,32765
3.91799,2.52135,0.618208,14,32765
3.84306,2.45515,0.602616,13,32765
3.91012,2.47961,0.609408,13,32765
3.93531,2.4773,0.610276,14,32765
3.75877,2.34872,0.579695,13,32765
4.12056,2.55595,0.632604,14,32765
3.87589,2.38653,0.591623,13,32765
4.15483,2.53932,0.630341,15,32765
4.16331,2.52581,0.628667,14,32765
3.94237,2.37412,0.592363,13,32765
4.18019,2.49875,0.624758,14,32765
4.17167,2.47479,0.62025,14,32765
4.00925,2.36015,0.593078,13,32765
3.95751,2.31161,0.582223,12,32765
4.19732,2.4325,0.614479,14,32765
4.22268,2.4287,0.615208,14,32765
4.2652,2.43478,0.6184,14,32765
4.11787,2.33294,0.594467,13,32765
4.28129,2.40716,0.615343,14,32765
4.13346,2.30605,0.591201,13,32765
4.34958,2.40778,0.619553,14,32765
4.38396,2.4076,0.621258,14,32765
4.39211,2.39315,0.61949,14,32765
4.35653,2.35509,0.611811,14,32765
4.36462,2.34047,0.61026,14,32765
4.39881,2.34017,0.611906,14,32765
4.3804,2.31169,0.606847,14,32765
4.41459,2.31109,0.608799,14,32765
4.43995,2.30576,0.609855,14,32765
4.43008,2.28208,0.605734,14,32765
4.4908,2.29453,0.611798,14,32765
4.49866,2.27952,0.610135,14,32765
4.50656,2.26435,0.608345,14,32765
4.47883,2.23149,0.601755,14,32765
4.52212,2.23395,0.605199,14,32765
4.52976,2.21882,0.603749,14,32765
4.55518,2.21243,0.604529,14,32765
4.54492,2.18856,0.600276,14,32765
4.57022,2.18192,0.601922,14,32765
4.57765,2.16677,0.600188,14,32765
4.60298,2.16015,0.6006,14,32765
4.43012,2.06126,0.575864,13,32765
4.47318,2.06324,0.579101,22,32765
4.40789,2.01539,0.568409,22,32765
4.62284,2.09503,0.59356,15,32765
4.63904,2.08371,0.59315,14,32765
4.66432,2.07641,0.59349,14,32765
4.69875,2.07271,0.595424,14,32765
4.70576,2.05711,0.594179,14,32765
4.70372,2.0374,0.591306,14,32765
4.71072,2.02164,0.589649,14,32765
4.72675,2.00999,0.588778,17,32765
4.72431,1.99059,0.586525,18,32765
4.4743,1.86796,0.552982,15,32765
4.82032,1.99381,0.593059,18,32765
4.56955,1.87262,0.559808,16,32765
4.50233,1.82743,0.549191,15,32765
4.54549,1.82727,0.551822,15,32765
4.49635,1.79014,0.543249,16,32765
4.54864,1.79353,0.547236,18,32765
4.48056,1.74989,0.53668,18,32765
4.53271,1.75331,0.540875,18,32765
4.57573,1.75294,0.542923,19,32765
4.41425,1.67475,0.521644,17,32765
4.50359,1.69192,0.529773,20,32765
4.48129,1.66701,0.524595,20,32765
4.54286,1.67303,0.529446,22,32765
4.60461,1.67846,0.534093,25,32765
4.64766,1.67699,0.536569,25,32765
4.7095,1.68199,0.54078,28,32765
4.6214,1.63361,0.528051,23,32765
4.65504,1.62852,0.529278,25,32765
4.74511,1.64259,0.536985,29,32765
4.76939,1.63382,0.537084,33,32765
4.756,1.61225,0.532544,33,32765
4.80844,1.61319,0.535328,32,32765
4.70983,1.56376,0.521763,26,32765
4.79062,1.57369,0.527616,30,32765
4.68229,1.52169,0.512932,20,32765
4.94306,1.58908,0.537903,15,32765
5.15678,1.64013,0.55782,14,32765
5.17164,1.62753,0.554746,14,32765
3.8969,2.86694,0.639743,14,32765
0,0,0,0,32765
3.84384,2.78849,0.62716,13,32765
0,0,0,0,32765
3.90195,2.79301,0.63204,13,32765
3.90314,2.77455,0.629515,13,32765
3.79898,2.68164,0.610468,12,32765
3.90541,2.73738,0.624991,13,32765
3.91456,2.72457,0.623755,13,32765
3.95618,2.73441,0.62783,13,32765
3.9162,2.68782,0.618951,12,32765
3.99883,2.72541,0.62921,13,32765
0,0,0,0,32765
3.96776,2.66582,0.61864,12,32765
3.81999,2.54811,0.593061,13,32765
4.01068,2.65577,0.619529,13,32765
4.04448,2.65888,0.622073,13,32765
3.9453,2.57527,0.604249,12,32765
0,0,0,0,32765
0,0,0,0,32765
4.07112,2.6008,0.615381,13,32765
4.02121,2.55028,0.604918,12,32765
4.08852,2.57412,0.612173,13,32765
4.01303,2.50818,0.597952,12,32765
0,0,0,0,32765
4.06368,2.50252,0.600008,13,32765
4.08921,2.49929,0.600669,13,32765
4.33536,2.62962,0.633941,14,32765
0,0,0,0,32765
0,0,0,0,32765
4.15683,2.46541,0.599542,13,32765
4.19927,2.4721,0.60245,13,32765
4.19906,2.45323,0.599668,13,32765
4.18174,2.42426,0.594063,12,32765
4.1901,2.41016,0.592558,13,32765
4.20697,2.40108,0.592126,13,32765
0,0,0,0,32765
4.25775,2.39288,0.593414,12,32765
4.27443,2.38384,0.592843,13,32765
4.27387,2.365,0.589277,12,32765
0,0,0,0,32765
4.2899,2.33653,0.586368,12,32765
4.16683,2.2515,0.566747,12,32765
4.34076,2.32676,0.587839,12,32765
4.34865,2.31247,0.585933,12,32765
4.40046,2.32125,0.589787,13,32765
4.39948,2.30221,0.586846,12,32765
4.41613,2.29216,0.586415,13,32765
4.41516,2.27283,0.583639,12,32765
4.42298,2.25803,0.581882,12,32765
4.39534,2.22524,0.575263,12,32765
4.48288,2.2507,0.583638,12,32765
4.45497,2.2182,0.577026,12,32765
4.46241,2.20352,0.575747,12,32765
4.42532,2.16684,0.568272,12,32765
4.5132,2.19112,0.576624,12,32765
4.55654,2.19318,0.579633,12,32765
4.57301,2.18233,0.578853,12,32765
4.54444,2.15036,0.572403,12,32765
4.5336,2.12712,0.568729,13,32765
4.50469,2.09553,0.562617,16,32765
4.48468,2.06821,0.55768,23,32765
4.4375,2.02856,0.549165,13,32765
4.63442,2.10004,0.571313,12,32765
4.64166,2.08443,0.569691,12,32765
4.63066,2.06073,0.56602,12,32765
4.69218,2.06942,0.571425,12,32765
4.6627,2.03822,0.565027,12,32765
4.70594,2.03887,0.568097,13,32765
4.76761,2.04685,0.573309,13,32765
0,0,0,0,32765
4.69908,1.9802,0.560669,17,32765
4.57737,1.91087,0.544414,14,32765
4.50105,1.86175,0.533303,13,32765
4.58082,1.87728,0.540662,13,32765
4.28301,1.73904,0.504071,13,32765
4.57472,1.84007,0.536367,15,32765
4.46997,1.78109,0.522212,15,32765
4.43881,1.75199,0.517148,14,32765
4.52796,1.77011,0.525694,17,32765
4.4318,1.71584,0.513231,16,32765
4.42814,1.69801,0.511145,16,32765
4.48955,1.70468,0.516648,17,32765
4.52302,1.70065,0.519267,19,32765
4.61251,1.71712,0.527944,19,32765
4.60887,1.6985,0.526307,21,32765
4.65181,1.69721,0.529691,27,32765
4.61999,1.66856,0.524588,20,32765
4.67218,1.67039,0.529737,26,32765
4.65886,1.64853,0.52748,21,32765
4.61736,1.61695,0.521366,21,32765
4.70716,1.63134,0.530585,28,32765
4.75943,1.63238,0.53553,30,32765
4.71753,1.60131,0.529939,30,32765
4.75087,1.59573,0.533359,28,32765
4.84092,1.60876,0.542458,27,32765
4.74214,1.55921,0.530463,24,32765
4.72798,1.53829,0.529002,21,32765
5.0356,1.62115,0.563037,13,32765
5.1259,1.63232,0.573385,12,32765
5.16909,1.6275,0.578115,13,32765
3.89924,2.87353,0.594243,16,32765
3.70874,2.71379,0.56345,13,32765
3.87031,2.8124,0.586141,15,32765
3.71034,2.67805,0.55991,13,32765
3.89634,2.79363,0.585687,14,32765
3.88945,2.76939,0.582045,14,32765
3.89868,2.75655,0.581221,14,32765
3.92419,2.75505,0.582533,14,32765
3.9334,2.74215,0.581288,14,32765
3.95878,2.74065,0.58258,14,32765
3.94334,2.71082,0.577854,14,32765
3.8375,2.61966,0.559753,14,32765
0,0,0,0,32765
3.88806,2.61645,0.561754,13,32765
3.69049,2.46565,0.530846,12,32765
4.02998,2.67277,0.576626,14,32765
4.03897,2.65944,0.575337,15,32765
3.91478,2.55936,0.55519,14,32765
3.92327,2.5466,0.55397,14,32765
3.95669,2.55008,0.556176,14,32765
4.10745,2.62808,0.574587,15,32765
4.07435,2.58798,0.567095,15,32765
3.9318,2.47926,0.544582,12,32765
3.88118,2.4295,0.534838,13,32765
3.93145,2.44303,0.539377,13,32765
4.09197,2.52377,0.558539,13,32765
3.93966,2.41153,0.534843,13,32765
3.87154,2.35184,0.523105,12,32765
0,0,0,0,32765
4.08343,2.44362,0.546251,14,32765
4.1855,2.48612,0.557445,14,32765
4.18524,2.46751,0.554296,14,32765
4.24504,2.48377,0.559523,14,32765
4.27077,2.47953,0.559807,14,32765
4.29653,2.47502,0.560514,14,32765
4.28775,2.45077,0.556585,14,32765
4.1837,2.37292,0.539913,13,32765
4.32156,2.43228,0.555202,14,32765
4.34705,2.42786,0.555618,14,32765
4.33793,2.40392,0.550998,14,32765
4.00637,2.20275,0.506839,13,32765
4.37168,2.38449,0.550238,14,32765
4.16999,2.25643,0.522132,12,32765
4.41413,2.36946,0.550177,14,32765
4.37829,2.33153,0.542798,14,32765
4.41261,2.33095,0.544001,14,32765
4.43807,2.32568,0.544387,14,32765
4.42834,2.30172,0.540615,14,32765
4.4539,2.29598,0.541148,14,32765
4.46179,2.28102,0.539374,14,32765
4.46968,2.26602,0.537375,14,32765
4.47746,2.25109,0.535312,14,32765
4.5563,2.27179,0.541772,14,32765
4.52827,2.23911,0.53624,14,32765
4.53591,2.22403,0.534466,14,32765
4.56143,2.21755,0.534588,14,32765
4.58697,2.21082,0.535114,14,32765
4.59452,2.19556,0.533185,14,32765
4.60191,2.18049,0.531248,14,32765
4.60917,2.16548,0.529811,14,32765
4.64347,2.16298,0.531267,15,32765
4.43402,2.04757,0.504963,22,32765
4.45004,2.03699,0.504203,21,32765
4.65619,2.11269,0.525401,14,32765
4.69069,2.10922,0.526826,14,32765
4.68884,2.08936,0.524342,14,32765
4.6959,2.07376,0.523085,14,32765
4.70286,2.05844,0.521098,14,32765
4.71881,2.04708,0.520759,14,32765
4.73485,2.0354,0.52038,16,32765
4.56785,1.94545,0.500084,18,32765
4.69367,1.98044,0.511598,24,32765
4.5535,1.90331,0.494659,18,32765
4.55063,1.88463,0.492354,21,32765
4.54768,1.86603,0.49002,20,32765
4.48926,1.82506,0.482274,19,32765
4.53226,1.82525,0.484937,23,32765
4.56602,1.8216,0.486696,25,32765
4.57199,1.80677,0.485924,26,32765
4.58725,1.79547,0.48574,28,32765
4.56532,1.76968,0.482138,26,32765
4.55254,1.74781,0.479136,25,32765
4.63276,1.76117,0.486001,28,32765
4.61057,1.73563,0.482471,28,32765
4.56035,1.6997,0.475693,26,32765
4.60334,1.69844,0.479014,25,32765
4.63696,1.69375,0.481052,27,32765
4.62382,1.67187,0.478263,25,32765
4.63859,1.66027,0.47907,25,32765
4.64399,1.64513,0.478935,24,32765
4.67758,1.63988,0.481019,26,32765
4.75813,1.65084,0.488423,30,32765
4.78226,1.64203,0.490001,36,32765
4.78748,1.62683,0.489697,36,32765
4.79264,1.6115,0.489944,36,32765
4.81671,1.60243,0.491449,34,32765
4.70837,1.54976,0.479523,23,32765
4.69418,1.5289,0.478245,17,32765
5.13467,1.65477,0.522779,16,32765
5.17775,1.65053,0.527468,15,32765
5.18308,1.63356,0.527959,15,32765
3.886,2.85386,0.611658,14,32765
3.71183,2.70632,0.578864,14,32765
3.80186,2.75195,0.587841,13,32765
3.73073,2.6816,0.572325,14,32765
3.9417,2.81375,0.600167,13,32765
3.83793,2.72072,0.579291,14,32765
0,0,0,0,32765
3.90529,2.72969,0.580923,14,32765
0,0,0,0,32765
3.89112,2.6817,0.570314,12,32765
0,0,0,0,32765
3.90932,2.65621,0.565125,12,32765
0,0,0,0,32765
4.04307,2.70772,0.576091,12,32765
0,0,0,0,32765
0,0,0,0,32765
3.94621,2.58565,0.551641,13,32765
0,0,0,0,32765
4.1555,2.68397,0.573166,13,32765
4.00559,2.56876,0.548464,13,32765
3.98059,2.53449,0.541983,12,32765
4.0227,2.54279,0.54425,12,32765
4.13228,2.59306,0.555361,12,32765
4.14942,2.58488,0.554172,12,32765
0,0,0,0,32765
4.10761,2.52105,0.542512,13,32765
4.08227,2.48675,0.535966,12,32765
4.15878,2.51442,0.542515,13,32765
4.1928,2.51612,0.544058,13,32765
4.11596,2.45139,0.531012,12,32765
4.19279,2.47829,0.537192,12,32765
4.32983,2.53989,0.551431,14,32765
0,0,0,0,32765
4.21778,2.43681,0.53129,12,32765
4.28642,2.45751,0.536803,13,32765
4.48479,2.55162,0.558571,13,32765
4.30297,2.42933,0.532669,13,32765
0,0,0,0,32765
4.26718,2.37189,0.522907,13,32765
4.31878,2.38189,0.525725,12,32765
4.34415,2.37727,0.526632,14,32765
4.29965,2.33462,0.518651,12,32765
4.2375,2.28268,0.508533,12,32765
4.35926,2.32961,0.520265,13,32765
4.36718,2.31504,0.518892,13,32765
4.4719,2.35146,0.528339,15,32765
4.25941,2.22154,0.501052,12,32765
4.4261,2.28951,0.517613,13,32765
0,0,0,0,32765
4.27327,2.17404,0.495086,12,32765
4.44945,2.24489,0.512763,13,32765
4.4839,2.2432,0.514118,13,32765
0,0,0,0,32765
4.51681,2.22227,0.513374,13,32765
4.6048,2.24656,0.520802,14,32765
4.50492,2.17943,0.506617,12,32765
4.41374,2.11696,0.493693,13,32765
4.50173,2.14083,0.501366,13,32765
4.509,2.12584,0.49984,13,32765
4.41706,2.06452,0.487175,15,32765
4.39693,2.03734,0.482876,18,32765
4.47619,2.05608,0.488642,15,32765
4.465,2.03301,0.485342,13,32765
0,0,0,0,32765
4.69682,2.1009,0.504963,14,32765
0,0,0,0,32765
4.8842,2.1456,0.520207,15,32765
4.73633,2.06181,0.502245,14,32765
4.72506,2.03823,0.498298,19,32765
0,0,0,0,32765
4.64727,1.96786,0.485103,20,32765
4.7366,1.98696,0.492127,17,32765
4.55959,1.89475,0.470839,17,32765
4.52909,1.86462,0.465776,16,32765
4.48925,1.83103,0.459198,16,32765
4.54155,1.83504,0.461928,22,32765
4.5476,1.82029,0.460764,22,32765
4.51668,1.79073,0.455324,21,32765
4.61536,1.81236,0.46289,23,32765
4.47296,1.7396,0.445893,20,32765
4.54384,1.75003,0.450582,21,32765
4.6148,1.76008,0.455357,25,32765
4.57408,1.72754,0.448852,20,32765
4.55186,1.70222,0.44436,19,32765
4.52027,1.6734,0.438768,19,32765
4.58209,1.67898,0.442107,19,32765
4.69078,1.70125,0.449921,25,32765
4.6308,1.66261,0.441584,17,32765
4.69268,1.66753,0.445106,23,32765
4.67003,1.6426,0.43999,23,32765
4.68485,1.63086,0.439152,25,32765
4.73735,1.63206,0.441389,22,32765
4.69555,1.60103,0.434631,23,32765
4.73843,1.59927,0.435913,24,32765
4.75309,1.58749,0.434621,22,32765
4.71105,1.5566,0.428236,17,32765
4.69741,1.53507,0.423638,15,32765
0,0,0,0,32765
0,0,0,0,32765
0,0,0,0,32765
5.23044,1.63803,0.457586,13,32765
3.82406,2.81331,0.557005,14,32765
3.68973,2.69494,0.532202,13,32765
3.86016,2.79906,0.551759,14,32765
3.70046,2.6645,0.524553,13,32765
3.92762,2.80861,0.552356,14,32765
3.83185,2.72117,0.533926,13,32765
3.82491,2.69713,0.528821,14,32765
3.78525,2.6504,0.519364,14,32765
3.85131,2.6778,0.524605,13,32765
3.78685,2.61438,0.511511,13,32765
3.88587,2.66377,0.521519,12,32765
3.84567,2.61748,0.511925,13,32765
3.68991,2.49346,0.487469,13,32765
4.03697,2.7083,0.529243,15,32765
3.83943,2.55705,0.499857,13,32765
3.79847,2.51136,0.491044,13,32765
3.89016,2.55329,0.499788,12,32765
3.93212,2.56233,0.501323,14,32765
3.98243,2.57658,0.504424,13,32765
4.09143,2.62828,0.514216,14,32765
3.96599,2.52948,0.495494,13,32765
3.88206,2.45804,0.481751,14,32765
3.97455,2.4983,0.48975,13,32765
4.01669,2.50641,0.491651,14,32765
3.97445,2.46175,0.483261,14,32765
4.14379,2.54751,0.501265,14,32765
3.94868,2.40938,0.474656,13,32765
4.11856,2.49425,0.491706,12,32765
4.18663,2.51659,0.497032,14,32765
4.02429,2.40077,0.47484,14,32765
4.23797,2.50914,0.496371,14,32765
4.04918,2.37917,0.471243,13,32765
4.02292,2.34567,0.465197,13,32765
4.26326,2.46711,0.490398,14,32765
4.28887,2.46294,0.490299,14,32765
4.23663,2.41436,0.481507,13,32765
4.32277,2.44448,0.488113,14,32765
4.27035,2.39603,0.479136,14,32765
4.33923,2.41583,0.484721,14,32765
4.34743,2.40155,0.482195,14,32765
4.12849,2.26288,0.455916,13,32765
4.38088,2.38253,0.481235,14,32765
4.23124,2.28294,0.46226,13,32765
4.40572,2.35819,0.478495,14,32765
4.43133,2.35276,0.479006,14,32765
4.26317,2.24525,0.458053,12,32765
4.22667,2.20794,0.452042,13,32765
4.49064,2.32654,0.477265,14,32765
4.25064,2.18398,0.449714,13,32765
4.23151,2.15615,0.445268,13,32765
4.47882,2.26322,0.468619,14,32765
4.56675,2.28819,0.475238,15,32765
4.34261,2.15786,0.449822,13,32765
4.55532,2.24466,0.469646,14,32765
4.29451,2.09839,0.44043,12,32765
4.58837,2.22319,0.467701,14,32765
4.35364,2.09132,0.441216,13,32765
4.58545,2.18396,0.462574,14,32765
4.63789,2.18991,0.465537,15,32765
4.40178,2.06048,0.439444,19,32765
4.5081,2.09198,0.447997,25,32765
4.50615,2.07294,0.444917,26,32765
4.41344,2.01253,0.433777,19,32765
4.50192,2.03487,0.44008,19,32765
4.43617,1.98725,0.43088,19,32765
0,0,0,0,32765
4.54082,1.99769,0.436625,13,32765
4.72109,2.05818,0.451824,15,32765
4.51774,1.95164,0.429798,15,32765
4.52438,1.93653,0.42834,15,32765
4.53101,1.92141,0.426327,17,32765
4.51919,1.8985,0.423085,19,32765
4.50732,1.87573,0.419175,19,32765
4.43068,1.82672,0.410236,17,32765
4.4368,1.81222,0.408411,18,32765
4.53523,1.8351,0.414919,22,32765
4.54128,1.82034,0.413755,24,32765
4.5659,1.81281,0.413726,26,32765
4.55342,1.79056,0.410306,26,32765
4.60585,1.79381,0.412293,26,32765
4.56537,1.76079,0.406341,24,32765
4.59916,1.75657,0.407153,24,32765
4.63297,1.75222,0.407684,26,32765
4.6108,1.72666,0.40345,23,32765
4.57926,1.69759,0.398206,23,32765
4.49148,1.64805,0.38802,21,32765
4.60949,1.67407,0.395645,23,32765
4.61503,1.65922,0.393599,24,32765
4.63935,1.65084,0.393378,24,32765
4.59781,1.61941,0.386987,22,32765
4.61256,1.60788,0.38608,22,32765
4.74039,1.63532,0.394148,32,32765
4.7646,1.62677,0.39331,36,32765
4.76979,1.61203,0.391085,32,32765
4.7183,1.57799,0.384292,26,32765
4.85604,1.60666,0.392944,30,32765
4.62458,1.5133,0.37096,20,32765
4.95211,1.60302,0.394102,22,32765
5.15657,1.65197,0.407014,23,32765
5.18079,1.64238,0.405587,25,32765
5.20515,1.63228,0.40369,27,32765
3.88642,2.85596,0.51157,13,32765
3.92013,2.86054,0.514091,13,32765
3.91353,2.83599,0.510964,13,32765
0,0,0,0,32765
0,0,0,0,32765
3.94994,2.80279,0.509214,14,32765
0,0,0,0,32765
3.92755,2.74873,0.501221,13,32765
3.92032,2.72455,0.497907,13,32765
0,0,0,0,32765
0,0,0,0,32765
0,0,0,0,32765
3.98136,2.68925,0.495617,13,32765
4.01518,2.69274,0.497093,13,32765
3.95781,2.63568,0.487113,13,32765
0,0,0,0,32765
0,0,0,0,32765
4.03423,2.62903,0.488675,13,32765
4.08498,2.6425,0.492148,13,32765
4.10237,2.63423,0.491332,12,32765
4.04407,2.57792,0.481924,12,32765
4.10314,2.59661,0.486066,13,32765
4.08643,2.5675,0.481212,13,32765
4.20464,2.62277,0.49242,14,32765
4.07793,2.5254,0.47461,12,32765
4.06107,2.49611,0.470406,12,32765
4.01006,2.44626,0.462199,13,32765
4.23116,2.56186,0.484808,12,32765
4.2484,2.55287,0.484113,12,32765
4.21426,2.51337,0.477405,13,32765
4.18845,2.47924,0.471544,12,32765
4.17974,2.45522,0.467516,12,32765
4.23949,2.4716,0.472075,13,32765
4.22201,2.44264,0.467046,12,32765
0,0,0,0,32765
4.25575,2.4245,0.465666,12,32765
0,0,0,0,32765
4.36793,2.44944,0.471552,12,32765
4.21099,2.34284,0.451973,12,32765
4.33221,2.39144,0.462508,13,32765
4.45379,2.43935,0.472585,13,32765
4.3483,2.3629,0.45816,12,32765
4.14583,2.23528,0.434149,12,32765
4.36413,2.3343,0.454239,13,32765
0,0,0,0,32765
4.34463,2.28673,0.44716,12,32765
4.32591,2.25847,0.442539,12,32765
4.39551,2.27606,0.447185,13,32765
4.43878,2.2795,0.448526,13,32765
4.38434,2.2331,0.440919,12,32765
4.53429,2.29014,0.453333,13,32765
4.48866,2.24817,0.446418,12,32765
4.46957,2.21993,0.441569,12,32765
4.51287,2.22266,0.443053,12,32765
0,0,0,0,32765
0,0,0,0,32765
4.40971,2.11699,0.425371,12,32765
4.41687,2.10232,0.423785,13,32765
4.45101,2.10042,0.424709,17,32765
4.47596,2.09449,0.424827,21,32765
4.46494,2.07134,0.421263,21,32765
4.49001,2.06489,0.421452,19,32765
4.49693,2.05014,0.41968,20,32765
4.54024,2.0515,0.421421,25,32765
4.48343,2.00808,0.414009,16,32765
0,0,0,0,32765
4.63391,2.0382,0.423153,15,32765
4.46717,1.9472,0.406056,13,32765
4.53774,1.96011,0.410422,17,32765
4.50759,1.92962,0.405714,14,32765
4.72514,2.00416,0.422941,16,32765
4.42869,1.86107,0.394372,14,32765
4.5728,1.90415,0.405715,17,32765
4.55154,1.87768,0.401755,15,32765
4.41008,1.80256,0.387758,14,32765
4.5455,1.84034,0.397524,18,32765
4.5794,1.83647,0.398685,21,32765
4.61327,1.83257,0.399792,26,32765
4.56371,1.79551,0.39378,20,32765
4.5603,1.77706,0.392237,21,32765
4.53829,1.7513,0.388964,21,32765
4.60933,1.76124,0.393198,21,32765
4.60581,1.74259,0.391798,20,32765
4.50887,1.68911,0.382029,19,32765
4.59846,1.70588,0.388068,19,32765
4.62273,1.69778,0.389254,20,32765
4.60021,1.67256,0.385633,18,32765
4.61499,1.66105,0.386246,20,32765
4.6393,1.65248,0.387062,20,32765
4.66342,1.64421,0.388235,18,32765
4.63114,1.61593,0.384371,19,32765
4.72128,1.63001,0.390764,29,32765
4.75485,1.62449,0.392533,30,32765
4.77891,1.61566,0.39406,34,32765
4.76506,1.59428,0.392484,31,32765
4.7702,1.57898,0.391895,26,32765
4.77524,1.56366,0.39196,21,32765
0,0,0,0,32765
5.21222,1.6704,0.427327,15,32765
0,0,0,0,32765
5.18434,1.62594,0.425934,18,32765
3.87935,2.85652,0.465324,14,32765
3.91308,2.86113,0.467563,15,32765
3.88232,2.819,0.461747,14,32765
3.75451,2.70714,0.444526,13,32765
3.74729,2.68317,0.441975,13,32765
3.7969,2.69951,0.445631,13,32765
0,0,0,0,32765
3.83089,2.68633,0.444832,13,32765
3.79078,2.63965,0.437956,13,32765
3.76682,2.60454,0.432907,13,32765
3.89873,2.67646,0.446063,13,32765
3.85846,2.62985,0.43854,14,32765
4.04036,2.73434,0.457001,15,32765
3.87599,2.60438,0.435866,13,32765
3.92599,2.61948,0.438726,14,32765
3.79354,2.51311,0.422157,13,32765
3.86021,2.53893,0.426842,13,32765
3.81049,2.48792,0.418682,13,32765
4.10313,2.65924,0.448245,14,32765
3.83582,2.46769,0.416413,13,32765
3.90284,2.49254,0.421436,12,32765
4.1635,2.63973,0.446737,15,32765
4.12163,2.59444,0.439437,14,32765
3.93592,2.4597,0.417184,13,32765
3.99481,2.4785,0.420603,13,32765
4.0626,2.50165,0.425588,13,32765
3.86711,2.36339,0.402976,13,32765
3.96026,2.40223,0.410077,14,32765
4.0111,2.41467,0.412907,13,32765
4.23301,2.52915,0.433011,14,32765
4.09585,2.42883,0.416194,13,32765
4.11271,2.42022,0.414995,13,32765
4.29281,2.5072,0.431104,15,32765
4.11166,2.38308,0.409995,14,32765
4.19734,2.41425,0.41636,13,32765
4.29211,2.44959,0.423006,13,32765
4.04041,2.28789,0.395343,13,32765
4.36105,2.44994,0.423598,15,32765
4.16052,2.31888,0.401598,12,32765
4.35147,2.40632,0.417627,14,32765
4.35957,2.39197,0.415647,14,32765
4.27137,2.32518,0.404144,13,32765
4.18267,2.25911,0.393129,13,32765
4.42749,2.37234,0.413412,14,32765
4.29469,2.2828,0.398557,14,32765
4.2848,2.25917,0.395265,13,32765
4.21297,2.20333,0.386093,14,32765
4.44167,2.30395,0.404633,14,32765
4.50278,2.31637,0.407175,14,32765
4.29749,2.19264,0.386622,13,32765
4.51852,2.2861,0.403931,14,32765
4.52631,2.27091,0.402333,14,32765
4.5876,2.28246,0.404834,14,32765
4.55961,2.24951,0.399617,14,32765
4.45067,2.17767,0.38759,14,32765
4.34156,2.10602,0.375677,14,32765
4.31289,2.07401,0.370823,18,32765
4.4099,2.10254,0.376962,23,32765
4.44405,2.10066,0.377605,24,32765
4.58637,2.14976,0.387451,32,32765
4.46701,2.07577,0.374919,24,32765
4.41965,2.03593,0.36887,20,32765
4.42647,2.02138,0.367124,21,32765
4.45153,2.01475,0.367015,21,32765
4.45825,2.0001,0.365509,20,32765
4.41036,1.96084,0.3597,20,32765
4.39883,1.93798,0.35626,18,32765
4.38705,1.91541,0.353532,18,32765
4.43924,1.92069,0.355798,20,32765
4.38144,1.87867,0.349301,18,32765
4.48876,1.90699,0.355685,20,32765
4.45842,1.8766,0.351296,20,32765
4.38172,1.82752,0.343884,19,32765
4.38784,1.81306,0.342426,18,32765
4.34764,1.77988,0.337855,17,32765
4.45531,1.8067,0.344185,18,32765
4.47986,1.79941,0.344376,21,32765
4.51362,1.79582,0.345227,24,32765
4.55671,1.79559,0.346867,25,32765
4.48825,1.75174,0.340484,24,32765
4.53128,1.75133,0.342426,25,32765
4.61167,1.76488,0.346704,25,32765
4.57085,1.73205,0.342598,25,32765
4.62325,1.73464,0.345021,25,32765
4.57277,1.69896,0.339764,24,32765
4.63448,1.70471,0.343539,24,32765
4.61197,1.6794,0.340195,23,32765
4.62679,1.66783,0.340712,24,32765
4.64174,1.65585,0.340647,22,32765
4.65647,1.64423,0.340942,24,32765
4.6901,1.63896,0.342264,26,32765
4.62008,1.59745,0.336139,23,32765
4.70076,1.60839,0.341061,27,32765
4.78149,1.61892,0.346508,35,32765
4.79603,1.60699,0.347173,36,32765
4.82016,1.59784,0.347945,34,32765
4.71151,1.54503,0.339805,25,32765
4.69741,1.52388,0.338509,21,32765
4.97765,1.5975,0.358616,26,32765
5.05862,1.60619,0.364655,27,32765
5.10163,1.60224,0.368519,27,32765
0,0,0,0,32765
3.69992,2.69475,0.457031,12,32765
3.84634,2.78165,0.47009,13,32765
3.87998,2.78657,0.469937,13,32765
0,0,0,0,32765
3.94781,2.79546,0.468854,14,32765
3.96553,2.78818,0.466382,12,32765
0,0,0,0,32765
0,0,0,0,32765
3.81331,2.62499,0.436524,13,32765
0,0,0,0,32765
4.01242,2.72277,0.451514,13,32765
4.05472,2.73181,0.452296,13,32765
0,0,0,0,32765
4.03156,2.67784,0.441953,13,32765
3.99893,2.63737,0.434733,13,32765
0,0,0,0,32765
4.08361,2.65438,0.436503,12,32765
4.06746,2.62473,0.431506,13,32765
4.11841,2.638,0.433237,13,32765
4.07681,2.5925,0.42553,12,32765
4.10234,2.5898,0.42505,13,32765
4.0942,2.56577,0.42056,13,32765
4.06883,2.53151,0.414903,12,32765
4.07734,2.51819,0.412449,13,32765
4.1707,2.557,0.418486,12,32765
4.17079,2.53803,0.415811,12,32765
4.15381,2.50873,0.41115,12,32765
4.17077,2.50026,0.409556,12,32765
0,0,0,0,32765
4.23053,2.49803,0.409135,13,32765
4.2304,2.47896,0.406067,12,32765
4.09239,2.37963,0.39013,12,32765
4.16947,2.40599,0.394561,13,32765
4.29876,2.4614,0.403816,13,32765
4.26373,2.42256,0.397734,12,32765
4.34136,2.44761,0.402261,12,32765
4.18439,2.34064,0.385248,12,32765
4.2358,2.35107,0.387361,12,32765
4.366,2.40435,0.396374,12,32765
4.38285,2.39465,0.395398,13,32765
4.34704,2.35648,0.389636,12,32765
4.3551,2.3419,0.387544,12,32765
4.4333,2.36515,0.391829,13,32765
4.44132,2.35036,0.389931,13,32765
4.38742,2.30327,0.382569,13,32765
0,0,0,0,32765
4.53582,2.34281,0.389886,13,32765
4.44599,2.27787,0.38028,13,32765
0,0,0,0,32765
0,0,0,0,32765
0,0,0,0,32765
0,0,0,0,32765
4.3592,2.14094,0.361439,13,32765
0,0,0,0,32765
4.44554,2.14652,0.363573,19,32765
4.47068,2.14052,0.363485,23,32765
4.49594,2.13411,0.363636,19,32765
4.48502,2.11088,0.36012,20,32765
4.35662,2.03261,0.347512,15,32765
4.34532,2.0098,0.344865,15,32765
4.38837,2.012,0.345849,16,32765
4.53146,2.05916,0.354722,17,32765
4.42009,1.99101,0.34393,16,32765
4.41779,1.97209,0.34131,15,32765
4.28762,1.89685,0.329053,14,32765
4.43114,1.9425,0.337938,15,32765
4.49274,1.95131,0.340231,18,32765
4.51766,1.94424,0.339941,18,32765
4.43254,1.8899,0.331272,17,32765
4.42962,1.87157,0.328746,17,32765
4.34379,1.81855,0.320587,16,32765
4.4513,1.84627,0.3258,16,32765
4.40202,1.80898,0.3205,16,32765
4.46357,1.817,0.322456,16,32765
4.44185,1.79122,0.318593,18,32765
4.5498,1.81721,0.324284,19,32765
4.50958,1.78369,0.318981,18,32765
4.61775,1.80885,0.324517,20,32765
4.56801,1.77202,0.318287,21,32765
4.58326,1.76059,0.316959,20,32765
4.57971,1.74224,0.314533,21,32765
4.47347,1.68501,0.304829,17,32765
4.52569,1.68813,0.30649,20,32765
4.5407,1.67678,0.304943,20,32765
4.64,1.69624,0.309304,19,32765
4.6175,1.67091,0.305268,20,32765
4.60434,1.64898,0.30149,17,32765
4.60972,1.63416,0.299987,19,32765
4.67165,1.63903,0.301376,21,32765
4.69581,1.63077,0.30067,27,32765
4.71056,1.61907,0.298888,28,32765
4.73479,1.61037,0.297616,25,32765
4.74949,1.5985,0.29588,26,32765
4.80206,1.59907,0.296823,24,32765
4.73142,1.55887,0.289317,18,32765
4.7649,1.55332,0.288688,23,32765
4.79845,1.54748,0.287501,22,32765
4.8034,1.53258,0.284724,22,32765
4.68466,1.47818,0.274538,16,32765
4.72747,1.47568,0.273844,19,32765
3.71513,2.73091,0.420549,13,32765
3.88559,2.83586,0.434771,15,32765
0,0,0,0,32765
3.71087,2.67064,0.406498,13,32765
3.66327,2.61793,0.396611,12,32765
3.76163,2.66913,0.403404,13,32765
0,0,0,0,32765
3.84512,2.68995,0.404156,13,32765
3.76411,2.61498,0.391621,13,32765
3.98624,2.74968,0.410809,14,32765
3.83116,2.62391,0.390978,14,32765
4.02964,2.74006,0.407651,14,32765
4.08851,2.76021,0.409698,14,32765
3.92392,2.63035,0.389504,14,32765
4.04061,2.68933,0.397318,14,32765
4.06621,2.6872,0.396228,14,32765
4.0003,2.62456,0.386357,12,32765
3.97582,2.58956,0.380371,13,32765
4.1436,2.67927,0.393187,15,32765
4.18635,2.68694,0.393608,14,32765
3.82541,2.43753,0.356634,12,32765
4.10318,2.59554,0.379477,15,32765
4.1457,2.60327,0.379811,15,32765
3.98507,2.48437,0.362193,14,32765
4.1969,2.59722,0.37812,14,32765
4.12061,2.53134,0.36797,14,32765
4.06102,2.47615,0.360123,13,32765
3.97557,2.40585,0.34979,13,32765
4.1888,2.51605,0.365352,13,32765
4.1288,2.46127,0.357136,13,32765
4.3259,2.55939,0.371063,15,32765
4.12817,2.42382,0.351206,14,32765
4.17952,2.43507,0.352914,13,32765
4.3086,2.49115,0.360888,15,32765
4.12675,2.36754,0.342879,13,32765
4.32543,2.46242,0.356641,14,32765
4.31636,2.43826,0.353279,14,32765
4.18542,2.34576,0.340175,13,32765
4.10609,2.2835,0.331267,13,32765
4.38457,2.41925,0.350912,14,32765
4.45398,2.43821,0.354005,15,32765
4.37447,2.37591,0.345219,14,32765
4.4265,2.38486,0.346549,14,32765
4.41687,2.3609,0.343212,14,32765
4.42488,2.34613,0.341318,14,32765
4.43275,2.33151,0.339349,14,32765
4.23713,2.21075,0.321569,12,32765
4.5282,2.34332,0.341204,15,32765
4.52711,2.32382,0.339282,14,32765
4.4283,2.25429,0.329745,14,32765
4.36477,2.20341,0.322199,14,32765
4.39913,2.20192,0.322673,14,32765
4.45149,2.20894,0.324325,15,32765
4.37838,2.15438,0.317046,17,32765
4.37676,2.13528,0.314511,17,32765
4.366,2.11203,0.31136,19,32765
4.31905,2.07175,0.306009,17,32765
4.40717,2.09584,0.310458,20,32765
4.24266,2.0005,0.296446,19,32765
4.23137,1.97782,0.293492,17,32765
4.21083,1.95117,0.290442,17,32765
4.22648,1.94133,0.289244,19,32765
4.26944,1.94364,0.289985,21,32765
4.27592,1.92959,0.288483,20,32765
4.26429,1.90703,0.285407,21,32765
4.27073,1.89281,0.283709,21,32765
4.24977,1.86637,0.280338,18,32765
4.25621,1.85192,0.278547,19,32765
4.17996,1.80215,0.271604,17,32765
4.18612,1.78805,0.269926,17,32765
4.21963,1.78604,0.269947,17,32765
4.12428,1.72974,0.262205,15,32765
4.13932,1.71994,0.260688,15,32765
4.22808,1.7406,0.264708,15,32765
4.11376,1.67759,0.25528,15,32765
4.25819,1.72021,0.262099,20,32765
4.39374,1.75799,0.268519,24,32765
4.31617,1.71021,0.261504,23,32765
4.36836,1.71418,0.26272,23,32765
4.41134,1.71426,0.262721,24,32765
4.47298,1.72126,0.264117,21,32765
4.40398,1.67833,0.257999,23,32765
4.40024,1.66033,0.255467,23,32765
4.45239,1.6637,0.25668,22,32765
4.60779,1.70453,0.263094,24,32765
4.59469,1.68261,0.260115,25,32765
4.56273,1.65397,0.255854,22,32765
4.6341,1.66252,0.256984,23,32765
4.59246,1.63087,0.252878,23,32765
4.64497,1.63249,0.253196,23,32765
4.63137,1.61117,0.250272,23,32765
4.60828,1.58666,0.246407,23,32765
4.61349,1.57182,0.243998,22,32765
4.50501,1.51884,0.235787,19,32765
4.63313,1.54548,0.240291,22,32765
4.5433,1.49947,0.232665,20,32765
4.45315,1.45419,0.225593,18,32765
4.49588,1.45239,0.224787,18,32765
4.47196,1.42928,0.220774,18,32765
4.43854,1.40293,0.216187,19,32765
4.48111,1.40119,0.215268,21,32765
3.72018,2.73157,0.36837,14,32765
0,0,0,0,32765
3.90763,2.83003,0.383301,13,32765
3.8442,2.76479,0.37496,12,32765
3.92649,2.80408,0.381295,13,32765
3.89523,2.76222,0.376031,13,32765
3.97779,2.80106,0.381682,14,32765
3.98696,2.7882,0.380132,13,32765
0,0,0,0,32765
4.02989,2.77918,0.379768,13,32765
3.95701,2.70939,0.370639,13,32765
3.86718,2.62896,0.359938,12,32765
3.9917,2.6943,0.36878,13,32765
0,0,0,0,32765
0,0,0,0,32765
4.03516,2.66579,0.365441,13,32765
4.11088,2.69611,0.369603,13,32765
0,0,0,0,32765
4.12889,2.66889,0.366347,14,32765
0,0,0,0,32765
3.91945,2.49722,0.342645,12,32765
4.0794,2.58039,0.354512,13,32765
4.10482,2.57771,0.354193,13,32765
4.1388,2.58011,0.354171,13,32765
4.11353,2.5454,0.349766,12,32765
0,0,0,0,32765
4.23295,2.58026,0.353986,13,32765
4.19045,2.53518,0.347998,13,32765
4.13932,2.48504,0.34092,12,32765
0,0,0,0,32765
4.19043,2.47771,0.340012,13,32765
4.15579,2.43853,0.334533,12,32765
0,0,0,0,32765
4.25865,2.46058,0.338147,13,32765
4.33613,2.48619,0.341996,13,32765
4.25785,2.42238,0.332971,12,32765
4.27477,2.41308,0.331354,12,32765
4.30904,2.41349,0.331273,13,32765
4.3172,2.3991,0.329483,12,32765
4.65715,2.56814,0.352838,15,32765
4.20185,2.29883,0.31592,13,32765
4.26226,2.31342,0.317531,12,32765
4.40201,2.37001,0.324719,13,32765
4.33962,2.31764,0.317976,14,32765
4.26804,2.26117,0.310678,12,32765
4.36403,2.29333,0.315467,13,32765
0,0,0,0,32765
4.37954,2.26418,0.310941,12,32765
4.53835,2.32664,0.319725,14,32765
4.58167,2.3298,0.320581,14,32765
4.43798,2.23827,0.308037,12,32765
4.41878,2.21009,0.303876,13,32765
4.47987,2.22211,0.305208,17,32765
4.40686,2.16734,0.297702,15,32765
4.44111,2.1657,0.297971,18,32765
4.45756,2.15499,0.296257,18,32765
4.43784,2.12714,0.292887,19,32765
4.4269,2.10397,0.289787,17,32765
4.29851,2.0255,0.278764,14,32765
4.26906,1.99446,0.275058,16,32765
