x, y, z, intensity, ring
0.969419,-0.209916,-0.127133,16,32765
0.968727,-0.213201,-0.126939,16,32765
0.9777,-0.218676,-0.127995,16,32765
0.996334,-0.22637,-0.130287,16,32765
0.956933,-0.220827,-0.124958,16,32765
0.99484,-0.233142,-0.129765,16,32765
0.974779,-0.231891,-0.127015,16,32765
0.974029,-0.235191,-0.126699,16,32765
0.99253,-0.243216,-0.128962,16,32765
0.982109,-0.244158,-0.127468,16,32765
0.971704,-0.245027,-0.12591,16,32765
0.96132,-0.245781,-0.124317,16,32765
0.979746,-0.253936,-0.126545,16,32765
0.978938,-0.257203,-0.126201,16,32765
0.978114,-0.260465,-0.125903,16,32765
0.996441,-0.268916,-0.128023,16,32765
0.976441,-0.267016,-0.125162,16,32765
0.975587,-0.270283,-0.124806,16,32765
1.01295,-0.284284,-0.129309,16,32765
0.983386,-0.279547,-0.125322,15,32765
0.992025,-0.285606,-0.126156,15,32765
1.01973,-0.297195,-0.1293,16,32765
1.01879,-0.300573,-0.128933,16,32765
1.01784,-0.303938,-0.128511,16,32765
1.0169,-0.307246,-0.128134,15,32765
1.03494,-0.31635,-0.130055,16,32765
1.015,-0.313845,-0.127147,16,32765
1.03299,-0.32311,-0.128942,16,32765
1.02252,-0.323511,-0.127252,16,32765
0.993161,-0.3177,-0.12328,15,32765
1.02053,-0.330128,-0.12619,16,32765
0.991207,-0.324202,-0.12207,16,32765
1.03738,-0.342996,-0.127238,16,32765
0.911888,0.0182338,-0.120533,15,32765
0.931702,0.0155052,-0.123656,15,32765
0.971329,0.0128585,-0.129441,15,32765
0.88211,0.00867966,-0.117923,15,32765
0.971274,0.00625869,-0.130335,15,32765
0.901869,0.00277295,-0.121349,15,32765
0.911746,-0.000249264,-0.12296,15,32765
0.95134,-0.00351222,-0.12861,15,32765
0.911646,-0.00642144,-0.123531,15,32765
0.891772,-0.00930947,-0.121065,15,32765
0.941243,-0.0130238,-0.128032,15,32765
0.93126,-0.0160847,-0.126868,15,32765
0.911356,-0.0189358,-0.124383,14,32765
0.931065,-0.0226026,-0.127305,15,32765
0.871526,-0.0241955,-0.119404,14,32765
0.960536,-0.0299638,-0.131809,15,32765
0.950512,-0.0328772,-0.130563,15,32765
0.920665,-0.0349933,-0.126693,15,32765
0.890841,-0.0368774,-0.122647,15,32765
0.930281,-0.0416919,-0.128215,15,32765
0.920218,-0.0443614,-0.127009,15,32765
0.939827,-0.0484665,-0.129911,15,32765
0.909983,-0.0499994,-0.125823,15,32765
0.939469,-0.0547819,-0.129985,15,32765
0.968931,-0.0598271,-0.134142,15,32765
0.93905,-0.061228,-0.130139,14,32765
0.928943,-0.0637787,-0.128834,15,32765
0.948466,-0.068415,-0.131652,15,32765
0.958101,-0.0724237,-0.133034,15,32765
0.987465,-0.0780675,-0.137182,15,32765
0.898352,-0.0741033,-0.124787,15,32765
0.927705,-0.0797401,-0.128862,16,32765
0.927412,-0.0829146,-0.128968,15,32765
0.89754,-0.0833247,-0.124813,15,32765
0.926815,-0.0892785,-0.129009,15,32765
0.93636,-0.0934645,-0.130362,15,32765
0.906488,-0.093669,-0.126118,15,32765
0.915998,-0.0978824,-0.127538,15,32765
0.89599,-0.098864,-0.124613,15,32765
0.915323,-0.104185,-0.127392,14,32765
0.934657,-0.10961,-0.130011,15,32765
0.953946,-0.115157,-0.13276,16,32765
0.933898,-0.115968,-0.129948,15,32765
0.904038,-0.115385,-0.125705,15,32765
0.942934,-0.123674,-0.131072,15,32765
0.903246,-0.121645,-0.125495,15,32765
0.942094,-0.130145,-0.13085,15,32765
0.922045,-0.130604,-0.127969,15,32765
0.911814,-0.132297,-0.126463,15,32765
0.911364,-0.135476,-0.126342,15,32765
0.910899,-0.138664,-0.126236,15,32765
0.93002,-0.144903,-0.128711,15,32765
0.929523,-0.148149,-0.1286,15,32765
0.938809,-0.152891,-0.129853,15,32765
0.938308,-0.156075,-0.129684,15,32765
0.967095,-0.164274,-0.133574,15,32765
0.927491,-0.160858,-0.128004,15,32765
0.946439,-0.167596,-0.130634,15,32765
0.887378,-0.160299,-0.122329,15,32765
0.896586,-0.165138,-0.123543,15,32765
0.886313,-0.166327,-0.121999,16,32765
0.914968,-0.174922,-0.125838,15,32765
0.93384,-0.181819,-0.128394,15,32765
0.942953,-0.186957,-0.129567,16,32765
0.932602,-0.188259,-0.128106,16,32765
0.912558,-0.18748,-0.125254,15,32765
0.902228,-0.188579,-0.123782,15,32765
0.940375,-0.199923,-0.128943,16,32765
0.930019,-0.201038,-0.127467,15,32765
0.929364,-0.204194,-0.127231,15,32765
0.928677,-0.207325,-0.127185,15,32765
0.927987,-0.21045,-0.127084,15,32765
0.936948,-0.215829,-0.12824,15,32765
0.945891,-0.22124,-0.129397,16,32765
0.945156,-0.224474,-0.129198,16,32765
0.944396,-0.227664,-0.129173,16,32765
0.934014,-0.228484,-0.127725,16,32765
0.933262,-0.231653,-0.127515,15,32765
0.942116,-0.237171,-0.128712,16,32765
0.941332,-0.240325,-0.128601,15,32765
0.940537,-0.243455,-0.12853,16,32765
0.910966,-0.239066,-0.12445,15,32765
0.958063,-0.25488,-0.130965,16,32765
0.90935,-0.245205,-0.124331,15,32765
0.94678,-0.258715,-0.129516,16,32765
0.936384,-0.259212,-0.128041,16,32765
0.916438,-0.256965,-0.125338,16,32765
0.95374,-0.270827,-0.130508,16,32765
0.905196,-0.260268,-0.124019,15,32765
0.89482,-0.260528,-0.122565,15,32765
0.941499,-0.277507,-0.12911,16,32765
0.969067,-0.289163,-0.13302,16,32765
0.911174,-0.275198,-0.125012,15,32765
0.929235,-0.283948,-0.127655,16,32765
0.928311,-0.286955,-0.127654,16,32765
0.927376,-0.289934,-0.127715,16,32765
0.916986,-0.28994,-0.126379,16,32765
0.915997,-0.292946,-0.126617,15,32765
0.915044,-0.295924,-0.126586,16,32765
0.904631,-0.295826,-0.125416,16,32765
0.913076,-0.3018,-0.126923,16,32765
0.871115,0.0173841,-0.123517,15,32765
0.871102,0.0144536,-0.123987,15,32765
0.86118,0.0113489,-0.123042,15,32765
0.851264,0.00831664,-0.121984,15,32765
0.861124,0.00547994,-0.123834,15,32765
0.851196,0.00254043,-0.122716,15,32765
0.880854,-0.000328976,-0.127265,15,32765
0.831323,-0.0031608,-0.120381,15,32765
0.890648,-0.00638064,-0.129253,15,32765
0.841112,-0.00889026,-0.122279,15,32765
0.85094,-0.0118938,-0.123936,15,32765
0.860763,-0.0149967,-0.125546,15,32765
0.84089,-0.0176072,-0.122857,15,32765
0.880361,-0.0215227,-0.128845,15,32765
0.870357,-0.0243215,-0.127622,15,32765
0.860353,-0.027004,-0.126345,15,32765
0.860242,-0.0299289,-0.126447,15,32765
0.840333,-0.0321186,-0.123731,15,32765
0.830328,-0.0345572,-0.122314,15,32765
0.889489,-0.0400708,-0.131162,15,32765
0.8498,-0.0411733,-0.125478,15,32765
0.879272,-0.0455663,-0.130015,15,32765
0.849478,-0.0468985,-0.125646,15,32765
0.849308,-0.0497565,-0.125698,15,32765
0.858999,-0.0532828,-0.127206,15,32765
0.858796,-0.0562477,-0.1273,15,32765
0.809244,-0.0558067,-0.120041,15,32765
0.848501,-0.0614714,-0.125964,15,32765
0.877874,-0.0666447,-0.130368,15,32765
0.867773,-0.0688959,-0.128933,15,32765
0.867539,-0.0718616,-0.128885,15,32765
0.84758,-0.0731549,-0.12592,15,32765
0.867015,-0.0778327,-0.128947,16,32765
0.8569,-0.0798748,-0.127445,15,32765
0.827069,-0.0799906,-0.123122,15,32765
0.876003,-0.0877885,-0.130432,15,32765
0.846191,-0.0877842,-0.125916,15,32765
0.875379,-0.093909,-0.130356,15,32765
0.845579,-0.093665,-0.12579,16,32765
0.855074,-0.0977042,-0.127289,15,32765
0.854752,-0.100624,-0.127179,15,32765
0.874044,-0.105914,-0.130112,15,32765
0.873687,-0.108904,-0.130042,15,32765
0.863518,-0.110629,-0.128447,15,32765
0.882757,-0.116217,-0.131274,15,32765
0.833346,-0.112651,-0.123874,16,32765
0.872168,-0.120934,-0.129609,15,32765
0.881562,-0.125333,-0.130917,15,32765
0.871363,-0.126894,-0.129323,16,32765
0.851359,-0.127021,-0.126304,16,32765
0.860704,-0.131503,-0.127655,16,32765
0.86027,-0.134524,-0.127432,15,32765
0.869579,-0.139099,-0.128777,15,32765
0.869115,-0.142053,-0.128683,15,32765
0.87841,-0.146639,-0.12997,16,32765
0.858413,-0.146338,-0.126936,15,32765
0.906667,-0.157811,-0.133979,16,32765
0.867138,-0.154103,-0.128157,16,32765
0.856893,-0.155345,-0.126499,15,32765
0.875835,-0.161891,-0.129246,15,32765
0.885038,-0.166678,-0.130481,16,32765
0.865052,-0.165965,-0.12744,16,32765
0.854784,-0.167016,-0.125896,16,32765
0.863932,-0.171895,-0.127175,16,32765
0.853647,-0.172929,-0.125632,16,32765
0.862764,-0.177874,-0.126885,15,32765
0.862167,-0.180839,-0.126752,16,32765
0.890602,-0.190005,-0.130869,16,32765
0.860946,-0.186758,-0.126465,16,32765
0.870004,-0.191821,-0.127664,16,32765
0.859697,-0.192596,-0.126202,16,32765
0.859056,-0.195498,-0.126108,16,32765
0.868052,-0.200656,-0.127369,16,32765
0.896305,-0.210372,-0.131457,16,32765
0.885975,-0.211151,-0.129857,16,32765
0.866014,-0.209494,-0.127009,16,32765
0.88455,-0.217136,-0.129708,15,32765
0.864621,-0.21536,-0.126694,16,32765
0.883112,-0.223089,-0.129398,16,32765
0.872782,-0.223597,-0.127888,16,32765
0.872041,-0.226508,-0.127821,15,32765
0.852144,-0.224404,-0.124875,15,32765
0.870517,-0.232391,-0.127649,15,32765
0.86018,-0.232749,-0.126163,15,32765
0.859397,-0.23565,-0.126118,16,32765
0.906332,-0.251761,-0.132962,15,32765
0.857844,-0.241368,-0.125879,15,32765
0.885614,-0.252352,-0.130026,15,32765
0.88477,-0.255276,-0.13006,15,32765
0.845911,-0.24714,-0.124324,15,32765
0.864072,-0.255567,-0.127142,15,32765
0.872695,-0.261308,-0.128535,16,32765
0.871841,-0.26423,-0.128359,15,32765
0.852037,-0.261261,-0.125603,16,32765
0.879557,-0.272827,-0.129788,15,32765
0.859769,-0.26973,-0.127052,15,32765
0.83058,-0.263531,-0.122834,15,32765
0.886246,-0.284416,-0.131438,15,32765
0.828808,-0.268967,-0.123019,15,32765
0.818497,-0.268591,-0.121742,15,32765
0.827011,-0.274306,-0.123322,16,32765
0,0,-0,0,32765
0.800274,0.0139568,-0.124364,16,32765
0.800313,0.0112961,-0.124384,16,32765
0.839864,0.0089749,-0.130566,15,32765
0.760838,0.00548398,-0.118301,15,32765
0.75096,0.00283913,-0.11684,14,32765
0.760853,0.000256376,-0.118332,15,32765
0.681807,-0.00209758,-0.105993,15,32765
0.780604,-0.00506092,-0.121375,15,32765
0.770712,-0.00764171,-0.119772,15,32765
0.800328,-0.0106839,-0.124338,15,32765
0.829929,-0.0139343,-0.128935,15,32765
0.79037,-0.0160037,-0.122713,15,32765
0.819954,-0.019451,-0.12727,15,32765
0.810016,-0.0220196,-0.125652,15,32765
0.790198,-0.024176,-0.122484,15,32765
0.82962,-0.028207,-0.128588,16,32765
0.790029,-0.029575,-0.12239,15,32765
0.809676,-0.0330912,-0.125418,16,32765
0.799692,-0.0354272,-0.123846,15,32765
0.79958,-0.0381892,-0.123746,15,32765
0.789592,-0.0404465,-0.122103,15,32765
0.789456,-0.0431733,-0.122043,15,32765
0.779447,-0.0453056,-0.120454,15,32765
0.818748,-0.0504028,-0.126535,15,32765
0.828447,-0.0538218,-0.127977,15,32765
0.808563,-0.0552781,-0.124782,15,32765
0.837968,-0.0601543,-0.129196,15,32765
0.837745,-0.0630079,-0.129278,15,32765
0.798124,-0.0628477,-0.123079,15,32765
0.837309,-0.0688971,-0.129101,15,32765
0.817384,-0.0701697,-0.125938,15,32765
0.826986,-0.0739488,-0.12738,15,32765
0.866099,-0.0804965,-0.133389,15,32765
0.826463,-0.0796895,-0.127313,15,32765
0.816362,-0.0815346,-0.125717,15,32765
0.855421,-0.088399,-0.131686,15,32765
0.86495,-0.0923744,-0.133147,15,32765
0.864637,-0.0953592,-0.133077,15,32765
0.854488,-0.0972438,-0.131504,15,32765
0.844333,-0.099053,-0.129961,15,32765
0.853807,-0.103173,-0.131413,15,32765
0.843645,-0.104929,-0.129819,15,32765
0.892313,-0.114132,-0.137303,15,32765
0.842914,-0.110795,-0.129697,15,32765
0.85232,-0.115011,-0.131234,15,32765
0.832346,-0.115234,-0.128145,15,32765
0.812373,-0.115318,-0.125109,16,32765
0.8022,-0.116668,-0.123545,16,32765
0.811591,-0.120896,-0.124919,16,32765
0.830733,-0.126659,-0.127827,16,32765
0.820522,-0.128015,-0.126317,16,32765
0.820074,-0.130902,-0.126264,16,32765
0.809865,-0.132195,-0.124671,16,32765
0.828912,-0.13828,-0.127607,16,32765
0.828449,-0.141156,-0.127464,16,32765
0.827969,-0.144011,-0.127392,16,32765
0.817746,-0.145118,-0.125828,16,32765
0.807536,-0.146176,-0.124168,15,32765
0.807035,-0.148933,-0.124149,16,32765
0.825972,-0.15531,-0.127078,16,32765
0.835187,-0.159974,-0.128336,16,32765
0.854053,-0.166598,-0.131296,15,32765
0.814697,-0.161813,-0.125242,16,32765
0.823867,-0.166582,-0.126468,15,32765
0.832981,-0.171413,-0.127905,16,32765
0.822722,-0.172245,-0.126334,16,32765
0.860846,-0.183298,-0.132086,15,32765
0.840903,-0.182065,-0.128976,16,32765
0.81133,-0.178543,-0.124364,16,32765
0.8011,-0.179134,-0.12268,16,32765
0.829441,-0.188432,-0.126966,16,32765
0.819189,-0.189007,-0.12532,16,32765
0.857084,-0.200844,-0.131028,16,32765
0.846807,-0.201441,-0.129385,16,32765
0.855761,-0.206633,-0.130678,16,32765
0.874302,-0.214244,-0.133401,15,32765
0.844806,-0.210025,-0.128808,15,32765
0.844138,-0.212889,-0.128488,16,32765
0.872195,-0.223087,-0.132699,16,32765
0.823596,-0.213593,-0.125169,16,32765
0.8612,-0.226393,-0.130692,15,32765
0.870053,-0.231814,-0.131794,16,32765
0.840645,-0.226993,-0.12724,15,32765
0.820832,-0.224564,-0.124119,15,32765
0.82966,-0.229935,-0.125277,15,32765
0.87657,-0.24606,-0.132211,15,32765
0.847241,-0.240863,-0.127546,15,32765
0.865507,-0.249166,-0.130053,15,32765
0.855217,-0.249279,-0.128308,15,32765
0.854448,-0.252114,-0.127895,15,32765
0.872643,-0.260593,-0.130331,15,32765
0.852867,-0.257729,-0.127253,16,32765
0.861549,-0.263417,-0.12824,15,32765
0.879671,-0.272046,-0.130649,16,32765
0.859961,-0.268974,-0.127362,16,32765
0.811946,-0.256833,-0.11992,15,32765
0.877214,-0.280582,-0.129112,15,32765
0.904634,-0.292567,-0.13282,15,32765
0.913173,-0.298578,-0.133663,16,32765
0.874709,-0.289052,-0.127409,15,32765
0,0,-0,0,32765
0.799066,0.0138867,-0.131909,15,32765
0.759643,0.0106678,-0.125414,15,32765
0.779401,0.00826507,-0.128708,15,32765
0.759689,0.00540564,-0.125473,15,32765
0.749824,0.00275792,-0.123918,15,32765
0.749837,0.000168019,-0.123873,16,32765
0.710376,-0.00227292,-0.117307,15,32765
0.769558,-0.00509194,-0.127103,15,32765
0.749815,-0.00754221,-0.123779,16,32765
0.759656,-0.0102579,-0.12537,15,32765
0.779348,-0.0132131,-0.128617,16,32765
0.789175,-0.0161173,-0.130163,16,32765
0.749665,-0.0179223,-0.123614,15,32765
0.789065,-0.0216043,-0.130038,15,32765
0.798866,-0.0246054,-0.131559,16,32765
0.749473,-0.0256438,-0.123419,16,32765
0.759253,-0.0285947,-0.124972,16,32765
0.778873,-0.0320166,-0.128187,16,32765
0.739334,-0.0329359,-0.121657,16,32765
0.788513,-0.0378636,-0.129668,16,32765
0.788396,-0.0405963,-0.129553,15,32765
0.807967,-0.0444104,-0.132731,15,32765
0.768414,-0.0448861,-0.126193,15,32765
0.787957,-0.0487429,-0.129411,15,32765
0.7878,-0.0514248,-0.129333,16,32765
0.748262,-0.0513947,-0.122729,16,32765
0.777635,-0.0560798,-0.127432,16,32765
0.757745,-0.057249,-0.12428,16,32765
0.787071,-0.0622538,-0.129009,16,32765
0.767184,-0.0634047,-0.125731,16,32765
0.766973,-0.066128,-0.125614,16,32765
0.747085,-0.0670907,-0.122325,16,32765
0.815642,-0.0761287,-0.133538,16,32765
0.776081,-0.075146,-0.127089,15,32765
0.785651,-0.0787941,-0.128621,16,32765
0.775572,-0.0804782,-0.126931,15,32765
0.785113,-0.0841912,-0.128489,15,32765
0.794638,-0.087995,-0.130031,16,32765
0.794336,-0.0907626,-0.129974,15,32765
0.833231,-0.098142,-0.136361,16,32765
0.793698,-0.0962916,-0.129888,15,32765
0.79337,-0.0990656,-0.12981,16,32765
0.802819,-0.103089,-0.131355,16,32765
0.81225,-0.107182,-0.132896,15,32765
0.811872,-0.109979,-0.132924,16,32765
0.811499,-0.112783,-0.132852,16,32765
0.820881,-0.116975,-0.134432,16,32765
0.800949,-0.116934,-0.131174,16,32765
0.839613,-0.125548,-0.137435,16,32765
0.790402,-0.120968,-0.129347,15,32765
0.799731,-0.125245,-0.130937,16,32765
0.789545,-0.126504,-0.129289,16,32765
0.79885,-0.130888,-0.130796,16,32765
0.837343,-0.14021,-0.137107,16,32765
0.788218,-0.134804,-0.128999,16,32765
0.807209,-0.140924,-0.132113,16,32765
0.797011,-0.141965,-0.130457,16,32765
0.796542,-0.144721,-0.130297,16,32765
0.805752,-0.149247,-0.131867,16,32765
0.795551,-0.150142,-0.130217,16,32765
0.814464,-0.156579,-0.133162,16,32765
0.813929,-0.159355,-0.133137,16,32765
0.813392,-0.162146,-0.133051,16,32765
0.793515,-0.161032,-0.129627,16,32765
0.783291,-0.161777,-0.127998,16,32765
0.80207,-0.168533,-0.131076,16,32765
0.830486,-0.177478,-0.135627,16,32765
0.781644,-0.16985,-0.127609,16,32765
0.800373,-0.176772,-0.130597,16,32765
0.780528,-0.175166,-0.127251,16,32765
0.789577,-0.180025,-0.12868,16,32765
0.798612,-0.184925,-0.130084,16,32765
0.798,-0.187673,-0.129906,16,32765
0.806994,-0.192662,-0.131308,17,32765
0.806361,-0.195406,-0.13114,16,32765
0.796132,-0.19579,-0.129384,16,32765
0.795496,-0.198477,-0.129199,17,32765
0.804442,-0.203606,-0.13045,16,32765
0.822912,-0.211236,-0.133396,16,32765
0.822236,-0.214004,-0.133157,16,32765
0.821564,-0.216746,-0.13287,16,32765
0.792251,-0.211839,-0.127916,16,32765
0.820176,-0.222257,-0.132334,16,32765
0.790882,-0.217142,-0.127497,16,32765
0.809238,-0.225076,-0.13029,16,32765
0.818036,-0.230447,-0.131574,16,32765
0.826819,-0.235895,-0.132757,16,32765
0.797594,-0.230432,-0.127848,16,32765
0.806353,-0.235872,-0.129071,16,32765
0.815104,-0.24136,-0.130194,16,32765
0.804893,-0.241215,-0.128305,16,32765
0.823052,-0.249602,-0.131087,16,32765
0.812841,-0.249407,-0.129176,15,32765
0.830975,-0.257898,-0.131793,16,32765
0.820774,-0.257627,-0.129838,15,32765
0.820002,-0.2603,-0.12939,16,32765
0.809818,-0.259941,-0.127376,16,32765
0.799626,-0.259521,-0.12549,15,32765
0.817648,-0.268289,-0.127958,16,32765
0,-0,-0,0,32765
7.68866,2.49646,1.49016,30,32765
7.73419,2.48435,1.49599,29,32765
7.76111,2.46595,1.49755,29,32765
7.83495,2.46136,1.50923,29,32765
7.87174,2.44421,1.51193,29,32765
7.92695,2.43313,1.51929,29,32765
7.95427,2.41285,1.51994,28,32765
8.03802,2.40933,1.53174,28,32765
8.07485,2.39107,1.53399,30,32765
8.16812,2.3894,1.5476,30,32765
8.17622,2.36319,1.54508,27,32765
8.44903,2.41282,1.59285,13,32765
8.42888,2.37788,1.58421,12,32765
8.41805,2.34529,1.57814,12,32765
8.30304,2.28384,1.55117,12,32765
8.43434,2.29047,1.57167,12,32765
8.45181,2.26558,1.57041,13,32765
8.45954,2.23828,1.56791,13,32765
8.48645,2.21578,1.56797,13,32765
8.43695,2.17345,1.55452,13,32765
8.44441,2.14581,1.5524,13,32765
8.45182,2.11823,1.54996,13,32765
8.45927,2.09067,1.54675,13,32765
8.42798,2.0541,1.53816,13,32765
8.38727,2.01508,1.5267,13,32765
8.41337,1.99228,1.52788,13,32765
8.39171,1.9577,1.5196,12,32765
8.36013,1.92099,1.51069,13,32765
8.32821,1.88483,1.50243,12,32765
8.37314,1.86589,1.50767,13,32765
8.38927,1.84054,1.50696,13,32765
8.34752,1.80263,1.49612,13,32765
8.31506,1.76725,1.48777,13,32765
8.31155,1.73821,1.48364,13,32765
8.36574,1.72092,1.49056,13,32765
8.32323,1.68398,1.48071,13,32765
8.2903,1.64896,1.47252,13,32765
8.32516,1.62727,1.47504,13,32765
8.30155,1.5943,1.46932,13,32765
8.30706,1.56701,1.4675,13,32765
8.27357,1.5328,1.45954,13,32765
8.24013,1.49811,1.45118,13,32765
8.30368,1.48078,1.45936,13,32765
8.25056,1.44279,1.44796,13,32765
8.20696,1.40714,1.43817,13,32765
8.26023,1.38885,1.4456,13,32765
8.30377,1.36886,1.45092,13,32765
8.18182,1.32138,1.42822,13,32765
8.18639,1.2943,1.42686,12,32765
8.33696,1.28934,1.45129,13,32765
8.36082,1.26428,1.45421,17,32765
8.30663,1.22734,1.44358,16,32765
8.3889,1.21084,1.45608,16,32765
8.37371,1.18008,1.45081,17,32765
8.3778,1.15209,1.44971,16,32765
8.3815,1.12477,1.44974,16,32765
8.32675,1.08948,1.43827,17,32765
8.37936,1.06826,1.44568,14,32765
0,0,0,0,32765
0,0,0,0,32765
0,0,0,0,32765
0,0,0,0,32765
0,0,0,0,32765
0,0,0,0,32765
0,0,0,0,32765
0,0,0,0,32765
40.4455,3.94014,6.9081,13,32765
40.8225,3.84058,6.96413,14,32765
0,0,0,0,32765
41.4193,3.61995,7.04574,14,32765
14.9242,1.25513,2.53562,13,32765
14.7616,1.1922,2.50474,13,32765
14.8933,1.15363,2.52606,13,32765
14.8681,1.10213,2.51753,13,32765
14.8525,1.05137,2.51127,13,32765
14.7773,0.997801,2.49715,12,32765
14.8893,0.956784,2.5118,12,32765
14.8927,0.908408,2.50961,12,32765
0,0,0,0,32765
8.19304,0.446203,1.37747,16,32765
8.15535,0.417496,1.36905,17,32765
8.19629,0.392619,1.37442,17,32765
8.19784,0.365975,1.37252,17,32765
8.14015,0.336908,1.3609,17,32765
7.93444,0.302554,1.325,13,32765
7.90611,0.275681,1.31829,14,32765
7.90728,0.249726,1.3164,13,32765
7.8689,0.222923,1.30808,13,32765
7.86989,0.197325,1.30624,14,32765
7.8905,0.172218,1.30779,13,32765
7.8715,0.146784,1.30321,14,32765
7.89216,0.121679,1.30347,13,32765
7.873,0.0959586,1.29887,14,32765
7.89347,0.0705585,1.29927,14,32765
7.87433,0.0451406,1.29357,14,32765
7.85505,0.0199842,1.28819,14,32765
7.85553,-0.00490489,1.28538,14,32765
7.85598,-0.0297495,1.28228,14,32765
7.87597,-0.0547707,1.28318,14,32765
7.64936,-0.0775895,1.2425,14,32765
7.61994,-0.101401,1.23479,14,32765
7.67275,2.49409,1.40873,38,32765
7.69957,2.47599,1.41074,36,32765
7.76404,2.46962,1.41899,35,32765
7.8286,2.46208,1.4283,35,32765
7.86543,2.44493,1.43072,35,32765
7.93013,2.43676,1.43933,35,32765
7.9669,2.41931,1.4415,35,32765
8.01303,2.40444,1.44574,35,32765
8.04987,2.38624,1.44772,34,32765
8.14324,2.38467,1.4605,36,32765
8.17971,2.36672,1.46306,37,32765
8.3487,2.3867,1.48963,16,32765
8.47068,2.39219,1.50662,13,32765
8.42187,2.34882,1.49399,14,32765
8.38269,2.30815,1.48166,13,32765
8.43815,2.29388,1.48751,13,32765
8.44611,2.26638,1.48448,15,32765
8.45383,2.23906,1.48198,14,32765
8.41397,2.19909,1.47019,14,32765
8.44069,2.17662,1.47063,14,32765
8.42904,2.14406,1.46518,14,32765
8.41729,2.11168,1.45943,14,32765
8.34811,2.06524,1.44299,14,32765
8.39332,2.04767,1.44802,14,32765
8.40045,2.02021,1.44529,15,32765
8.32101,1.97232,1.42815,14,32765
8.37606,1.95592,1.43333,14,32765
8.36363,1.92363,1.42808,14,32765
8.34127,1.88956,1.42183,14,32765
8.34776,1.86197,1.42014,14,32765
8.35425,1.83455,1.41771,14,32765
8.32203,1.79877,1.40898,14,32765
8.32809,1.77162,1.40753,14,32765
8.27628,1.73238,1.39535,14,32765
8.30152,1.70922,1.39693,14,32765
8.26856,1.67439,1.38918,14,32765
8.2936,1.65104,1.3911,14,32765
8.28008,1.61984,1.38524,15,32765
8.2564,1.58696,1.37981,15,32765
8.28127,1.56343,1.38123,14,32765
8.2671,1.53284,1.37687,14,32765
8.25302,1.50165,1.37212,14,32765
8.2778,1.47732,1.37329,14,32765
8.24401,1.44276,1.36568,14,32765
8.24897,1.41541,1.36439,15,32765
8.23421,1.38549,1.3601,15,32765
8.19988,1.35271,1.3522,14,32765
8.18487,1.3228,1.34837,14,32765
8.19918,1.29721,1.34862,13,32765
8.33048,1.2892,1.36845,14,32765
8.32509,1.2597,1.36637,20,32765
8.31962,1.23003,1.36431,19,32765
8.37271,1.20923,1.37126,19,32765
8.37702,1.18124,1.36938,20,32765
8.37132,1.15184,1.36668,19,32765
8.38482,1.12582,1.3683,20,32765
8.33976,1.09174,1.35898,19,32765
8.35328,1.06545,1.35955,17,32765
8.34717,1.03687,1.3565,11,32765
0,0,0,0,32765
0,0,0,0,32765
0,0,0,0,32765
0,0,0,0,32765
0,0,0,0,32765
0,0,0,14,32765
0,0,0,0,32765
42.5035,4.14129,6.84576,15,32765
0,0,0,0,32765
40.7723,3.70026,6.54655,15,32765
40.8836,3.57316,6.55697,16,32765
14.9375,1.25619,2.39265,16,32765
14.8928,1.20266,2.38224,15,32765
14.877,1.15216,2.37873,15,32765
14.8616,1.10136,2.37206,15,32765
14.777,1.04566,2.355,15,32765
14.8692,1.00357,2.36831,14,32765
14.9124,0.957756,2.37094,12,32765
15.0439,0.917042,2.3891,12,32765
15.0768,0.87001,2.3914,19,32765
8.17608,0.44488,1.29532,18,32765
8.15805,0.417196,1.2904,20,32765
8.15957,0.390381,1.28916,20,32765
8.1611,0.363817,1.28727,20,32765
8.12303,0.335644,1.27932,20,32765
7.92686,0.301684,1.24693,15,32765
7.89846,0.274797,1.2405,16,32765
7.88974,0.248517,1.23707,15,32765
7.87103,0.222292,1.23222,15,32765
7.89175,0.197141,1.23347,16,32765
7.87287,0.171065,1.22866,16,32765
7.88346,0.1462,1.22889,16,32765
7.84483,0.120109,1.21974,15,32765
7.84539,0.0947434,1.2184,16,32765
7.85598,0.069306,1.2171,15,32765
7.85654,0.0440838,1.21466,16,32765
7.85697,0.0189967,1.21252,17,32765
7.83766,-0.00592032,1.20666,16,32765
7.84796,-0.0307835,1.20509,16,32765
7.85806,-0.0557493,1.20429,16,32765
7.60142,-0.0782056,1.16123,15,32765
7.5818,-0.102029,1.15532,16,32765
7.67739,2.50068,1.31025,30,32765
7.73184,2.49178,1.32009,29,32765
7.76791,2.47618,1.32504,28,32765
7.82269,2.46629,1.33381,27,32765
7.86827,2.45244,1.34105,26,32765
7.91393,2.43841,1.3476,27,32765
7.95009,2.42163,1.35211,27,32765
7.99557,2.40775,1.35835,27,32765
8.07893,2.40483,1.37085,27,32765
8.08671,2.37879,1.37041,27,32765
8.17959,2.37753,1.38509,31,32765
8.27278,2.37532,1.39907,15,32765
8.47052,2.40212,1.43058,12,32765
8.48803,2.37676,1.4315,12,32765
8.4484,2.33585,1.42223,12,32765
8.45608,2.30825,1.42165,12,32765
8.47316,2.28351,1.42243,13,32765
8.49986,2.26091,1.42435,13,32765
8.4883,2.22807,1.42004,13,32765
8.47669,2.19504,1.41577,13,32765
8.48403,2.16739,1.41442,13,32765
8.37632,2.11072,1.39449,13,32765
8.41217,2.09027,1.39806,13,32765
8.42871,2.06525,1.39847,13,32765
8.43563,2.03752,1.39742,13,32765
8.41375,2.00259,1.3914,13,32765
8.41084,1.97255,1.38903,13,32765
8.34063,1.92656,1.37521,13,32765
8.42426,1.91665,1.38592,12,32765
8.39214,1.88057,1.37823,13,32765
8.34066,1.84059,1.36678,13,32765
8.31809,1.8066,1.36016,13,32765
8.3338,1.78096,1.36122,13,32765
8.3109,1.74701,1.35531,13,32765
8.31718,1.71915,1.35244,13,32765
8.32279,1.69222,1.35189,13,32765
8.32845,1.66522,1.35051,13,32765
8.31484,1.63405,1.34524,13,32765
8.30091,1.60285,1.34142,13,32765
8.32596,1.57872,1.34257,13,32765
8.20532,1.52728,1.32011,13,32765
8.29795,1.51597,1.33321,13,32765
8.30311,1.48855,1.33201,13,32765
8.24994,1.45068,1.32079,13,32765
8.22582,1.4182,1.31416,13,32765
8.23066,1.39101,1.31292,13,32765
8.1966,1.35743,1.30434,13,32765
8.26945,1.34168,1.31393,13,32765
8.24481,1.31006,1.30745,12,32765
8.24929,1.28293,1.30608,13,32765
8.32217,1.26585,1.31509,17,32765
8.30703,1.23515,1.3106,17,32765
8.38946,1.21848,1.32238,17,32765
8.42323,1.1944,1.32463,18,32765
8.3196,1.1511,1.30741,17,32765
8.34328,1.12624,1.3083,17,32765
8.29823,1.09224,1.29894,17,32765
8.38021,1.0756,1.31063,15,32765
0,0,0,0,32765
0,0,0,0,32765
0,0,0,0,32765
0,0,0,0,32765
0,0,0,0,32765
0,0,0,0,32765
0,0,0,0,32765
0,0,0,0,32765
0,0,0,0,32765
0,0,0,0,32765
0,0,0,0,32765
0,0,0,0,32765
14.9008,1.26903,2.29635,15,32765
14.905,1.22012,2.29518,13,32765
14.8796,1.16877,2.28917,13,32765
14.8835,1.12091,2.28821,13,32765
14.8081,1.06644,2.27638,13,32765
14.9399,1.02786,2.29443,12,32765
14.8938,0.975884,2.28744,12,32765
14.9858,0.933256,2.3001,12,32765
15.1071,0.89146,2.31869,21,32765
8.20167,0.456784,1.25698,15,32765
8.19312,0.429858,1.25616,17,32765
8.17476,0.401892,1.25307,17,32765
8.17592,0.375397,1.25374,18,32765
8.11786,0.346055,1.24456,17,32765
7.95098,0.312901,1.21921,13,32765
7.92228,0.286252,1.21491,14,32765
7.92304,0.260374,1.21576,14,32765
7.92376,0.234637,1.21629,14,32765
7.92443,0.208547,1.21668,14,32765
7.88547,0.181527,1.21112,14,32765
7.88589,0.156,1.21195,14,32765
7.84673,0.130164,1.20642,14,32765
7.88647,0.105906,1.2136,14,32765
7.80748,0.0799205,1.20284,14,32765
7.86679,0.0549571,1.21332,14,32765
7.86668,0.0290578,1.21495,14,32765
7.86637,0.00303159,1.2173,15,32765
7.84648,-0.0225463,1.21486,14,32765
7.84593,-0.0477756,1.21765,14,32765
7.6578,-0.0715686,1.18974,14,32765
7.58782,-0.0952349,1.1825,14,32765
7.65024,2.49506,1.22805,36,32765
7.70477,2.48624,1.23742,34,32765
7.73146,2.46771,1.24057,32,32765
7.79573,2.46091,1.25038,32,32765
7.84136,2.44713,1.25725,33,32765
7.87762,2.43027,1.26191,32,32765
7.94218,2.42224,1.27068,32,32765
8.00666,2.41408,1.27957,33,32765
8.05225,2.39985,1.28528,34,32765
8.11692,2.39061,1.2939,34,32765
8.1815,2.38098,1.30321,37,32765
8.17982,2.35147,1.30123,22,32765
8.45383,2.40027,1.34298,14,32765
8.4428,2.36693,1.33927,13,32765
8.38402,2.3208,1.32746,13,32765
8.4584,2.31162,1.33744,13,32765
8.44688,2.2791,1.3336,15,32765
8.45448,2.25147,1.33233,14,32765
8.43331,2.2162,1.32669,14,32765
8.40249,2.17833,1.31962,13,32765
8.44809,2.16068,1.32428,14,32765
8.41689,2.12335,1.31748,14,32765
8.44323,2.10035,1.31926,14,32765
8.35418,2.04929,1.30309,14,32765
8.37066,2.02408,1.30355,16,32765
8.36793,1.99389,1.30081,14,32765
8.34572,1.95942,1.29555,14,32765
8.38133,1.93807,1.2989,14,32765
8.35905,1.90387,1.29246,14,32765
8.32683,1.86793,1.28515,14,32765
8.37178,1.84942,1.28914,13,32765
8.32019,1.80896,1.27834,14,32765
8.30692,1.77706,1.27485,14,32765
8.26461,1.73907,1.26626,14,32765
8.31926,1.72134,1.2708,14,32765
8.27643,1.6845,1.26285,14,32765
8.26267,1.65373,1.25853,14,32765
8.26839,1.62653,1.25641,15,32765
8.23498,1.59168,1.24983,14,32765
8.26001,1.56773,1.25081,15,32765
8.26555,1.53996,1.24867,15,32765
8.25132,1.50887,1.24478,14,32765
8.25644,1.48156,1.24359,14,32765
8.28109,1.4575,1.24465,15,32765
8.2667,1.42653,1.23976,15,32765
8.25206,1.39586,1.23559,14,32765
8.25698,1.36863,1.2332,15,32765
8.22254,1.33522,1.22611,15,32765
8.19782,1.3037,1.21992,13,32765
8.30004,1.2919,1.23308,13,32765
8.32413,1.26718,1.23418,21,32765
8.31874,1.23787,1.23133,19,32765
8.35234,1.21403,1.23512,20,32765
8.37632,1.18865,1.23565,21,32765
8.36073,1.15764,1.23246,20,32765
8.36484,1.12996,1.23027,21,32765
8.34916,1.09971,1.22569,21,32765
8.34293,1.07153,1.22367,18,32765
8.35626,1.04551,1.22471,12,32765
0,0,0,17,32765
0,0,0,0,32765
0,0,0,0,32765
0,0,0,0,32765
0,0,0,14,32765
0,0,0,16,32765
0,0,0,0,32765
0,0,0,0,32765
0,0,0,0,32765
0,0,0,0,32765
0,0,0,0,32765
14.9315,1.2719,2.1566,17,32765
14.9062,1.22039,2.15115,15,32765
14.9104,1.17127,2.1497,15,32765
14.8056,1.11506,2.13309,15,32765
14.7697,1.0636,2.12769,15,32765
14.8621,1.02236,2.13884,13,32765
14.8653,0.973795,2.13943,12,32765
14.908,0.928112,2.14414,12,32765
15.0888,0.889993,2.17014,17,32765
8.15386,0.453871,1.17092,17,32765
8.18484,0.429128,1.17587,20,32765
8.17633,0.401631,1.17438,20,32765
8.15772,0.37418,1.17222,20,32765
8.13914,0.346539,1.16928,20,32765
7.94236,0.312105,1.14125,16,32765
7.88393,0.284372,1.13297,16,32765
7.90449,0.259226,1.13666,16,32765
7.90521,0.233507,1.13718,15,32765
7.88609,0.206916,1.13473,16,32765
7.85697,0.180209,1.13096,16,32765
7.8574,0.154733,1.13179,16,32765
7.81819,0.128949,1.12663,16,32765
7.78871,0.103814,1.12345,18,32765
7.73932,0.0784071,1.1177,15,32765
7.81851,0.0537535,1.13047,15,32765
7.8481,0.0280764,1.13639,17,32765
7.84781,0.00206774,1.13874,17,32765
7.84769,-0.0235483,1.13936,16,32765
7.82737,-0.0487015,1.13927,16,32765
7.62909,-0.0723539,1.11168,16,32765
7.58873,-0.0963365,1.10942,16,32765
7.68638,2.49737,1.26296,30,32765
7.71376,2.47934,1.26127,27,32765
7.76962,2.46941,1.2639,27,32765
7.78773,2.44751,1.2604,28,32765
7.86273,2.4424,1.26534,27,32765
7.90883,2.42878,1.26817,26,32765
7.94552,2.41204,1.26917,27,32765
7.99181,2.39794,1.27062,27,32765
8.07577,2.3949,1.27939,27,32765
8.11259,2.37702,1.27991,28,32765
8.15893,2.36156,1.28181,31,32765
8.22426,2.35113,1.28694,16,32765
8.42274,2.37777,1.31385,13,32765
8.45957,2.35826,1.31478,12,32765
8.42969,2.32001,1.3052,12,32765
8.48545,2.30566,1.30888,13,32765
8.49323,2.27812,1.30666,14,32765
8.42465,2.23015,1.29143,13,32765
8.47047,2.21276,1.29513,13,32765
8.47822,2.18502,1.29152,13,32765
8.52405,2.16715,1.29463,13,32765
8.45472,2.1201,1.28021,13,32765
8.46224,2.09199,1.27678,13,32765
8.41164,2.05024,1.26622,13,32765
8.42837,2.02478,1.26506,14,32765
8.43522,1.99731,1.26311,13,32765
8.35525,1.94982,1.24777,13,32765
8.40062,1.93116,1.25071,13,32765
8.32983,1.88654,1.23769,13,32765
8.35554,1.86355,1.23878,13,32765
8.31369,1.82537,1.22904,13,32765
8.30064,1.79352,1.22437,13,32765
8.32645,1.76924,1.22477,13,32765
8.31315,1.73733,1.22051,13,32765
8.31908,1.71001,1.21869,13,32765
8.28593,1.67549,1.21147,13,32765
8.29166,1.64874,1.20895,13,32765
8.2097,1.60466,1.19518,13,32765
8.28331,1.5908,1.20268,16,32765
8.23034,1.55223,1.19322,15,32765
8.26466,1.53042,1.19721,14,32765
8.26028,1.50131,1.19343,13,32765
8.23621,1.46862,1.18764,13,32765
8.24124,1.44138,1.18611,13,32765
8.24619,1.41404,1.18464,13,32765
8.25087,1.38686,1.1842,13,32765
8.25555,1.35992,1.18281,13,32765
8.22109,1.32626,1.17592,13,32765
8.22561,1.29937,1.17438,12,32765
8.39637,1.29796,1.19691,12,32765
8.32253,1.25797,1.18447,17,32765
8.31699,1.22876,1.18235,17,32765
8.40944,1.2133,1.19397,17,32765
8.42348,1.1867,1.19366,18,32765
8.35884,1.14901,1.18319,17,32765
8.37259,1.12247,1.18347,18,32765
8.37638,1.09479,1.18264,18,32765
8.35065,1.06321,1.17736,16,32765
8.44273,1.0466,1.18873,11,32765
0,0,0,0,32765
0,0,0,0,32765
0,0,0,0,32765
0,0,0,0,32765
0,0,0,15,32765
0,0,0,0,32765
0,0,0,0,32765
0,0,0,0,32765
0,0,0,0,32765
0,0,0,0,32765
0,0,0,0,32765
14.9357,1.25235,2.06744,14,32765
14.8115,1.19342,2.04849,14,32765
14.875,1.14951,2.05344,14,32765
14.8788,1.10128,2.05239,13,32765
14.8828,1.05239,2.04872,14,32765
14.8864,1.00324,2.04738,12,32765
14.9593,0.958204,2.05364,12,32765
15.0618,0.914455,2.06364,11,32765
15.2332,0.875065,2.08396,13,32765
8.18219,0.443197,1.11726,16,32765
8.22321,0.418943,1.12225,14,32765
8.15537,0.38933,1.11175,13,32765
8.12714,0.361668,1.10582,19,32765
8.12841,0.335363,1.1048,19,32765
7.95157,0.301977,1.07807,14,32765
7.9329,0.27545,1.07394,15,32765
7.95379,0.250201,1.07494,15,32765
7.90537,0.222506,1.06587,14,32765
7.94591,0.198078,1.06945,14,32765
7.86751,0.170293,1.0568,14,32765
7.93766,0.145877,1.06416,15,32765
7.9085,0.119839,1.05909,14,32765
7.89924,0.0939092,1.05552,15,32765
7.91962,0.0687993,1.05589,15,32765
7.83094,0.042989,1.0414,15,32765
7.9008,0.0184643,1.0478,15,32765
7.88138,-0.00657624,1.04225,15,32765
7.87174,-0.0320216,1.03844,14,32765
7.87194,-0.0572147,1.03581,14,32765
7.63425,-0.0800266,1.00094,14,32765
7.61456,-0.103372,0.995091,14,32765
7.64934,2.48865,1.17948,37,32765
7.70493,2.4798,1.18196,36,32765
7.76082,2.4699,1.18413,36,32765
7.8261,2.46284,1.1877,35,32765
7.8634,2.44585,1.18625,34,32765
7.90008,2.42931,1.18729,35,32765
7.92731,2.40969,1.18659,34,32765
8.01154,2.40702,1.19332,34,32765
8.04815,2.38984,1.1943,33,32765
8.09446,2.37482,1.19595,35,32765
8.17886,2.37042,1.20308,37,32765
8.19667,2.3463,1.20067,25,32765
8.47159,2.39466,1.23685,14,32765
8.43219,2.35367,1.22638,14,32765
8.36403,2.30491,1.21165,13,32765
8.42933,2.29336,1.21626,13,32765
8.46576,2.27365,1.21819,15,32765
8.47364,2.24598,1.2147,15,32765
8.47163,2.21588,1.21116,14,32765
8.441,2.17818,1.20209,14,32765
8.42925,2.14574,1.19665,15,32765
8.4366,2.11821,1.19388,14,32765
8.42485,2.08535,1.18776,14,32765
8.45116,2.06243,1.18859,15,32765
8.39086,2.01826,1.17651,15,32765
8.35911,1.98172,1.16918,14,32765
8.32721,1.94565,1.16143,15,32765
8.305,1.9115,1.15461,16,32765
8.32102,1.88682,1.15441,15,32765
8.34675,1.86382,1.15531,13,32765
8.38226,1.84262,1.15673,13,32765
8.38861,1.81468,1.1549,13,32765
8.39511,1.78593,1.15243,12,32765
8.36244,1.74967,1.14568,12,32765
8.36841,1.72215,1.14384,12,32765
8.33525,1.68739,1.13699,12,32765
8.21462,1.63529,1.11726,20,32765
8.19087,1.60279,1.11228,15,32765
8.26455,1.58898,1.11913,16,32765
8.29916,1.56695,1.12208,19,32765
8.28484,1.53584,1.1192,15,32765
8.25119,1.50129,1.11157,15,32765
8.27588,1.47728,1.11262,15,32765
8.2614,1.44645,1.10846,14,32765
8.20773,1.40893,1.09914,14,32765
8.23195,1.38512,1.10132,15,32765
8.23662,1.35819,1.09993,15,32765
8.17274,1.3198,1.0895,15,32765
8.19681,1.29611,1.09057,14,32765
8.24039,1.27509,1.0946,13,32765
8.36244,1.26523,1.10892,19,32765
8.36672,1.23728,1.1082,20,32765
8.37099,1.20888,1.10728,20,32765
8.40465,1.18513,1.10948,23,32765
8.37921,1.15284,1.10484,21,32765
8.3635,1.12224,1.10115,21,32765
8.34762,1.09196,1.09773,21,32765
8.36119,1.06543,1.0979,19,32765
8.3156,1.03167,1.09036,13,32765
8.30923,1.00317,1.08808,11,32765
8.32251,0.977011,1.08801,12,32765
8.23711,0.939758,1.07538,12,32765
8.16152,0.903583,1.06376,13,32765
8.24343,0.885149,1.07333,13,32765
8.11826,0.844295,1.05546,12,32765
8.20015,0.825355,1.06419,11,32765
8.29177,0.806862,1.07497,11,32765
8.24535,0.774298,1.06636,11,32765
8.04054,0.728101,1.03882,12,32765
8.10239,0.706489,1.04503,12,32765
14.8753,1.24779,1.91578,13,32765
8.08731,0.651858,1.04062,12,32765
8.10941,0.626863,1.0414,12,32765
8.11148,0.600523,1.04082,12,32765
8.10377,0.573128,1.03756,12,32765
8.11561,0.546989,1.03809,12,32765
8.08792,0.518071,1.03253,12,32765
8.06014,0.489322,1.02683,12,32765
8.07178,0.4636,1.02665,12,32765
8.12301,0.439869,1.03111,14,32765
8.13435,0.414248,1.03196,16,32765
8.08622,0.385819,1.02463,22,32765
8.1273,0.361421,1.02777,23,32765
8.1583,0.336298,1.03051,24,32765
7.93165,0.300888,0.999216,16,32765
7.90302,0.274039,0.99402,16,32765
7.89417,0.24791,0.991112,17,32765
7.93491,0.222878,0.993709,16,32765
7.88621,0.196092,0.985748,16,32765
7.87714,0.169962,0.982517,16,32765
7.86798,0.144016,0.979348,16,32765
7.88838,0.118909,0.980727,17,32765
7.84931,0.0926518,0.973572,17,32765
7.86969,0.067659,0.973769,17,32765
7.87019,0.0424572,0.971156,17,32765
7.89049,0.0176508,0.970782,17,32765
7.85116,-0.00737661,0.962989,17,32765
7.84147,-0.0327644,0.959283,16,32765
7.83172,-0.0578281,0.95545,17,32765
7.63341,-0.0809399,0.92767,16,32765
7.58389,-0.103909,0.918407,16,32765
7.65403,2.49501,1.06071,32,32765
7.71862,2.48824,1.06955,30,32765
7.77366,2.47852,1.07707,29,32765
7.80018,2.46024,1.08024,29,32765
7.86474,2.45354,1.08725,27,32765
7.91991,2.44304,1.09368,28,32765
7.96554,2.42905,1.09997,28,32765
7.99251,2.40866,1.10211,27,32765
8.02896,2.39116,1.10481,29,32765
8.09384,2.3818,1.11217,28,32765
8.15873,2.37237,1.11889,31,32765
8.18527,2.35167,1.12211,23,32765
8.47912,2.40624,1.16048,13,32765
8.48728,2.37823,1.15852,13,32765
8.44737,2.3368,1.15191,12,32765
8.46486,2.31129,1.15174,13,32765
8.49154,2.28885,1.15402,14,32765
8.47992,2.256,1.1506,13,32765
8.48738,2.22859,1.14901,13,32765
8.49463,2.20106,1.1485,13,32765
8.55001,2.18554,1.15358,12,32765
8.41301,2.12127,1.13313,13,32765
8.47788,2.10816,1.13901,13,32765
8.48482,2.08058,1.13804,13,32765
8.36652,2.02215,1.12008,14,32765
8.41192,2.00357,1.12414,13,32765
8.36078,1.96192,1.11523,13,32765
8.31928,1.92264,1.10685,14,32765
8.38362,1.90834,1.1145,13,32765
8.68039,1.94579,1.15134,11,32765
8.687,1.91737,1.14918,11,32765
8.56728,1.86198,1.13155,11,32765
8.44771,1.8065,1.11215,11,32765
8.39565,1.76598,1.10314,11,32765
8.24645,1.70532,1.08077,15,32765
8.35915,1.69947,1.09377,12,32765
8.21888,1.64292,1.07396,17,32765
8.19535,1.61015,1.06775,14,32765
8.23967,1.59089,1.07168,15,32765
8.25483,1.56547,1.07147,17,32765
8.27,1.53977,1.07076,13,32765
8.24593,1.50725,1.06555,13,32765
8.19259,1.46894,1.05633,13,32765
8.25629,1.45207,1.06194,13,32765
8.29052,1.42968,1.06474,13,32765
8.26608,1.39727,1.05926,13,32765
8.2708,1.37029,1.05765,13,32765
8.23634,1.33637,1.05118,13,32765
8.18217,1.2995,1.04205,13,32765
8.28474,1.28703,1.05318,12,32765
8.33823,1.26669,1.058,17,32765
8.31309,1.23477,1.05297,17,32765
8.34687,1.21138,1.05469,17,32765
8.38046,1.18824,1.05683,19,32765
8.31571,1.15062,1.04723,18,32765
8.3393,1.12565,1.04848,18,32765
8.3039,1.09278,1.04145,18,32765
8.26827,1.06005,1.03535,18,32765
8.2915,1.03563,1.03675,18,32765
8.27542,1.00599,1.03218,19,32765
8.25908,0.976755,1.02858,20,32765
8.25239,0.948754,1.02708,20,32765
8.2556,0.921474,1.0261,20,32765
8.23914,0.891987,1.02147,18,32765
8.1731,0.857016,1.01211,13,32765
8.2946,0.841727,1.0252,11,32765
8.20842,0.805718,1.0143,12,32765
8.09255,0.767679,0.998671,12,32765
8.19395,0.750495,1.00996,11,32765
8.15695,0.719873,1.00418,12,32765
8.21867,0.697954,1.01113,12,32765
8.14191,0.664096,1.00055,12,32765
8.22333,0.643108,1.00964,12,32765
8.14627,0.61035,0.999338,12,32765
8.20772,0.587905,1.00588,12,32765
8.18985,0.560049,1.00283,12,32765
8.09254,0.527319,0.990752,12,32765
8.19339,0.506994,1.00209,12,32765
8.1653,0.478708,0.998145,12,32765
8.13713,0.450419,0.994174,16,32765
8.17819,0.42622,0.99899,15,32765
8.09031,0.395364,0.988014,15,32765
8.11135,0.369895,0.990706,23,32765
8.15218,0.345077,0.995661,21,32765
7.98465,0.311579,0.975112,14,32765
7.93594,0.283761,0.969704,14,32765
7.94667,0.258365,0.971452,15,32765
7.92748,0.231936,0.970225,15,32765
7.89846,0.205225,0.966365,14,32765
7.91889,0.179516,0.969162,15,32765
7.89948,0.153482,0.967639,14,32765
7.8899,0.127616,0.967318,15,32765
7.89018,0.101988,0.968035,15,32765
7.91014,0.0768277,0.971932,15,32765
7.82089,0.0504629,0.962025,14,32765
7.92998,0.0257059,0.97714,15,32765
7.89016,0.000205827,0.973597,15,32765
7.8402,-0.0245448,0.969874,15,32765
7.82002,-0.0493003,0.969177,15,32765
7.62113,-0.0732326,0.946298,14,32765
7.62039,-0.098297,0.949939,14,32765
7.6432,2.49528,0.982379,38,32765
7.68898,2.48244,0.988228,38,32765
7.73462,2.4698,0.994062,35,32765
7.78955,2.46058,1.00069,36,32765
7.85418,2.45391,1.00713,36,32765
7.89993,2.44051,1.01188,35,32765
7.93612,2.42367,1.01658,37,32765
7.9821,2.40908,1.02095,37,32765
8.03762,2.39726,1.0258,37,32765
8.07402,2.37945,1.02896,37,32765
8.17709,2.38119,1.03997,38,32765
8.2037,2.36039,1.043,34,32765
8.42151,2.39335,1.06886,14,32765
8.44874,2.37084,1.06933,14,32765
8.3418,2.31091,1.05472,13,32765
8.46454,2.31451,1.06777,14,32765
8.48168,2.28944,1.06865,16,32765
8.44127,2.24889,1.06179,14,32765
8.49671,2.23419,1.06624,14,32765
8.49438,2.20408,1.06452,14,32765
8.46326,2.16638,1.05831,14,32765
8.45117,2.13386,1.05488,14,32765
8.40054,2.09181,1.0458,14,32765
8.44599,2.07391,1.04964,14,32765
8.40473,2.03417,1.04247,16,32765
8.37296,1.997,1.03658,15,32765
8.36039,1.96449,1.03302,14,32765
8.31884,1.92513,1.0251,16,32765
8.32517,1.89757,1.02504,17,32765
8.55441,1.92011,1.05075,12,32765
8.64818,1.91133,1.05931,12,32765
8.59622,1.87073,1.0512,12,32765
8.53478,1.82752,1.04011,12,32765
8.41471,1.77229,1.02338,12,32765
8.27507,1.71345,1.00367,20,32765
8.28089,1.68572,1.00268,12,32765
8.26699,1.65464,0.99958,21,32765
8.21422,1.6159,0.990116,17,32765
8.27811,1.60032,0.996013,17,32765
8.28354,1.57288,0.994533,21,32765
8.26946,1.54158,0.990214,16,32765
8.22581,1.50542,0.982946,15,32765
8.23104,1.47763,0.981284,15,32765
8.21658,1.44684,0.977015,14,32765
8.28019,1.42961,0.983026,14,32765
8.24591,1.39551,0.976668,15,32765
8.20163,1.36042,0.969268,15,32765
8.20629,1.33305,0.967811,14,32765
8.2109,1.30557,0.96617,14,32765
8.2547,1.28383,0.969449,13,32765
8.35734,1.27102,0.979556,20,32765
8.342,1.24044,0.975958,21,32765
8.4053,1.2212,0.980826,20,32765
8.39961,1.19224,0.978096,23,32765
8.384,1.16131,0.974865,22,32765
8.37811,1.13208,0.972487,20,32765
8.36238,1.10161,0.968101,21,32765
8.32673,1.06862,0.962371,19,32765
8.35,1.04398,0.963573,13,32765
0,0,0,15,32765
0,0,0,13,32765
0,0,0,0,32765
0,0,0,0,32765
0,0,0,0,32765
0,0,0,0,32765
0,0,0,0,32765
0,0,0,14,32765
0,0,0,0,32765
0,0,0,0,32765
0,0,0,14,32765
14.9704,1.27214,1.6981,17,32765
14.9054,1.21648,1.68869,15,32765
14.8204,1.15966,1.67744,14,32765
14.8242,1.11123,1.67638,15,32765
14.8973,1.06753,1.68288,14,32765
14.8711,1.01731,1.67837,15,32765
14.9833,0.976621,1.69078,13,32765
14.9072,0.922641,1.6804,12,32765
0,0,0,0,32765
8.14613,0.450936,0.917252,18,32765
8.18724,0.426663,0.921693,21,32765
8.16874,0.399122,0.91938,21,32765
8.16997,0.372446,0.919652,24,32765
8.18106,0.34613,0.920881,21,32765
7.97363,0.310938,0.897454,16,32765
7.90501,0.282399,0.890277,17,32765
7.8959,0.256413,0.889691,17,32765
7.92635,0.231554,0.894247,16,32765
7.89729,0.204801,0.890669,16,32765
7.90782,0.178825,0.892158,16,32765
7.89832,0.152974,0.891943,16,32765
7.90862,0.127386,0.893961,16,32765
7.8791,0.101269,0.891309,17,32765
7.87922,0.0759057,0.892765,17,32765
7.8793,0.0501721,0.893842,16,32765
7.87923,0.0248279,0.895518,16,32765
7.85925,-0.000552098,0.894603,17,32765
7.85893,-0.025406,0.897009,17,32765
7.87848,-0.0505186,0.901049,17,32765
7.63964,-0.0742801,0.875504,16,32765
7.5992,-0.0989352,0.874581,16,32765
7.66124,2.49253,1.01347,32,32765
7.69831,2.47678,1.012,31,32765
7.75447,2.46628,1.01271,30,32765
7.80084,2.45331,1.0128,30,32765
7.83746,2.43748,1.01286,31,32765
7.90279,2.42999,1.01488,29,32765
7.96804,2.42196,1.01812,30,32765
8.00491,2.40467,1.01753,30,32765
8.03202,2.38457,1.01688,30,32765
8.07831,2.36977,1.01755,31,32765
8.14346,2.3603,1.0221,31,32765
8.18025,2.34202,1.02143,27,32765
8.40811,2.37719,1.04532,13,32765
8.41636,2.34946,1.04161,12,32765
8.40542,2.31612,1.03581,13,32765
8.44212,2.29613,1.03656,13,32765
8.48844,2.27874,1.03743,14,32765
8.4578,2.24083,1.02979,13,32765
8.50373,2.22367,1.03166,13,32765
8.38624,2.16403,1.01309,13,32765
8.46091,2.15399,1.01856,13,32765
8.42961,2.11706,1.01109,13,32765
8.43677,2.08961,1.00845,13,32765
8.41502,2.05503,1.00135,13,32765
8.42203,2.02718,0.999178,14,32765
8.46761,2.00842,1.00171,14,32765
8.39699,1.96257,0.990592,13,32765
8.35536,1.92339,0.982553,14,32765
8.34255,1.89145,0.977918,15,32765
8.48471,1.89407,0.992308,12,32765
8.61749,1.89368,1.00363,12,32765
8.58501,1.85697,0.99747,12,32765
8.53319,1.81595,0.987635,11,32765
8.5101,1.7819,0.982608,11,32765
8.2728,1.70381,0.952838,17,32765
8.37597,1.69614,0.962425,12,32765
8.21599,1.63561,0.941863,17,32765
8.2118,1.60643,0.939223,14,32765
8.28573,1.59232,0.944078,15,32765
8.28122,1.56309,0.942589,18,32765
8.29628,1.53784,0.941769,14,32765
8.26229,1.50368,0.935975,13,32765
8.27724,1.47793,0.9352,14,32765
8.24299,1.44373,0.930142,14,32765
8.27738,1.42136,0.931291,13,32765
8.27234,1.39194,0.929775,14,32765
8.24767,1.35955,0.925006,13,32765
8.2523,1.33177,0.924106,13,32765
8.19807,1.29466,0.915396,13,32765
8.30069,1.28236,0.925552,13,32765
8.32476,1.25744,0.926332,17,32765
8.32891,1.2299,0.926028,17,32765
8.3627,1.2062,0.927513,17,32765
8.36674,1.17847,0.926769,19,32765
8.37076,1.151,0.925005,18,32765
8.355,1.12048,0.921329,18,32765
8.3587,1.09295,0.920896,18,32765
8.33287,1.06123,0.916248,17,32765
8.29694,1.02887,0.911235,12,32765
0,0,0,0,32765
14.8701,1.74382,1.62532,13,32765
14.8759,1.6953,1.62426,16,32765
14.9014,1.64812,1.62476,15,32765
14.9564,1.60442,1.62783,14,32765
0,0,0,0,32765
0,0,0,0,32765
0,0,0,0,32765
0,0,0,15,32765
0,0,0,0,32765
0,0,0,0,32765
14.9617,1.25381,1.60816,15,32765
14.867,1.19624,1.59452,14,32765
14.9307,1.15104,1.59807,13,32765
14.8949,1.09898,1.59173,13,32765
14.8093,1.04435,1.58091,13,32765
14.9419,1.00482,1.59185,13,32765
14.9453,0.956663,1.58989,12,32765
14.8891,0.904146,1.58053,12,32765
0,0,0,0,32765
8.21223,0.4449,0.868509,14,32765
8.21384,0.417982,0.866651,18,32765
8.20534,0.391073,0.864367,17,32765
8.16705,0.362464,0.85809,18,32765
8.14852,0.334822,0.854113,17,32765
8.00066,0.302324,0.836968,14,32765
7.94215,0.273757,0.829061,15,32765
7.94322,0.247762,0.826982,15,32765
7.94414,0.221941,0.825474,15,32765
7.89522,0.194794,0.819213,14,32765
7.89607,0.169208,0.816756,14,32765
7.91663,0.143939,0.817263,15,32765
7.9471,0.119109,0.818245,15,32765
7.85817,0.0925595,0.806596,14,32765
7.85871,0.0677665,0.803833,15,32765
7.89879,0.0431491,0.806732,14,32765
7.90916,0.0171146,0.804611,15,32765
7.83976,-0.00858766,0.795335,15,32765
7.86984,-0.0340991,0.795374,15,32765
7.86998,-0.0584338,0.792504,15,32765
7.66115,-0.080634,0.768322,15,32765
7.62141,-0.104683,0.760785,15,32765
7.64994,2.49276,0.935209,38,32765
7.687,2.47702,0.933462,40,32765
7.73371,2.46353,0.93257,38,32765
7.78954,2.45359,0.933429,37,32765
7.86411,2.44959,0.937737,36,32765
7.90102,2.43323,0.9358,37,32765
7.93779,2.41653,0.93512,36,32765
7.97464,2.39931,0.934262,36,32765
8.02079,2.38493,0.935655,36,32765
8.06709,2.37015,0.935949,37,32765
8.13228,2.36071,0.939939,38,32765
8.21685,2.35612,0.944482,37,32765
8.39713,2.37774,0.960738,15,32765
8.44365,2.3607,0.961389,14,32765
8.45188,2.33249,0.957933,13,32765
8.45988,2.30448,0.955136,14,32765
8.47743,2.27926,0.952382,17,32765
8.47557,2.24895,0.948344,14,32765
8.46385,2.21659,0.943396,14,32765
8.45208,2.18432,0.937807,14,32765
8.44016,2.15194,0.933019,14,32765
8.44736,2.12471,0.930178,14,32765
8.45454,2.09715,0.927524,14,32765
8.46175,2.06953,0.923859,14,32765
8.38179,2.0205,0.912208,15,32765
8.39835,1.99495,0.911219,16,32765
8.39538,1.9651,0.908202,15,32765
8.31494,1.9169,0.896451,15,32765
8.31178,1.88724,0.893056,20,32765
8.41523,1.8813,0.901975,14,32765
8.46064,1.86192,0.902781,13,32765
8.50577,1.84249,0.905297,12,32765
8.45383,1.80165,0.896051,12,32765
8.33331,1.74738,0.881027,12,32765
8.29049,1.70989,0.87418,17,32765
8.29628,1.68239,0.872571,13,32765
8.27267,1.64922,0.867945,19,32765
8.2197,1.61023,0.860278,18,32765
8.22531,1.58292,0.857346,18,32765
8.31852,1.57231,0.866129,24,32765
8.2847,1.53781,0.860128,17,32765
8.28003,1.50897,0.857752,15,32765
8.24603,1.47436,0.851819,15,32765
8.25093,1.44708,0.851181,15,32765
8.25593,1.41958,0.84902,15,32765
8.21164,1.38357,0.843567,15,32765
8.24581,1.36104,0.845125,15,32765
8.22098,1.32846,0.84121,15,32765
8.18632,1.29448,0.835074,15,32765
8.2497,1.27613,0.840286,13,32765
8.36231,1.26472,0.849884,19,32765
8.31727,1.22973,0.844581,21,32765
8.38062,1.2103,0.848778,20,32765
8.40438,1.18524,0.850024,24,32765
8.37884,1.15352,0.845268,22,32765
8.34334,1.12026,0.839792,22,32765
8.3273,1.09014,0.837375,22,32765
8.3804,1.06854,0.840937,21,32765
14.9706,1.85859,1.50038,16,32765
14.908,1.80052,1.48969,49,32765
14.8647,1.74513,1.48205,107,32765
14.8309,1.69202,1.47705,109,32765
14.8366,1.64272,1.4754,110,32765
14.8817,1.59809,1.47703,107,32765
14.8773,1.54752,1.47416,21,32765
0,0,0,0,32765
0,0,0,0,32765
0,0,0,0,32765
0,0,0,0,32765
0,0,0,15,32765
14.8669,1.24692,1.45578,17,32765
14.8415,1.19516,1.44987,14,32765
14.935,1.15225,1.45577,15,32765
14.8496,1.09643,1.44497,15,32765
14.8532,1.04815,1.44369,15,32765
14.9264,1.00439,1.44762,16,32765
14.8999,0.954286,1.44278,14,32765
14.9331,0.907257,1.44262,13,32765
