x, y, z, intensity, ring
5.82764,-3.07753,0.960712,39,32765
5.85203,-3.11562,0.967802,37,32765
5.85021,-3.13938,0.971317,40,32765
5.83093,-3.15395,0.970992,41,32765
5.78552,-3.15422,0.966531,39,32765
5.81836,-3.19697,0.974809,30,32765
5.74686,-3.1827,0.966258,21,32765
5.78802,-3.23032,0.97663,21,32765
5.72537,-3.22048,0.968619,21,32765
5.75759,-3.26366,0.977117,21,32765
5.73789,-3.27779,0.977316,21,32765
5.72682,-3.29679,0.978335,21,32765
5.71573,-3.31543,0.980195,21,32765
5.73005,-3.34945,0.985822,20,32765
6.07669,-3.57921,1.04882,17,32765
6.20083,-3.68,1.07306,18,32765
6.18832,-3.70057,1.07449,18,32765
6.17598,-3.72078,1.07574,18,32765
6.17188,-3.74633,1.0784,20,32765
6.03263,-3.68916,1.05829,18,32765
6.02027,-3.70909,1.05903,26,32765
6.04137,-3.7499,1.06596,37,32765
6.054,-3.7852,1.07225,38,32765
6.03321,-3.79954,1.07143,40,32765
6.02898,-3.82439,1.07419,43,32765
6.01638,-3.84383,1.07539,41,32765
5.97861,-3.84744,1.07217,28,32765
6.024,-3.9045,1.08344,18,32765
6.06063,-3.95664,1.09368,16,32765
6.07241,-3.99258,1.09894,16,32765
6.05104,-4.00677,1.09833,17,32765
6.02957,-4.02088,1.09803,16,32765
5.72084,-3.84201,1.04489,11,32765
5.51155,-3.72779,1.00961,19,32765
5.53199,-3.76788,1.01638,24,32765
5.49515,-3.76903,1.01258,23,32765
5.48278,-3.78679,1.01337,23,32765
5.45434,-3.79284,1.01141,23,32765
5.44213,-3.81037,1.01126,23,32765
5.42965,-3.82787,1.01232,23,32765
5.40111,-3.83398,1.00929,23,32765
5.35661,-3.82822,1.00351,23,32765
5.34434,-3.84522,1.00397,23,32765
5.33218,-3.86207,1.00392,23,32765
5.28808,-3.85555,0.997651,22,32765
5.27583,-3.87222,0.997971,22,32765
5.25569,-3.88308,0.995747,23,32765
5.24346,-3.89963,0.99559,23,32765
6.74717,-2.14826,0.916656,20,32765
6.75875,-2.17556,0.92298,20,32765
6.76086,-2.20022,0.926649,18,32765
6.73456,-2.21563,0.926942,18,32765
6.73623,-2.2409,0.931235,19,32765
6.70972,-2.25663,0.931049,20,32765
6.70213,-2.27826,0.933071,21,32765
6.7039,-2.30286,0.936486,22,32765
6.6775,-2.31778,0.935841,18,32765
6.67905,-2.34266,0.939077,20,32765
6.70846,-2.3775,0.946818,16,32765
6.66302,-2.38613,0.943485,17,32765
6.6642,-2.41138,0.946685,18,32765
6.64659,-2.43009,0.947178,16,32765
6.63838,-2.4519,0.948533,19,32765
6.64861,-2.48058,0.953057,19,32765
6.61247,-2.49163,0.950715,19,32765
6.62261,-2.52034,0.954722,19,32765
6.59558,-2.53497,0.95351,18,32765
6.61462,-2.5676,0.959049,17,32765
6.56909,-2.57477,0.95496,17,32765
6.58802,-2.60723,0.960683,18,32765
6.54235,-2.61427,0.956698,18,32765
6.56116,-2.64672,0.96212,17,32765
6.56134,-2.67209,0.964985,17,32765
6.57968,-2.70527,0.970433,16,32765
6.51552,-2.70425,0.964046,17,32765
6.53359,-2.73763,0.969603,17,32765
6.51528,-2.7553,0.969059,17,32765
6.50606,-2.77656,0.97032,17,32765
6.52419,-2.80943,0.975175,17,32765
6.48741,-2.81929,0.971987,17,32765
6.50489,-2.85285,0.978019,18,32765
6.48603,-2.87061,0.978108,17,32765
6.48537,-2.89641,0.979626,17,32765
6.47566,-2.91742,0.981482,17,32765
6.45695,-2.93434,0.98134,17,32765
6.44716,-2.95557,0.982014,17,32765
6.45506,-2.98518,0.986564,16,32765
6.45386,-3.011,0.988775,17,32765
6.46152,-3.0411,0.992248,16,32765
6.40638,-3.04136,0.986968,16,32765
6.39607,-3.06252,0.988372,16,32765
6.12707,-2.95888,0.949208,13,32765
5.95679,-2.9012,0.925112,20,32765
5.91141,-2.90342,0.920849,24,32765
5.89286,-2.91849,0.919912,25,32765
5.95396,-2.97316,0.932243,22,32765
5.85565,-2.94803,0.919188,22,32765
5.85457,-2.97176,0.921741,21,32765
5.86212,-3.00027,0.925421,36,32765
5.86068,-3.02436,0.928006,18,32765
5.85895,-3.04869,0.931218,19,32765
5.8398,-3.06378,0.930361,31,32765
5.80287,-3.06955,0.928157,32,32765
5.83628,-3.11199,0.935782,33,32765
5.83455,-3.13592,0.938155,37,32765
5.83287,-3.15938,0.941269,35,32765
5.81355,-3.17362,0.941725,36,32765
5.81181,-3.19737,0.943254,19,32765
5.7752,-3.20165,0.940932,17,32765
5.78164,-3.23052,0.944715,17,32765
5.78801,-3.25905,0.949578,17,32765
5.76839,-3.27318,0.949709,18,32765
5.76602,-3.29715,0.951768,17,32765
5.76351,-3.32083,0.955188,18,32765
5.72669,-3.32488,0.951981,16,32765
5.8692,-3.43362,0.979606,15,32765
6.17301,-3.63891,1.03432,14,32765
6.21184,-3.68959,1.044,15,32765
6.19945,-3.70974,1.04625,15,32765
6.17848,-3.72491,1.04667,16,32765
6.1744,-3.75029,1.04984,14,32765
5.98475,-3.66162,1.02147,18,32765
6.04816,-3.72788,1.03687,23,32765
6.01074,-3.73151,1.03409,26,32765
6.02331,-3.76677,1.04097,27,32765
5.99407,-3.77561,1.03993,31,32765
6.00643,-3.81094,1.04675,33,32765
5.99365,-3.83068,1.04789,30,32765
5.98085,-3.84989,1.05068,16,32765
6.07568,-3.93946,1.07198,14,32765
6.06243,-3.95905,1.07482,13,32765
6.05733,-3.98426,1.07856,14,32765
6.06034,-4.01489,1.08416,14,32765
6.08814,-4.06172,1.09406,12,32765
5.64751,-3.79469,1.02001,12,32765
5.52008,-3.73533,1.00177,18,32765
5.50737,-3.7534,1.00422,19,32765
5.50272,-3.77703,1.00825,18,32765
5.46563,-3.77787,1.00649,19,32765
5.46937,-3.8065,1.01198,18,32765
5.42447,-3.80097,1.00884,18,32765
5.41179,-3.81817,1.01195,18,32765
5.38273,-3.82419,1.012,18,32765
5.38564,-3.85329,1.01836,18,32765
5.34013,-3.84787,1.01611,18,32765
5.32716,-3.86514,1.01866,19,32765
5.314,-3.88214,1.02275,18,32765
5.269,-3.87589,1.01958,19,32765
5.23986,-3.88087,1.02113,18,32765
6.75466,-2.1522,0.849835,24,32765
6.76627,-2.17956,0.855976,25,32765
6.74952,-2.19814,0.857158,23,32765
6.77036,-2.22907,0.863648,24,32765
6.73434,-2.24195,0.863036,26,32765
6.73605,-2.2672,0.866669,24,32765
6.73782,-2.29214,0.869913,28,32765
6.73957,-2.3169,0.873246,29,32765
6.71311,-2.33196,0.8728,25,32765
6.70526,-2.35371,0.874732,24,32765
6.69727,-2.37543,0.877209,24,32765
6.67983,-2.39408,0.877931,22,32765
6.66234,-2.41266,0.878583,21,32765
6.682,-2.44504,0.884102,22,32765
6.66443,-2.46356,0.88423,24,32765
6.65605,-2.48543,0.886101,24,32765
6.62916,-2.50003,0.885282,25,32765
6.63928,-2.52884,0.889107,24,32765
6.62146,-2.54712,0.88933,22,32765
6.59426,-2.56193,0.888366,22,32765
6.60412,-2.59078,0.892135,23,32765
6.60458,-2.6161,0.895087,24,32765
6.56806,-2.62689,0.892733,22,32765
6.57765,-2.65577,0.896628,22,32765
6.56863,-2.67749,0.898148,23,32765
6.56862,-2.70321,0.900802,22,32765
6.54106,-2.71736,0.900017,21,32765
6.54996,-2.74705,0.904038,22,32765
6.54074,-2.76867,0.904854,22,32765
6.53148,-2.79005,0.906122,21,32765
6.52225,-2.81129,0.906901,21,32765
6.50362,-2.82906,0.906531,22,32765
6.51202,-2.85876,0.911018,22,32765
6.51126,-2.8846,0.913748,21,32765
6.48339,-2.89839,0.911357,22,32765
6.49176,-2.92759,0.915765,21,32765
6.48203,-2.9487,0.916998,21,32765
6.45415,-2.96178,0.91512,21,32765
6.44405,-2.98313,0.916926,21,32765
6.45184,-3.01316,0.920326,21,32765
6.45951,-3.04331,0.923613,21,32765
6.44013,-3.06057,0.923942,20,32765
6.42976,-3.08189,0.925355,20,32765
6.00863,-2.90475,0.867005,16,32765
5.94531,-2.8987,0.86005,28,32765
5.93549,-2.91838,0.861326,31,32765
5.86357,-2.90713,0.852733,29,32765
5.87157,-2.93521,0.85655,29,32765
5.88839,-2.96776,0.861255,26,32765
5.8784,-2.98715,0.862426,22,32765
5.8418,-2.99319,0.859434,21,32765
5.83158,-3.01271,0.860623,22,32765
5.82109,-3.0324,0.862432,22,32765
5.79321,-3.04278,0.860363,24,32765
5.75632,-3.0484,0.858425,23,32765
5.79859,-3.09545,0.866888,25,32765
5.75326,-3.09581,0.862619,25,32765
5.78658,-3.13795,0.870863,26,32765
5.73253,-3.13305,0.866142,26,32765
5.77432,-3.18049,0.874151,21,32765
5.75509,-3.19428,0.874734,21,32765
5.78751,-3.23765,0.882285,21,32765
5.76797,-3.25165,0.883,21,32765
5.78284,-3.28532,0.888518,22,32765
5.76322,-3.29955,0.887837,21,32765
5.76072,-3.32326,0.891164,21,32765
5.75813,-3.34723,0.893558,20,32765
5.96913,-3.49638,0.930179,18,32765
6.22183,-3.67223,0.973463,18,32765
6.20949,-3.69278,0.974573,18,32765
6.19708,-3.71296,0.97683,18,32765
6.1761,-3.72814,0.977338,17,32765
6.16354,-3.74842,0.97907,17,32765
6.16806,-3.77856,0.983655,17,32765
6.15526,-3.79873,0.986128,16,32765
6.14283,-3.81839,0.987719,17,32765
6.12154,-3.83312,0.988949,18,32765
6.1172,-3.85815,0.992208,20,32765
6.10423,-3.87801,0.994716,20,32765
6.07453,-3.88744,0.993145,17,32765
6.09484,-3.92841,1.00145,16,32765
6.09813,-3.95921,1.0065,16,32765
6.08482,-3.97891,1.00936,16,32765
6.08793,-4.0097,1.0144,16,32765
6.05787,-4.01859,1.0143,16,32765
5.97864,-3.994,1.00572,12,32765
5.55427,-3.73704,0.939241,16,32765
5.52531,-3.7439,0.938986,23,32765
5.51257,-3.76202,0.941438,24,32765
5.52423,-3.79694,0.948182,24,32765
5.47891,-3.7922,0.945316,24,32765
5.45826,-3.80396,0.9464,23,32765
5.39714,-3.78701,0.940802,23,32765
5.41686,-3.827,0.949566,23,32765
5.4039,-3.84452,0.952661,23,32765
5.35849,-3.83916,0.950285,23,32765
5.34512,-3.8568,0.954123,23,32765
5.3081,-3.85667,0.952366,23,32765
5.295,-3.87365,0.956442,23,32765
5.28187,-3.89079,0.959432,23,32765
5.2527,-3.89582,0.961178,23,32765
6.76085,-2.15432,0.87882,19,32765
6.7637,-2.17864,0.87835,20,32765
6.76627,-2.20365,0.877741,19,32765
6.74052,-2.2192,0.873475,18,32765
6.72402,-2.23837,0.869971,19,32765
6.71681,-2.26003,0.869681,19,32765
6.72835,-2.28806,0.871596,20,32765
6.69296,-2.30004,0.866599,23,32765
6.69496,-2.32476,0.86755,19,32765
6.67807,-2.34329,0.865557,19,32765
6.68918,-2.3718,0.867156,18,32765
6.69076,-2.39715,0.867788,17,32765
6.67342,-2.41589,0.866822,18,32765
6.63755,-2.4275,0.862904,17,32765
6.63887,-2.4528,0.863738,18,32765
6.64021,-2.47785,0.864527,19,32765
6.66917,-2.51347,0.870082,19,32765
6.65165,-2.53177,0.868625,18,32765
6.6062,-2.53921,0.864525,18,32765
6.63488,-2.57528,0.869053,17,32765
6.58941,-2.58246,0.864544,18,32765
6.61781,-2.61861,0.869689,18,32765
6.60906,-2.64067,0.869542,18,32765
6.60023,-2.66234,0.870528,17,32765
6.57293,-2.67669,0.868544,19,32765
6.56403,-2.69816,0.869466,17,32765
6.56435,-2.72321,0.871246,16,32765
6.58275,-2.75637,0.875179,17,32765
6.55534,-2.76994,0.873944,17,32765
6.53694,-2.78757,0.873774,17,32765
6.50939,-2.80132,0.87178,17,32765
6.48167,-2.8151,0.87039,17,32765
6.50826,-2.85324,0.875916,17,32765
6.5257,-2.88708,0.880967,17,32765
6.50696,-2.9045,0.880766,17,32765
6.49744,-2.92539,0.88195,17,32765
6.49692,-2.95048,0.883613,16,32765
6.45999,-2.95924,0.881529,17,32765
6.45015,-2.98044,0.882096,17,32765
6.45795,-3.01029,0.886248,16,32765
6.47458,-3.04432,0.892219,17,32765
6.44645,-3.05723,0.890354,17,32765
6.42711,-3.07439,0.890356,17,32765
6.30055,-3.0396,0.875469,14,32765
5.91551,-2.87816,0.824526,23,32765
5.84336,-2.86706,0.817735,23,32765
6.02055,-2.97852,0.845173,23,32765
5.92167,-2.95416,0.83403,21,32765
5.91182,-2.97352,0.835165,20,32765
5.85754,-2.97057,0.830304,18,32765
5.87385,-3.00373,0.835448,17,32765
5.82828,-3.00512,0.832182,17,32765
5.85304,-3.04315,0.838889,17,32765
5.8603,-3.0718,0.8425,17,32765
5.84972,-3.09143,0.844272,17,32765
5.83917,-3.11089,0.845779,17,32765
5.82862,-3.13016,0.847461,18,32765
5.81798,-3.14949,0.848943,18,32765
5.81605,-3.17341,0.851717,18,32765
5.79671,-3.18766,0.851985,17,32765
5.82074,-3.22587,0.858389,17,32765
5.77537,-3.22543,0.854761,17,32765
5.76443,-3.24459,0.856078,16,32765
5.78798,-3.28308,0.862971,17,32765
5.77682,-3.30231,0.864408,17,32765
5.74853,-3.31146,0.863008,17,32765
5.73732,-3.33039,0.864745,17,32765
5.84583,-3.41972,0.883594,15,32765
6.21859,-3.66564,0.943716,15,32765
6.22324,-3.69637,0.947658,15,32765
6.2279,-3.7269,0.951758,15,32765
6.1985,-3.73685,0.951083,14,32765
6.20305,-3.76736,0.954755,14,32765
6.15671,-3.76669,0.951509,14,32765
6.17796,-3.80765,0.957632,14,32765
6.14825,-3.8175,0.956917,13,32765
6.15221,-3.84836,0.960646,14,32765
6.13088,-3.86344,0.960319,16,32765
6.10974,-3.878,0.960317,18,32765
6.09692,-3.89787,0.961325,14,32765
6.14244,-3.95491,0.972654,14,32765
6.09628,-3.95289,0.968966,14,32765
6.08338,-3.97248,0.969926,13,32765
6.08685,-4.00296,0.974216,14,32765
6.09022,-4.03373,0.977342,14,32765
6.10166,-4.06991,0.98262,12,32765
5.61928,-3.77468,0.90798,12,32765
5.54106,-3.74872,0.897891,18,32765
5.52889,-3.76643,0.898833,18,32765
5.47557,-3.75643,0.892978,18,32765
5.50397,-3.80236,0.900486,20,32765
5.4671,-3.80302,0.897916,19,32765
5.43839,-3.80937,0.895868,19,32765
5.45854,-3.84951,0.901776,18,32765
5.43006,-3.85537,0.899404,18,32765
5.4018,-3.86085,0.896853,19,32765
5.3735,-3.86629,0.894248,18,32765
5.36098,-3.88354,0.894668,18,32765
5.34854,-3.90058,0.894972,19,32765
5.32015,-3.90592,0.891859,19,32765
5.28425,-3.90459,0.887559,20,32765
6.78688,-2.16434,0.814135,23,32765
6.77076,-2.1827,0.8113,23,32765
6.7544,-2.20162,0.808335,22,32765
6.7758,-2.23271,0.8099,23,32765
6.75921,-2.25202,0.806479,25,32765
6.74252,-2.27067,0.805064,24,32765
6.74462,-2.29563,0.805668,26,32765
6.74674,-2.32061,0.805437,27,32765
6.73927,-2.34228,0.805172,24,32765
6.71293,-2.3577,0.802148,23,32765
6.69589,-2.3764,0.800199,23,32765
6.68808,-2.39846,0.79962,23,32765
6.69875,-2.42739,0.802105,23,32765
6.68146,-2.44594,0.800704,22,32765
6.68271,-2.47142,0.801444,22,32765
6.65606,-2.48623,0.798787,22,32765
6.66642,-2.51496,0.801734,22,32765
6.65816,-2.53682,0.80149,22,32765
6.64047,-2.555,0.801123,21,32765
6.63206,-2.57684,0.800803,22,32765
6.60504,-2.59129,0.798907,21,32765
6.60572,-2.61658,0.800323,22,32765
6.5785,-2.63125,0.797939,22,32765
6.58813,-2.66031,0.801162,23,32765
6.59761,-2.68965,0.803851,22,32765
6.57947,-2.70745,0.803656,21,32765
6.57058,-2.72879,0.804222,21,32765
6.57065,-2.75435,0.80563,22,32765
6.56153,-2.77565,0.806832,22,32765
6.55223,-2.79723,0.807885,22,32765
6.53375,-2.81498,0.807208,21,32765
6.53329,-2.84076,0.809398,22,32765
6.54161,-2.87116,0.812297,22,32765
6.52268,-2.88908,0.81255,22,32765
6.47671,-2.89436,0.809044,22,32765
6.50344,-2.93152,0.814764,22,32765
6.47577,-2.94434,0.81293,21,32765
6.47495,-2.96961,0.815674,20,32765
6.47409,-2.99507,0.817382,21,32765
6.47285,-3.02086,0.820214,20,32765
6.49846,-3.05924,0.827056,21,32765
6.46128,-3.06799,0.824238,21,32765
6.44189,-3.08523,0.824339,20,32765
6.23467,-3.01151,0.800338,15,32765
5.92976,-2.88866,0.763663,27,32765
5.92885,-2.91262,0.766758,29,32765
5.91912,-2.932,0.767999,29,32765
5.91807,-2.95608,0.770496,27,32765
5.9082,-2.97546,0.771633,23,32765
5.8893,-2.99047,0.771884,22,32765
5.86136,-3.00117,0.770943,22,32765
5.86872,-3.02985,0.775042,21,32765
5.84056,-3.04058,0.774381,22,32765
5.83905,-3.06463,0.776635,21,32765
5.83726,-3.08887,0.779576,21,32765
5.80044,-3.0943,0.777558,21,32765
5.85117,-3.1464,0.787471,21,32765
5.83174,-3.16111,0.787781,21,32765
5.83849,-3.18989,0.791649,21,32765
5.81038,-3.19944,0.790836,21,32765
5.79967,-3.21851,0.792128,21,32765
5.75429,-3.21799,0.788871,20,32765
5.74337,-3.23712,0.790185,21,32765
5.77561,-3.28052,0.797894,21,32765
5.75583,-3.29482,0.798136,21,32765
5.76194,-3.32375,0.801707,21,32765
5.75069,-3.34277,0.803451,21,32765
5.96203,-3.49255,0.8354,18,32765
6.22373,-3.67379,0.875719,17,32765
6.21129,-3.69445,0.877069,17,32765
6.1819,-3.70459,0.876155,17,32765
6.18655,-3.73493,0.880494,17,32765
6.19111,-3.76546,0.88398,17,32765
6.1786,-3.7855,0.885961,17,32765
6.17446,-3.81097,0.888072,18,32765
6.16158,-3.83131,0.889981,18,32765
6.15708,-3.857,0.89231,17,32765
6.15249,-3.88273,0.894521,22,32765
6.13127,-3.89738,0.89462,20,32765
6.11838,-3.91736,0.895635,17,32765
6.12216,-3.9477,0.900189,16,32765
6.09265,-3.95642,0.89933,17,32765
6.10464,-3.99233,0.903982,16,32765
6.08318,-4.00656,0.904398,16,32765
6.06999,-4.02641,0.904875,15,32765
5.95769,-3.97992,0.891354,12,32765
5.54934,-3.7334,0.833134,16,32765
5.55335,-3.76281,0.836157,23,32765
5.54112,-3.7806,0.837103,23,32765
5.52042,-3.79308,0.836679,24,32765
5.49975,-3.80539,0.836285,23,32765
5.47099,-3.81169,0.83524,23,32765
5.45847,-3.82947,0.835871,23,32765
5.42993,-3.83541,0.833942,24,32765
5.43381,-3.86419,0.836739,23,32765
5.40549,-3.86969,0.834378,23,32765
5.36103,-3.86354,0.829472,23,32765
5.33243,-3.86914,0.827402,23,32765
5.31201,-3.88026,0.826462,23,32765
5.28364,-3.88549,0.823542,23,32765
5.27169,-3.90175,0.823263,23,32765
6.82243,-2.15253,0.719149,19,32765
6.796,-2.16889,0.720542,18,32765
6.78862,-2.1908,0.723864,17,32765
6.76249,-2.2059,0.724724,18,32765
6.77422,-2.2334,0.728497,19,32765
6.74789,-2.24884,0.728853,19,32765
6.77791,-2.2834,0.736307,18,32765
6.72303,-2.28968,0.733335,20,32765
6.71535,-2.31163,0.734869,20,32765
6.71691,-2.33686,0.738035,18,32765
6.72791,-2.36515,0.741715,18,32765
6.71993,-2.38682,0.744685,18,32765
6.71188,-2.40876,0.746579,19,32765
6.69439,-2.42762,0.746609,17,32765
6.64862,-2.43626,0.744924,17,32765
6.68691,-2.47573,0.751614,17,32765
6.67851,-2.4976,0.753894,18,32765
6.68867,-2.52652,0.757904,17,32765
6.65242,-2.53757,0.756037,16,32765
6.60677,-2.54491,0.753917,16,32765
6.63528,-2.58102,0.759622,16,32765
6.62659,-2.60272,0.761364,17,32765
6.60866,-2.62075,0.761388,17,32765
6.60911,-2.64599,0.764227,17,32765
6.60007,-2.66797,0.765886,17,32765
6.59096,-2.68992,0.767601,17,32765
6.58173,-2.71194,0.769272,17,32765
6.57242,-2.73412,0.77036,17,32765
6.58136,-2.76359,0.775021,17,32765
6.55374,-2.77755,0.77412,17,32765
6.54448,-2.79904,0.775046,17,32765
6.56258,-2.83199,0.78005,16,32765
6.53482,-2.84592,0.77835,17,32765
6.54325,-2.87581,0.782076,17,32765
6.50604,-2.88597,0.779894,17,32765
6.54148,-2.92806,0.787162,16,32765
6.4863,-2.92906,0.78365,17,32765
6.50368,-2.96277,0.787596,16,32765
6.46665,-2.97158,0.785935,17,32765
6.4566,-2.99299,0.787338,16,32765
6.44645,-3.01451,0.788374,16,32765
6.4633,-3.04842,0.793106,16,32765
6.45281,-3.07021,0.794415,16,32765
6.40662,-3.07442,0.791038,15,32765
5.96674,-2.88789,0.739621,17,32765
5.88555,-2.87276,0.731876,21,32765
5.90274,-2.90513,0.736378,22,32765
5.89286,-2.92479,0.737701,23,32765
5.92733,-2.96671,0.744481,20,32765
5.9082,-2.98228,0.744826,18,32765
5.9157,-3.01109,0.74846,18,32765
5.8967,-3.02608,0.748785,17,32765
5.8953,-3.05024,0.750862,18,32765
5.88514,-3.06952,0.752093,18,32765
5.8658,-3.08459,0.752704,17,32765
5.85534,-3.10405,0.754212,17,32765
5.84489,-3.12346,0.755106,18,32765
5.85175,-3.15233,0.758933,17,32765
5.82381,-3.16183,0.75823,17,32765
5.81329,-3.18093,0.759084,17,32765
5.80274,-3.19979,0.760596,17,32765
5.8094,-3.22827,0.765012,17,32765
5.79849,-3.24743,0.766689,18,32765
5.80491,-3.27635,0.7698,17,32765
5.77636,-3.28601,0.769347,17,32765
5.78244,-3.31514,0.772928,17,32765
5.7712,-3.3341,0.775356,17,32765
5.80301,-3.37786,0.782775,16,32765
6.23735,-3.65789,0.84481,14,32765
6.22498,-3.67847,0.846686,15,32765
6.21251,-3.69897,0.848992,14,32765
6.19991,-3.71961,0.850929,14,32765
6.2212,-3.76077,0.857724,14,32765
6.20864,-3.78099,0.859824,14,32765
6.14519,-3.77009,0.854751,15,32765
6.16653,-3.81073,0.861493,15,32765
6.15396,-3.83043,0.864042,15,32765
6.14118,-3.85046,0.865985,15,32765
6.13679,-3.87556,0.86946,20,32765
6.11545,-3.89016,0.870555,14,32765
6.14436,-3.93658,0.879032,14,32765
6.10624,-3.94024,0.877917,14,32765
6.11799,-3.97627,0.884288,14,32765
6.10464,-3.99615,0.886939,14,32765
6.07451,-4.00527,0.887142,14,32765
6.04449,-4.01399,0.887784,12,32765
5.67631,-3.7962,0.83834,11,32765
5.55649,-3.74247,0.825722,18,32765
5.53573,-3.75497,0.826688,19,32765
5.52294,-3.77319,0.829335,19,32765
5.49395,-3.77972,0.829855,19,32765
5.46492,-3.78618,0.830357,19,32765
5.46851,-3.81516,0.835682,19,32765
5.44766,-3.82691,0.837793,20,32765
5.41045,-3.82736,0.837143,19,32765
5.41382,-3.85611,0.843152,19,32765
5.36872,-3.85027,0.841362,19,32765
5.37208,-3.8787,0.84787,18,32765
5.35926,-3.89561,0.851396,19,32765
5.28185,-3.86632,0.844775,19,32765
5.25243,-3.87178,0.84718,20,32765
6.80892,-2.15064,0.649856,22,32765
6.80147,-2.17305,0.653254,23,32765
6.79409,-2.19502,0.656581,23,32765
6.78689,-2.21634,0.659471,22,32765
6.76078,-2.23148,0.659375,23,32765
6.78168,-2.26266,0.664543,24,32765
6.75509,-2.2783,0.666058,21,32765
6.76617,-2.30701,0.670083,27,32765
6.75843,-2.32914,0.671629,24,32765
6.73174,-2.34473,0.671901,24,32765
6.71457,-2.36321,0.672576,22,32765
6.71598,-2.38821,0.676486,21,32765
6.71731,-2.41354,0.679329,23,32765
6.70914,-2.43585,0.680404,22,32765
6.71005,-2.46169,0.683863,22,32765
6.67362,-2.47377,0.682464,23,32765
6.66524,-2.49564,0.684741,22,32765
6.67543,-2.52457,0.688562,22,32765
6.68565,-2.55335,0.691786,22,32765
6.6585,-2.56798,0.691984,22,32765
6.64986,-2.58987,0.693459,22,32765
6.65041,-2.61531,0.696175,22,32765
6.63242,-2.63345,0.696299,22,32765
6.62359,-2.65511,0.698079,22,32765
6.58685,-2.66597,0.696816,22,32765
6.58696,-2.69169,0.699508,20,32765
6.57773,-2.71374,0.70118,20,32765
6.59596,-2.74742,0.705217,21,32765
6.56819,-2.7616,0.705757,21,32765
6.5772,-2.79109,0.708994,21,32765
6.58618,-2.82053,0.711902,21,32765
6.53115,-2.8221,0.708709,20,32765
6.549,-2.85584,0.712156,22,32765
6.52099,-2.86981,0.711724,21,32765
6.52923,-2.90011,0.714799,21,32765
6.53742,-2.93015,0.718614,21,32765
6.52753,-2.95162,0.720575,21,32765
6.51768,-2.97315,0.721242,21,32765
6.49868,-2.99034,0.721876,20,32765
6.49759,-3.01608,0.724294,21,32765
6.47834,-3.03357,0.724332,20,32765
6.48614,-3.0634,0.727782,20,32765
6.45764,-3.07675,0.727076,20,32765
6.31274,-3.03358,0.712938,16,32765
5.94431,-2.88104,0.674114,24,32765
5.89883,-2.88328,0.671184,27,32765
5.95169,-2.93335,0.679485,28,32765
5.90608,-2.9355,0.676738,26,32765
5.92276,-2.96864,0.681011,23,32765
5.89473,-2.97973,0.680426,23,32765
5.89338,-3.00404,0.682845,22,32765
5.88324,-3.02353,0.68429,22,32765
5.90835,-3.06142,0.689366,22,32765
5.85405,-3.05775,0.685441,21,32765
5.85235,-3.08202,0.688208,21,32765
5.84189,-3.10147,0.689716,21,32765
5.86652,-3.13965,0.694764,22,32765
5.85582,-3.15921,0.696331,21,32765
5.81038,-3.15924,0.693733,22,32765
5.83474,-3.19745,0.698765,21,32765
5.81542,-3.2116,0.699239,21,32765
5.82205,-3.24018,0.703476,21,32765
5.79376,-3.24969,0.703054,21,32765
5.79151,-3.27377,0.704927,22,32765
5.79752,-3.30308,0.708886,22,32765
5.80354,-3.33234,0.712288,22,32765
5.76642,-3.33647,0.711541,20,32765
5.90133,-3.44041,0.731268,18,32765
6.2243,-3.65591,0.774602,17,32765
6.26327,-3.70687,0.782894,17,32765
6.24216,-3.72245,0.784146,18,32765
6.22948,-3.74322,0.786095,18,32765
6.20819,-3.75883,0.787139,17,32765
6.2211,-3.79457,0.792481,17,32765
6.18298,-3.79931,0.791228,17,32765
6.17043,-3.81923,0.793266,17,32765
6.19157,-3.86001,0.80018,17,32765
6.17869,-3.88021,0.80214,17,32765
6.1574,-3.89486,0.803346,24,32765
6.15277,-3.92023,0.806744,19,32765
6.14814,-3.94541,0.810363,16,32765
6.10998,-3.94908,0.809534,16,32765
6.10506,-3.97436,0.813411,16,32765
6.09172,-3.99424,0.81606,15,32765
6.07817,-4.01428,0.818683,15,32765
6.01502,-4.00102,0.815032,12,32765
5.56412,-3.72734,0.758343,14,32765
5.57627,-3.76204,0.764956,24,32765
5.54723,-3.76904,0.764893,24,32765
5.52619,-3.78173,0.766413,24,32765
5.52171,-3.80519,0.77055,24,32765
5.50892,-3.82308,0.77355,24,32765
5.47169,-3.82382,0.772963,24,32765
5.45894,-3.84131,0.776329,23,32765
5.40547,-3.83031,0.773649,24,32765
5.41694,-3.86489,0.780637,23,32765
5.35567,-3.84745,0.776886,23,32765
5.33492,-3.85844,0.779675,24,32765
5.33825,-3.88697,0.785543,24,32765
5.31689,-3.89864,0.787965,24,32765
5.31134,-3.92192,0.794176,25,32765
6.79727,-2.14588,0.676677,17,32765
6.79989,-2.17108,0.675828,17,32765
6.7928,-2.19376,0.673892,18,32765
6.78583,-2.21567,0.672432,18,32765
6.7788,-2.23723,0.671966,18,32765
6.77177,-2.25896,0.670155,18,32765
6.75509,-2.2776,0.668487,17,32765
6.74771,-2.29961,0.667667,20,32765
6.73082,-2.31817,0.666839,19,32765
6.70451,-2.33349,0.664243,18,32765
6.71566,-2.36181,0.666585,19,32765
6.74551,-2.39707,0.66955,17,32765
6.70943,-2.40929,0.666696,17,32765
6.68272,-2.4247,0.664629,17,32765
6.66521,-2.44364,0.663732,17,32765
6.69435,-2.4796,0.667975,17,32765
6.68618,-2.50163,0.667684,17,32765
6.66858,-2.52003,0.667122,17,32765
6.66967,-2.5451,0.668504,18,32765
6.68929,-2.57737,0.671255,18,32765
6.65297,-2.5883,0.669037,18,32765
6.64453,-2.60978,0.669454,18,32765
6.62666,-2.6278,0.669111,17,32765
6.58107,-2.63466,0.665202,17,32765
6.59988,-2.66768,0.669001,18,32765
6.61851,-2.7009,0.67291,17,32765
6.61869,-2.72644,0.674975,16,32765
6.58186,-2.73711,0.673042,16,32765
6.55433,-2.75114,0.671987,17,32765
6.54499,-2.77293,0.6735,17,32765
6.5815,-2.81422,0.678327,17,32765
6.54463,-2.82404,0.676903,17,32765
6.55338,-2.85383,0.679162,17,32765
6.55295,-2.87932,0.681495,17,32765
6.516,-2.88878,0.679975,17,32765
6.53349,-2.92257,0.684244,16,32765
6.54183,-2.95226,0.687595,16,32765
6.5137,-2.96574,0.687168,17,32765
6.49473,-2.9832,0.68659,16,32765
6.51167,-3.01723,0.691836,16,32765
6.45655,-3.01745,0.688168,16,32765
6.47351,-3.05123,0.692622,16,32765
6.43622,-3.05995,0.690946,16,32765
6.42584,-3.0812,0.6931,16,32765
6.03015,-2.91625,0.652411,14,32765
5.93064,-2.89284,0.644912,20,32765
5.92082,-2.91257,0.646333,20,32765
5.91077,-2.9325,0.648188,20,32765
5.92744,-2.96577,0.652099,19,32765
5.92615,-2.99009,0.655002,17,32765
5.9159,-3.00999,0.656503,17,32765
5.93223,-3.04316,0.661718,18,32765
5.89533,-3.04933,0.659986,17,32765
5.88497,-3.06885,0.661932,17,32765
5.87474,-3.08814,0.663131,18,32765
5.88185,-3.117,0.666545,18,32765
5.87131,-3.13634,0.668702,17,32765
5.86063,-3.15594,0.670212,18,32765
5.84998,-3.17522,0.672195,17,32765
5.83932,-3.19457,0.673175,17,32765
5.81111,-3.20431,0.672565,17,32765
5.8178,-3.23289,0.6766,16,32765
5.84156,-3.27159,0.682479,17,32765
5.79595,-3.27119,0.679966,17,32765
5.78487,-3.2904,0.6817,17,32765
5.79103,-3.3194,0.685337,18,32765
5.76263,-3.32857,0.684741,16,32765
5.79434,-3.37285,0.690744,16,32765
6.24634,-3.66364,0.747948,14,32765
6.25106,-3.69443,0.751972,14,32765
6.23852,-3.71519,0.753846,14,32765
6.24309,-3.74602,0.757326,14,32765
6.23036,-3.76685,0.758849,14,32765
6.22624,-3.79244,0.761673,14,32765
6.18825,-3.79696,0.760649,14,32765
6.19265,-3.82748,0.76418,14,32765
6.1801,-3.84735,0.765976,14,32765
6.1505,-3.85691,0.765253,14,32765
6.18824,-3.90874,0.77267,16,32765
6.1249,-3.89682,0.768332,19,32765
6.12874,-3.92753,0.771674,14,32765
6.14097,-3.96333,0.776515,14,32765
6.12789,-3.98332,0.777563,14,32765
6.13132,-4.01423,0.780899,14,32765
6.11792,-4.03434,0.782398,13,32765
6.09611,-4.04899,0.782721,12,32765
5.64474,-3.77583,0.727307,11,32765
5.56634,-3.74963,0.720132,18,32765
5.55393,-3.76768,0.721785,19,32765
5.54167,-3.78557,0.722417,19,32765
5.52105,-3.79781,0.722655,19,32765
5.50885,-3.81533,0.723529,19,32765
5.48025,-3.82151,0.722004,19,32765
5.44378,-3.82155,0.71912,20,32765
5.43966,-3.84437,0.721713,19,32765
5.427,-3.8622,0.721907,19,32765
5.39818,-3.86818,0.720592,19,32765
5.39373,-3.89135,0.721923,20,32765
5.36563,-3.89622,0.719998,20,32765
5.37768,-3.93033,0.723219,22,32765
5.26104,-3.87088,0.708946,19,32765
6.83083,-2.15902,0.612003,22,32765
6.84287,-2.18742,0.611902,23,32765
6.79777,-2.19802,0.606572,22,32765
6.79076,-2.21999,0.605112,23,32765
6.78369,-2.24161,0.604647,22,32765
6.77662,-2.26339,0.602837,22,32765
6.76934,-2.28527,0.602103,22,32765
6.77134,-2.3106,0.602122,24,32765
6.74497,-2.32602,0.600552,24,32765
6.77506,-2.36109,0.60317,24,32765
6.73912,-2.37314,0.601139,22,32765
6.73138,-2.39519,0.600379,22,32765
6.71403,-2.41412,0.599483,22,32765
6.706,-2.43639,0.59928,21,32765
6.69779,-2.45888,0.599316,21,32765
6.68952,-2.48115,0.599837,22,32765
6.70932,-2.5137,0.602061,22,32765
6.67303,-2.52516,0.59992,21,32765
6.66478,-2.54673,0.600372,21,32765
6.65651,-2.56829,0.600329,21,32765
6.65733,-2.5936,0.601748,22,32765
6.66741,-2.62243,0.603848,22,32765
6.66799,-2.64792,0.605284,22,32765
6.6223,-2.65493,0.601752,22,32765
6.64105,-2.68815,0.605278,22,32765
6.60428,-2.69896,0.603854,22,32765
6.61368,-2.7283,0.606671,21,32765
6.62281,-2.75813,0.609252,21,32765
6.59519,-2.77232,0.608392,20,32765
6.59494,-2.79818,0.610767,20,32765
6.57643,-2.81618,0.61003,21,32765
6.57611,-2.84182,0.612296,20,32765
6.54827,-2.85584,0.610963,19,32765
6.55696,-2.88537,0.614058,20,32765
6.56548,-2.91508,0.617102,20,32765
6.53744,-2.92874,0.616814,19,32765
6.52761,-2.95029,0.618261,20,32765
6.53573,-2.98029,0.62147,20,32765
6.50764,-2.99369,0.620127,19,32765
6.52456,-3.02783,0.625099,20,32765
6.48742,-3.03653,0.62364,20,32765
6.49532,-3.06623,0.626954,20,32765
6.48494,-3.08789,0.628179,20,32765
6.40263,-3.07485,0.623359,17,32765
5.97984,-2.89643,0.584073,20,32765
5.95194,-2.90778,0.584527,25,32765
5.94207,-2.92763,0.585956,24,32765
5.94981,-2.95653,0.589588,24,32765
5.91297,-2.96322,0.587916,23,32765
5.91169,-2.98755,0.590723,22,32765
5.90145,-3.00744,0.592224,22,32765
5.89122,-3.02697,0.594474,22,32765
5.87205,-3.04218,0.594808,21,32765
5.87054,-3.06628,0.597648,22,32765
5.89556,-3.10412,0.60245,22,32765
5.87623,-3.1191,0.602977,21,32765
5.83934,-3.12437,0.602417,22,32765
5.86376,-3.16281,0.607555,21,32765
5.85308,-3.18214,0.609542,22,32765
5.85985,-3.21111,0.612351,22,32765
5.84029,-3.22575,0.612851,21,32765
5.81211,-3.23511,0.613042,21,32765
5.8272,-3.269,0.617627,21,32765
5.81625,-3.28816,0.61918,21,32765
5.8051,-3.30747,0.620924,22,32765
5.80257,-3.33164,0.623454,21,32765
5.79135,-3.35084,0.624912,21,32765
5.92621,-3.4555,0.64163,18,32765
6.24939,-3.67171,0.679816,17,32765
6.25409,-3.70257,0.683658,17,32765
6.25861,-3.73358,0.687415,17,32765
6.24605,-3.7543,0.688834,16,32765
6.21625,-3.76486,0.688476,17,32765
6.20365,-3.78528,0.690261,17,32765
6.20807,-3.81579,0.694256,16,32765
6.187,-3.83072,0.694757,16,32765
6.20823,-3.87168,0.700368,17,32765
6.18696,-3.88665,0.700796,17,32765
6.17414,-3.90678,0.701926,17,32765
6.16114,-3.92689,0.703903,17,32765
6.11461,-3.92551,0.701305,20,32765
6.16865,-3.98837,0.710681,22,32765
6.13045,-3.99219,0.708845,21,32765
6.12551,-4.01772,0.711033,20,32765
6.10379,-4.03237,0.711567,21,32765
6.09026,-4.05252,0.712955,13,32765
5.56427,-3.72886,0.653755,15,32765
5.57674,-3.76358,0.65802,23,32765
5.5725,-3.7873,0.660657,24,32765
5.54373,-3.79405,0.659342,24,32765
5.51488,-3.80067,0.658699,24,32765
5.51083,-3.82388,0.660557,24,32765
5.48218,-3.83008,0.659222,23,32765
5.45379,-3.83585,0.657604,23,32765
5.4415,-3.85301,0.659128,23,32765
5.43688,-3.87665,0.660311,24,32765
5.38374,-3.86526,0.656233,23,32765
5.37122,-3.88261,0.656488,23,32765
5.34311,-3.88742,0.654753,23,32765
5.32306,-3.89802,0.653754,26,32765
5.27856,-3.8914,0.649573,26,32765
6.84438,-2.14119,0.515639,17,32765
6.82768,-2.16033,0.517864,17,32765
6.8299,-2.18546,0.521893,17,32765
6.82255,-2.20764,0.524678,16,32765
6.78659,-2.22075,0.525477,17,32765
6.79802,-2.24929,0.529207,16,32765
6.77161,-2.2648,0.530646,17,32765
6.7736,-2.28956,0.534024,17,32765
6.76605,-2.31149,0.535278,18,32765
6.78648,-2.34352,0.539956,18,32765
6.75955,-2.35956,0.541579,17,32765
6.7611,-2.38505,0.543305,16,32765
6.72483,-2.39727,0.543507,17,32765
6.71677,-2.41924,0.545769,17,32765
6.70867,-2.44127,0.547314,16,32765
6.71917,-2.47004,0.551447,17,32765
6.71097,-2.49199,0.552541,17,32765
6.68375,-2.5074,0.553183,16,32765
6.6938,-2.53691,0.556339,16,32765
6.66644,-2.55221,0.55718,16,32765
6.6856,-2.58534,0.561148,16,32765
6.64916,-2.59608,0.560942,17,32765
6.64055,-2.61777,0.5621,15,32765
6.6504,-2.64664,0.56559,16,32765
6.62311,-2.6609,0.56534,17,32765
6.65102,-2.69792,0.570191,17,32765
6.60491,-2.70497,0.569122,16,32765
6.59566,-2.72711,0.570717,16,32765
6.61401,-2.7606,0.574577,16,32765
6.60461,-2.78256,0.576657,16,32765
6.5677,-2.79287,0.575114,16,32765
6.60413,-2.83409,0.580963,16,32765
6.56709,-2.8442,0.579918,16,32765
6.53922,-2.8579,0.580251,16,32765
6.52962,-2.87948,0.581624,16,32765
6.56528,-2.92166,0.587488,16,32765
6.50981,-2.92325,0.58526,15,32765
6.49969,-2.94545,0.586449,16,32765
6.57123,-3.00455,0.595042,16,32765
6.50678,-3.00128,0.591841,15,32765
6.51462,-3.03136,0.595599,16,32765
6.47758,-3.03984,0.593907,15,32765
6.46735,-3.06134,0.594952,15,32765
6.4661,-3.08694,0.596989,15,32765
5.97083,-2.87491,0.553698,14,32765
5.94308,-2.88622,0.553547,20,32765
5.92437,-2.90152,0.554429,19,32765
5.96813,-2.94777,0.560795,19,32765
5.9402,-2.95886,0.561089,19,32765
5.93011,-2.97879,0.562308,18,32765
5.9288,-3.00316,0.565053,17,32765
5.91848,-3.02304,0.567178,18,32765
5.93487,-3.05644,0.570541,18,32765
5.90703,-3.06664,0.570143,18,32765
5.91428,-3.09553,0.573605,18,32765
5.89494,-3.11058,0.574521,17,32765
5.86676,-3.12094,0.5743,17,32765
5.86491,-3.14536,0.576158,18,32765
5.85434,-3.16461,0.578252,18,32765
5.83504,-3.17892,0.579319,17,32765
5.86816,-3.22192,0.585064,18,32765
5.83136,-3.22655,0.583771,18,32765
5.83786,-3.25555,0.587287,18,32765
5.84429,-3.28455,0.590697,17,32765
5.79849,-3.28426,0.589294,17,32765
5.81337,-3.31828,0.593425,18,32765
5.81075,-3.34243,0.596863,17,32765
5.80803,-3.36669,0.59981,17,32765
6.27845,-3.66691,0.651859,14,32765
6.26615,-3.68763,0.653287,15,32765
6.23665,-3.698,0.653738,14,32765
6.25864,-3.73856,0.659492,14,32765
6.22899,-3.74893,0.659727,14,32765
6.24206,-3.78459,0.665237,14,32765
6.22941,-3.80498,0.667444,14,32765
6.23357,-3.83593,0.67136,14,32765
6.23769,-3.86667,0.676061,14,32765
6.1825,-3.86066,0.674032,14,32765
6.19496,-3.89658,0.679426,14,32765
6.15665,-3.90084,0.679344,14,32765
6.18545,-3.94783,0.686819,15,32765
6.15556,-3.95712,0.687619,18,32765
6.13386,-3.97185,0.689752,19,32765
6.13734,-4.00261,0.694028,16,32765
6.11563,-4.01711,0.695973,17,32765
6.1106,-4.04229,0.700042,16,32765
5.73269,-3.81907,0.661331,11,32765
5.59588,-3.75451,0.650143,18,32765
5.58329,-3.77279,0.652554,19,32765
5.52941,-3.76301,0.651013,19,32765
5.55773,-3.8092,0.65923,19,32765
5.50404,-3.79889,0.657586,19,32765
5.47504,-3.80535,0.658232,19,32765
5.46227,-3.82298,0.662175,19,32765
5.45776,-3.84621,0.666034,20,32765
5.42861,-3.85232,0.667788,19,32765
5.4077,-3.8638,0.671017,19,32765
5.40282,-3.88711,0.675224,20,32765
5.38187,-3.89844,0.678302,19,32765
5.35283,-3.90385,0.680252,19,32765
5.33966,-3.92102,0.684991,19,32765
6.83828,-2.14246,0.447409,21,32765
6.84061,-2.16765,0.450983,20,32765
6.84283,-2.19286,0.454926,21,32765
6.82598,-2.21206,0.457082,20,32765
6.79949,-2.22831,0.458807,20,32765
6.80144,-2.25381,0.461712,21,32765
6.77502,-2.26935,0.463343,22,32765
6.77701,-2.29418,0.46663,23,32765
6.76945,-2.31616,0.467887,23,32765
6.79932,-2.35153,0.472942,22,32765
6.76295,-2.36435,0.474101,22,32765
6.75507,-2.38658,0.475074,22,32765
6.76577,-2.41557,0.478884,21,32765
6.72012,-2.42418,0.47849,21,32765
6.73075,-2.4531,0.481379,21,32765
6.7225,-2.4751,0.483987,20,32765
6.70493,-2.49363,0.484408,22,32765
6.68704,-2.51255,0.485917,22,32765
6.68775,-2.5386,0.488207,20,32765
6.67901,-2.56105,0.490605,20,32765
6.67955,-2.58709,0.492924,20,32765
6.67097,-2.60872,0.49507,21,32765
6.65304,-2.62686,0.495543,20,32765
6.64433,-2.64845,0.497463,20,32765
6.63554,-2.67016,0.498794,20,32765
6.64495,-2.6998,0.50188,20,32765
6.63573,-2.72197,0.503991,20,32765
6.63564,-2.74808,0.5063,19,32765
6.5987,-2.75869,0.505658,19,32765
6.6077,-2.7884,0.509152,19,32765
6.57992,-2.80265,0.508604,20,32765
6.58885,-2.83217,0.511854,20,32765
6.59755,-2.8621,0.51466,20,32765
6.55133,-2.86793,0.51376,20,32765
6.55994,-2.89766,0.516576,20,32765
6.55001,-2.91972,0.518377,20,32765
6.54001,-2.94172,0.520235,19,32765
6.52982,-2.96407,0.521433,20,32765
6.53785,-2.99433,0.524102,20,32765
6.50056,-3.00348,0.523646,19,32765
6.51744,-3.03782,0.52795,20,32765
6.50744,-3.05905,0.528743,18,32765
6.51515,-3.08924,0.531266,19,32765
6.37885,-3.05052,0.522174,17,32765
6.00925,-2.8984,0.494273,19,32765
5.95451,-2.89677,0.492099,24,32765
5.95366,-2.92092,0.494569,24,32765
5.9348,-2.93641,0.495163,23,32765
5.92475,-2.95632,0.497133,23,32765
5.90576,-2.97175,0.497602,22,32765
5.91336,-3.0006,0.501003,22,32765
5.90306,-3.02048,0.503126,22,32765
5.89286,-3.04018,0.503936,22,32765
5.88276,-3.05947,0.505239,22,32765
5.9077,-3.0976,0.510034,21,32765
5.91479,-3.12664,0.513341,21,32765
5.90414,-3.14646,0.514851,22,32765
5.87585,-3.1569,0.514319,22,32765
5.88277,-3.18573,0.517964,21,32765
5.8459,-3.19061,0.517588,21,32765
5.84404,-3.21452,0.519764,22,32765
5.8334,-3.23357,0.521087,21,32765
5.84859,-3.2675,0.525201,21,32765
5.84629,-3.29171,0.527647,21,32765
5.80912,-3.29635,0.52741,21,32765
5.798,-3.31563,0.528899,21,32765
5.80404,-3.34476,0.533034,21,32765
5.88751,-3.41911,0.543852,18,32765
6.28047,-3.67494,0.583494,16,32765
6.25097,-3.68559,0.583325,16,32765
6.27288,-3.72648,0.588789,16,32765
6.27769,-3.75701,0.59257,17,32765
6.23943,-3.76231,0.592193,16,32765
6.23542,-3.78773,0.595804,16,32765
6.23126,-3.81335,0.598831,16,32765
6.22692,-3.83914,0.601745,17,32765
6.21409,-3.85941,0.604613,17,32765
6.18427,-3.86918,0.605529,17,32765
6.16298,-3.88393,0.607325,16,32765
6.17519,-3.92014,0.612521,16,32765
6.16197,-3.94045,0.61535,16,32765
6.15722,-3.96587,0.618858,16,32765
6.1355,-3.98064,0.62109,16,32765
6.13062,-4.00603,0.624335,16,32765
6.1505,-4.04792,0.630643,16,32765
6.05403,-4.01272,0.625207,12,32765
5.65128,-3.77223,0.587999,14,32765
5.60554,-3.76841,0.587707,24,32765
5.58466,-3.78117,0.589257,24,32765
5.55544,-3.78821,0.590815,24,32765
5.54263,-3.8064,0.594184,24,32765
5.52992,-3.82434,0.597428,24,32765
5.51717,-3.84229,0.600057,24,32765
5.48799,-3.84866,0.602246,24,32765
5.45086,-3.84905,0.602433,23,32765
5.41359,-3.84938,0.603469,24,32765
5.4008,-3.86664,0.607697,24,32765
5.37978,-3.87834,0.609979,23,32765
5.35887,-3.88961,0.613139,24,32765
5.33791,-3.90084,0.616192,24,32765
5.30874,-3.90621,0.619052,24,32765
6.81781,-2.13507,0.473928,17,32765
6.77283,-2.1454,0.469547,16,32765
6.78501,-2.17342,0.46846,17,32765
6.81601,-2.20751,0.470366,17,32765
6.78995,-2.22326,0.468264,16,32765
6.83002,-2.26126,0.47078,17,32765
6.78479,-2.27097,0.467176,17,32765
6.80577,-2.30268,0.468147,17,32765
6.79828,-2.32474,0.467956,19,32765
6.75295,-2.33381,0.465375,17,32765
6.77346,-2.3661,0.466856,17,32765
6.75622,-2.38505,0.466345,16,32765
6.75776,-2.41054,0.46706,16,32765
6.74047,-2.42915,0.466523,16,32765
6.7419,-2.45441,0.467631,16,32765
6.70574,-2.46629,0.464784,17,32765
6.73498,-2.50211,0.468454,17,32765
6.708,-2.5173,0.467319,17,32765
6.68087,-2.53252,0.46679,17,32765
6.67247,-2.5546,0.466695,17,32765
6.66387,-2.5768,0.467448,16,32765
6.65535,-2.59856,0.468343,16,32765
6.73039,-2.65314,0.474606,16,32765
6.66598,-2.65304,0.471325,16,32765
6.65722,-2.67476,0.472353,16,32765
6.64828,-2.69689,0.472576,16,32765
6.6393,-2.71863,0.474242,16,32765
6.59328,-2.72538,0.472802,15,32765
6.6394,-2.77032,0.477222,16,32765
6.61169,-2.7845,0.477658,16,32765
6.59314,-2.80268,0.477327,16,32765
6.59289,-2.82848,0.479212,16,32765
6.58337,-2.85038,0.480218,16,32765
6.56446,-2.86848,0.481673,16,32765
6.52748,-2.87814,0.48047,15,32765
6.60875,-2.94069,0.489094,15,32765
6.54425,-2.9381,0.486256,16,32765
6.50713,-2.94736,0.485683,16,32765
6.54249,-2.98982,0.490778,15,32765
6.50523,-2.99894,0.490598,15,32765
6.47695,-3.01233,0.490584,15,32765
6.5391,-3.06753,0.498085,15,32765
6.50159,-3.07654,0.498398,16,32765
6.48225,-3.09385,0.498492,15,32765
6.05836,-2.91625,0.468347,13,32765
5.99458,-2.91039,0.465875,19,32765
5.96701,-2.9213,0.465248,19,32765
5.95713,-2.94112,0.466866,19,32765
5.98289,-2.97864,0.471956,19,32765
5.95498,-2.98953,0.472547,18,32765
5.92688,-3.00074,0.472559,18,32765
5.93425,-3.02995,0.475941,18,32765
5.90611,-3.04084,0.476226,18,32765
5.93096,-3.07921,0.481908,18,32765
5.89408,-3.08497,0.481379,18,32765
5.90128,-3.11394,0.48416,17,32765
5.87315,-3.12404,0.485107,18,32765
5.8803,-3.15271,0.488408,17,32765
5.87849,-3.17682,0.491116,18,32765
5.88538,-3.20577,0.493691,18,32765
5.84825,-3.21098,0.493675,18,32765
5.85483,-3.24007,0.497033,17,32765
5.82657,-3.24956,0.497521,17,32765
5.81555,-3.2689,0.499725,17,32765
5.80456,-3.28809,0.50167,17,32765
5.81077,-3.31727,0.504718,17,32765
5.78224,-3.32676,0.504447,17,32765
5.81401,-3.37111,0.510353,16,32765
6.26739,-3.6623,0.552981,14,32765
6.27231,-3.69303,0.556527,14,32765
6.25992,-3.71369,0.558461,14,32765
6.23052,-3.72391,0.55814,14,32765
6.23532,-3.75431,0.562108,14,32765
6.22283,-3.77468,0.564103,13,32765
6.22738,-3.80527,0.567549,14,32765
6.19771,-3.81538,0.566801,14,32765
6.2273,-3.86206,0.572489,14,32765
6.18903,-3.86667,0.572049,14,32765
6.20128,-3.90313,0.576414,14,32765
6.16315,-3.90728,0.575454,14,32765
6.17542,-3.94345,0.579541,13,32765
6.17915,-3.97434,0.582788,14,32765
6.16609,-3.99429,0.584705,13,32765
6.18647,-4.03586,0.589511,13,32765
6.2316,-4.0941,0.596586,13,32765
6.15148,-4.07048,0.592059,12,32765
5.77305,-3.84742,0.557569,11,32765
5.60303,-3.76073,0.543912,18,32765
5.59894,-3.78452,0.545609,19,32765
5.57012,-3.79124,0.545823,19,32765
5.54958,-3.80347,0.546082,19,32765
5.52905,-3.81558,0.546458,19,32765
5.5085,-3.82765,0.546327,19,32765
5.50418,-3.85101,0.548951,19,32765
5.47547,-3.85709,0.548204,19,32765
5.43868,-3.85727,0.546195,19,32765
5.42624,-3.87459,0.547331,20,32765
5.41391,-3.89175,0.547645,20,32765
5.40144,-3.90896,0.548309,20,32765
5.3163,-3.87354,0.540964,21,32765
5.36813,-3.93769,0.547894,21,32765
6.84939,-2.14831,0.408291,20,32765
6.84239,-2.17085,0.406542,20,32765
6.85446,-2.19915,0.405245,20,32765
6.7999,-2.20581,0.40172,21,32765
6.81176,-2.23399,0.40205,21,32765
6.81388,-2.25957,0.40186,20,32765
6.81595,-2.28511,0.401425,21,32765
6.79904,-2.30417,0.399888,20,32765
6.75375,-2.31331,0.397475,20,32765
6.77447,-2.34512,0.399164,19,32765
6.75723,-2.36436,0.398143,17,32765
6.75881,-2.38995,0.39884,18,32765
6.7133,-2.3987,0.396686,19,32765
6.743,-2.43416,0.399024,19,32765
6.70688,-2.4458,0.397815,19,32765
6.71756,-2.47484,0.398033,20,32765
6.7187,-2.50033,0.399662,21,32765
6.72909,-2.52956,0.400945,21,32765
6.69257,-2.54133,0.400051,20,32765
6.33919,-2.43121,0.37932,24,32765
6.29376,-2.43792,0.377803,30,32765
6.2578,-2.44761,0.376971,32,32765
6.28691,-2.48267,0.379565,26,32765
6.51054,-2.59574,0.394217,19,32765
6.63163,-2.66919,0.403105,19,32765
6.62269,-2.69127,0.403331,19,32765
6.63219,-2.72056,0.406125,19,32765
6.63227,-2.74639,0.4079,19,32765
6.64149,-2.77616,0.409489,19,32765
6.60455,-2.7865,0.409548,19,32765
6.61353,-2.81642,0.411026,19,32765
6.61322,-2.84235,0.412824,19,32765
6.60366,-2.86436,0.413837,18,32765
6.5664,-2.87457,0.414243,18,32765
6.58417,-2.90845,0.416793,19,32765
6.57419,-2.93068,0.418691,19,32765
6.55522,-2.94844,0.419326,19,32765
6.55441,-2.97426,0.421379,18,32765
6.53523,-2.99203,0.422499,18,32765
6.52514,-3.01371,0.424371,18,32765
6.54203,-3.04827,0.427509,18,32765
6.51374,-3.06134,0.428342,18,32765
6.5033,-3.08312,0.430723,18,32765
6.48393,-3.10048,0.430916,17,32765
6.01495,-2.90082,0.402087,16,32765
5.97814,-2.90789,0.40198,23,32765
5.95055,-2.91878,0.401543,23,32765
5.94069,-2.93859,0.40316,23,32765
5.93966,-2.96277,0.40604,22,32765
5.96531,-3.00045,0.41049,21,32765
5.89265,-2.98914,0.407617,21,32765
5.90894,-3.02285,0.411423,21,32765
5.93404,-3.06112,0.41562,22,32765
5.92342,-3.08125,0.418443,21,32765
5.91304,-3.1009,0.42008,21,32765
5.90253,-3.12068,0.421423,22,32765
5.892,-3.14019,0.423829,22,32765
5.88151,-3.15954,0.42568,22,32765
5.87967,-3.18371,0.428299,21,32765
5.86026,-3.19838,0.428768,22,32765
5.86686,-3.22757,0.432249,22,32765
5.83848,-3.23743,0.432842,22,32765
5.84507,-3.26635,0.436116,21,32765
5.83399,-3.2858,0.438331,22,32765
5.82294,-3.30509,0.440287,22,32765
5.82043,-3.32945,0.442499,21,32765
5.80913,-3.34896,0.443743,21,32765
5.90122,-3.42858,0.453839,18,32765
6.30281,-3.69045,0.487442,16,32765
6.29903,-3.7163,0.490148,16,32765
6.27799,-3.732,0.491425,16,32765
6.26563,-3.75254,0.492645,16,32765
6.27033,-3.78313,0.496445,17,32765
6.21511,-3.77775,0.495061,16,32765
6.21965,-3.80838,0.498323,16,32765
6.2409,-3.84991,0.501863,16,32765
6.20258,-3.85471,0.501618,16,32765
6.2066,-3.88572,0.504896,16,32765
6.2019,-3.91168,0.50761,16,32765
6.18057,-3.92654,0.508322,16,32765
6.16756,-3.94672,0.510054,16,32765
6.14612,-3.96144,0.511026,16,32765
6.15819,-3.99763,0.515038,16,32765
6.1535,-4.02289,0.517366,16,32765
6.11535,-4.0263,0.516744,16,32765
6.10194,-4.04635,0.518588,12,32765
5.61572,-3.75062,0.479016,16,32765
5.59499,-3.76344,0.479875,23,32765
5.58261,-3.78166,0.480772,24,32765
5.57851,-3.8052,0.483315,24,32765
5.54969,-3.81185,0.482959,24,32765
5.53731,-3.82965,0.484151,24,32765
5.50851,-3.83608,0.483402,24,32765
5.49599,-3.85377,0.485217,25,32765
5.46726,-3.85983,0.484662,24,32765
5.45482,-3.87733,0.485106,24,32765
5.4423,-3.89474,0.486252,24,32765
5.39752,-3.88867,0.483671,24,32765
5.38503,-3.90587,0.484339,24,32765
5.33209,-3.89385,0.480746,25,32765
5.33562,-3.92274,0.482574,24,32765
6.87881,-2.13757,0.311311,17,32765
6.85269,-2.15359,0.314296,16,32765
6.84561,-2.17556,0.31731,16,32765
6.6862,-2.14878,0.313736,16,32765
6.70749,-2.17996,0.317761,16,32765
6.67161,-2.19286,0.319193,16,32765
6.6927,-2.22427,0.322445,16,32765
6.69488,-2.24884,0.325865,14,32765
6.72528,-2.28339,0.330006,15,32765
6.71772,-2.30512,0.332788,15,32765
6.77601,-2.35033,0.337767,14,32765
6.70204,-2.34978,0.336569,14,32765
6.69416,-2.37188,0.338459,15,32765
6.68625,-2.39369,0.341252,15,32765
6.71574,-2.42935,0.345877,15,32765
6.71689,-2.45509,0.348649,16,32765
6.7367,-2.48784,0.351638,18,32765
6.69084,-2.4963,0.351664,18,32765
6.71053,-2.52887,0.355086,17,32765
6.39405,-2.43353,0.341366,18,32765
6.27405,-2.41164,0.336441,23,32765
6.28464,-2.43941,0.33925,28,32765
6.20215,-2.43077,0.337044,27,32765
6.23118,-2.46583,0.340917,16,32765
6.58457,-2.63094,0.362711,16,32765
6.5941,-2.66055,0.365655,16,32765
6.622,-2.69789,0.369001,16,32765
6.6405,-2.73149,0.372518,16,32765
6.64035,-2.7577,0.375284,17,32765
6.64945,-2.78756,0.377857,18,32765
6.61232,-2.79829,0.378049,18,32765
6.63035,-2.83218,0.381543,18,32765
6.5932,-2.84258,0.381466,16,32765
6.63848,-2.88859,0.386259,16,32765
6.53725,-2.87052,0.383394,15,32765
6.57311,-2.91274,0.387471,15,32765
6.55408,-2.93072,0.388625,16,32765
6.54418,-2.95256,0.390134,16,32765
6.57969,-2.99493,0.394535,15,32765
6.53338,-2.9999,0.394417,15,32765
6.52315,-3.02192,0.39562,15,32765
6.54914,-3.06055,0.399238,15,32765
6.56575,-3.09542,0.402726,15,32765
6.47411,-3.07871,0.399806,15,32765
6.04958,-2.90171,0.375562,13,32765
6.00369,-2.90468,0.375415,19,32765
5.94001,-2.8985,0.373349,19,32765
5.98396,-2.94472,0.378403,19,32765
5.956,-2.95601,0.379015,18,32765
5.93717,-2.97119,0.380184,18,32765
5.95383,-3.0045,0.383794,18,32765
5.94383,-3.02407,0.385106,18,32765
5.95135,-3.05304,0.387852,18,32765
5.94101,-3.07295,0.389091,18,32765
5.91277,-3.08375,0.389829,18,32765
5.8934,-3.09907,0.390511,17,32765
5.90942,-3.13264,0.394176,19,32765
5.89892,-3.15215,0.395804,18,32765
5.90612,-3.18078,0.398458,18,32765
5.89546,-3.20017,0.401077,18,32765
5.85829,-3.20562,0.400671,18,32765
5.87366,-3.23961,0.40436,18,32765
5.86272,-3.25919,0.405738,18,32765
5.83439,-3.26871,0.406712,18,32765
5.85826,-3.30739,0.411765,18,32765
5.82116,-3.31197,0.411129,17,32765
5.81012,-3.33101,0.413545,17,32765
5.8249,-3.36509,0.417467,17,32765
6.2449,-3.6353,0.450935,13,32765
6.30174,-3.69602,0.458233,14,32765
6.315,-3.7322,0.462631,14,32765
6.27673,-3.73767,0.463623,14,32765
6.26419,-3.7583,0.466301,14,32765
6.32836,-3.82562,0.473847,14,32765
6.23903,-3.79931,0.471396,14,32765
6.20927,-3.80949,0.471912,14,32765
6.25597,-3.86645,0.479938,14,32765
6.20082,-3.86042,0.478954,14,32765
6.21329,-3.89658,0.483972,14,32765
6.20031,-3.91685,0.486849,14,32765
6.27141,-3.99066,0.496438,13,32765
6.19099,-3.9679,0.494229,14,32765
6.17791,-3.98789,0.496977,14,32765
6.19815,-4.02971,0.502547,14,32765
6.15147,-4.02775,0.503463,13,32765
6.16277,-4.06469,0.508461,13,32765
5.64219,-3.74833,0.46888,11,32765
5.61301,-3.7556,0.47171,19,32765
5.60888,-3.77933,0.474975,20,32765
5.59638,-3.79735,0.478603,19,32765
5.55903,-3.79862,0.479695,20,32765
5.5463,-3.81675,0.483195,20,32765
5.52532,-3.82917,0.485689,19,32765
5.50445,-3.84125,0.488608,20,32765
5.45115,-3.83,0.488355,19,32765
5.46306,-3.86454,0.494324,20,32765
5.43402,-3.87063,0.495764,20,32765
5.43722,-3.8998,0.502244,20,32765
5.39188,-3.89401,0.503254,20,32765
5.39497,-3.92309,0.509677,19,32765
5.30141,-3.8816,0.506291,22,32765
6.93742,-2.15981,0.245479,12,32765
6.90172,-2.17305,0.248345,13,32765
6.56129,-2.0891,0.239231,13,32765
6.08823,-1.96027,0.225395,16,32765
6.06266,-1.97408,0.227121,19,32765
6.06545,-1.99737,0.230009,20,32765
6.05876,-2.01737,0.231723,20,32765
6.0427,-2.03358,0.234037,19,32765
6.03597,-2.05321,0.236102,19,32765
6.04809,-2.07926,0.239348,18,32765
6.01276,-2.08954,0.23974,17,32765
6.07166,-2.1328,0.244276,18,32765
6.07393,-2.1562,0.246373,20,32765
6.06675,-2.17603,0.24891,18,32765
6.05941,-2.1961,0.251353,18,32765
6.09889,-2.23346,0.255383,16,32765
6.13819,-2.27115,0.258743,16,32765
6.12114,-2.28813,0.260164,17,32765
6.16023,-2.32594,0.263943,21,32765
6.18049,-2.35677,0.267661,24,32765
6.15395,-2.37004,0.267891,25,32765
6.05294,-2.35401,0.265577,28,32765
6.04513,-2.37381,0.267349,28,32765
6.06506,-2.40475,0.270389,28,32765
6.05698,-2.42484,0.272213,26,32765
