x, y, z, intensity, ring
5.22084,-3.68796,-0.319024,21,32765
5.1438,-3.65858,-0.313966,19,32765
0,-0,-0,0,32765
5.33052,-3.84408,-0.324014,15,32765
5.65759,-4.10774,-0.343739,15,32765
5.64436,-4.12593,-0.343314,15,32765
6.69541,-2.05544,-0.606276,16,32765
6.6886,-2.07712,-0.607553,16,32765
6.7291,-2.11411,-0.613311,16,32765
6.68409,-2.1242,-0.610121,16,32765
6.66746,-2.14329,-0.610097,16,32765
6.6696,-2.16895,-0.61129,16,32765
6.65288,-2.18793,-0.610724,16,32765
6.64551,-2.21022,-0.610727,16,32765
6.61932,-2.22584,-0.608573,16,32765
6.62141,-2.25083,-0.6092,17,32765
6.6044,-2.26975,-0.608469,16,32765
6.6063,-2.295,-0.608436,17,32765
6.60785,-2.32087,-0.608862,16,32765
6.54374,-2.32307,-0.603108,17,32765
6.5548,-2.35162,-0.603832,16,32765
6.5469,-2.37357,-0.603601,16,32765
6.53911,-2.39532,-0.602138,17,32765
6.43755,-2.383,-0.592698,16,32765
6.29892,-2.35607,-0.578833,17,32765
6.28168,-2.37387,-0.576887,17,32765
6.29229,-2.40236,-0.577308,17,32765
6.2843,-2.42354,-0.575881,17,32765
6.40621,-2.49527,-0.586637,18,32765
6.45355,-2.53884,-0.589611,18,32765
6.48209,-2.57525,-0.592077,18,32765
6.45496,-2.58981,-0.588846,17,32765
6.44635,-2.61147,-0.587492,18,32765
6.43754,-2.63357,-0.585501,18,32765
6.41019,-2.64801,-0.582259,18,32765
5.94132,-2.4784,-0.538364,17,32765
5.54728,-2.33618,-0.501514,24,32765
5.60362,-2.38232,-0.506003,23,32765
5.6598,-2.42889,-0.509462,20,32765
5.79803,-2.51139,-0.520916,24,32765
5.70742,-2.4953,-0.51123,24,32765
5.65347,-2.49465,-0.505027,20,32765
5.69982,-2.5381,-0.507662,22,32765
5.73671,-2.57805,-0.509869,21,32765
5.73708,-2.60181,-0.50884,22,32765
5.6016,-2.56312,-0.494895,24,32765
5.71071,-2.63647,-0.502952,22,32765
5.70197,-2.65567,-0.501003,18,32765
5.57575,-2.62003,-0.488701,23,32765
5.79221,-2.74583,-0.505578,22,32765
5.675,-2.71409,-0.494138,21,32765
5.56723,-2.68569,-0.482749,22,32765
5.75568,-2.8003,-0.49688,23,32765
5.56733,-2.73193,-0.479359,22,32765
5.719,-2.83055,-0.490956,20,32765
5.62013,-2.80588,-0.48078,22,32765
5.48593,-2.76262,-0.467011,23,32765
5.60089,-2.84501,-0.475346,20,32765
5.59128,-2.8643,-0.472614,22,32765
5.49313,-2.83757,-0.462263,23,32765
5.58101,-2.90678,-0.468079,21,32765
5.33292,-2.80054,-0.445525,21,32765
5.51753,-2.92125,-0.459092,24,32765
5.56936,-2.97283,-0.461918,22,32765
5.3926,-2.90194,-0.445262,23,32765
5.27772,-2.86314,-0.434212,26,32765
5.32073,-2.90975,-0.435408,19,32765
5.91379,-3.25999,-0.482083,18,32765
6.00757,-3.33813,-0.487935,18,32765
6.00514,-3.36337,-0.485847,17,32765
5.994,-3.38363,-0.482694,18,32765
5.98267,-3.40398,-0.480169,17,32765
5.97145,-3.42404,-0.47725,17,32765
5.97729,-3.45427,-0.47584,17,32765
5.94868,-3.46422,-0.471589,17,32765
5.92859,-3.47912,-0.468693,17,32765
5.92566,-3.50422,-0.465874,17,32765
5.9054,-3.51908,-0.46312,17,32765
5.90216,-3.54431,-0.460848,17,32765
5.69404,-3.44538,-0.442854,17,32765
5.36727,-3.27248,-0.416278,22,32765
5.36491,-3.29576,-0.414419,26,32765
5.3711,-3.32409,-0.413106,22,32765
5.36868,-3.34715,-0.411659,23,32765
5.3071,-3.33299,-0.405367,22,32765
5.38896,-3.40921,-0.410545,22,32765
5.28523,-3.36807,-0.400995,22,32765
5.29114,-3.39624,-0.399224,23,32765
5.30498,-3.43025,-0.399354,23,32765
5.29368,-3.44786,-0.397609,20,32765
5.34084,-3.50368,-0.399481,23,32765
5.20428,-3.43908,-0.388291,21,32765
5.3093,-3.5338,-0.394542,23,32765
5.23115,-3.50723,-0.387935,23,32765
5.30241,-3.58038,-0.391664,22,32765
5.16675,-3.51386,-0.380887,22,32765
5.18817,-3.55356,-0.380923,22,32765
5.25056,-3.62158,-0.384518,22,32765
5.2141,-3.62179,-0.381314,23,32765
5.17797,-3.6214,-0.378055,20,32765
5.22354,-3.67832,-0.380203,20,32765
5.2361,-3.71265,-0.380013,22,32765
5.15094,-3.67748,-0.37361,22,32765
5.2361,-3.76441,-0.379556,20,32765
5.39372,-3.90442,-0.390128,17,32765
5.62314,-4.09826,-0.406711,16,32765
5.60991,-4.1164,-0.406275,16,32765
0,-0,-0,0,32765
0,-0,-0,0,32765
6.66751,-2.08292,-0.697231,15,32765
6.70848,-2.12008,-0.69748,14,32765
6.70172,-2.14252,-0.693843,14,32765
6.69479,-2.165,-0.690947,14,32765
6.72582,-2.19953,-0.691033,14,32765
6.68102,-2.20919,-0.684316,14,32765
6.67408,-2.2312,-0.680684,14,32765
6.65759,-2.25008,-0.676158,14,32765
6.6408,-2.2695,-0.672093,14,32765
6.61467,-2.28527,-0.666733,14,32765
6.62594,-2.31428,-0.665952,14,32765
6.59014,-2.32701,-0.659892,14,32765
6.58256,-2.34924,-0.65677,13,32765
6.60289,-2.38179,-0.656865,14,32765
6.57638,-2.39726,-0.652076,14,32765
6.5405,-2.40924,-0.646106,14,32765
6.35531,-2.36513,-0.626296,15,32765
6.31031,-2.37263,-0.619309,14,32765
6.2931,-2.39052,-0.61633,14,32765
6.32239,-2.4264,-0.616454,14,32765
6.48135,-2.513,-0.63034,15,32765
6.53785,-2.56058,-0.634361,15,32765
6.44612,-2.54967,-0.623186,14,32765
6.47472,-2.58616,-0.624309,14,32765
6.48469,-2.6155,-0.623234,14,32765
6.47601,-2.63757,-0.620368,14,32765
6.4303,-2.64476,-0.613853,14,32765
6.15453,-2.55621,-0.586261,14,32765
5.63143,-2.36174,-0.534912,18,32765
5.62363,-2.38078,-0.532548,18,32765
5.68906,-2.43114,-0.536861,15,32765
5.87302,-2.53349,-0.552718,19,32765
5.70009,-2.48192,-0.535399,20,32765
5.82856,-2.56167,-0.545739,18,32765
5.79263,-2.5696,-0.540524,18,32765
5.58378,-2.50013,-0.519961,17,32765
5.85683,-2.64663,-0.543474,18,32765
5.70294,-2.60046,-0.52749,19,32765
5.79382,-2.66572,-0.534415,19,32765
5.77598,-2.68113,-0.530804,20,32765
5.56848,-2.60766,-0.510892,19,32765
5.82111,-2.74998,-0.532862,17,32765
5.7311,-2.73099,-0.522591,21,32765
5.47936,-2.63399,-0.498687,19,32765
5.70364,-2.76589,-0.517654,19,32765
5.64938,-2.76384,-0.511634,20,32765
5.70261,-2.81421,-0.514676,19,32765
5.70203,-2.83824,-0.51312,20,32765
5.54991,-2.78616,-0.498763,19,32765
5.62072,-2.84562,-0.502375,21,32765
0,-0,-0,0,32765
5.55699,-2.86153,-0.494334,19,32765
5.59162,-2.90342,-0.49633,22,32765
5.63502,-2.94996,-0.498702,19,32765
5.39609,-2.84779,-0.476144,19,32765
5.54509,-2.9503,-0.487555,18,32765
5.51766,-2.95973,-0.483585,20,32765
5.34103,-2.88857,-0.466556,21,32765
5.37505,-2.93071,-0.468347,22,32765
5.89843,-3.24176,-0.511915,15,32765
6.07963,-3.36788,-0.525744,16,32765
6.04246,-3.37354,-0.521089,15,32765
6.03139,-3.39374,-0.518167,14,32765
6.07223,-3.4435,-0.519916,15,32765
6.00882,-3.43437,-0.512668,14,32765
6.01464,-3.46469,-0.511475,15,32765
5.95144,-3.4549,-0.503992,14,32765
5.9745,-3.495,-0.503898,14,32765
5.96295,-3.51508,-0.501076,14,32765
5.95159,-3.5348,-0.497357,15,32765
5.95704,-3.56498,-0.496173,14,32765
5.83439,-3.51779,-0.483631,15,32765
5.45622,-3.31461,-0.450522,18,32765
5.36037,-3.28062,-0.440365,19,32765
5.31573,-3.27747,-0.434476,18,32765
5.43207,-3.37423,-0.44189,17,32765
5.29426,-3.31286,-0.428292,17,32765
5.41003,-3.4103,-0.435322,20,32765
5.29782,-3.36407,-0.424503,19,32765
5.28699,-3.38156,-0.420543,19,32765
5.35141,-3.4478,-0.423637,19,32765
5.37374,-3.48725,-0.422428,22,32765
5.29558,-3.46138,-0.413856,22,32765
5.35089,-3.523,-0.415771,21,32765
5.30625,-3.51862,-0.409124,21,32765
5.31977,-3.55274,-0.407604,20,32765
5.29194,-3.55888,-0.402243,21,32765
5.21436,-3.53151,-0.393706,20,32765
5.26879,-3.59386,-0.395075,20,32765
5.2077,-3.57756,-0.387019,21,32765
5.16326,-3.57206,-0.381063,19,32765
5.25835,-3.66307,-0.384746,21,32765
5.1487,-3.61128,-0.373582,20,32765
5.13719,-3.62807,-0.369262,19,32765
5.20691,-3.70281,-0.370542,19,32765
5.20298,-3.72595,-0.366586,20,32765
5.31267,-3.83046,-0.369723,17,32765
5.63986,-4.09418,-0.387326,15,32765
5.64306,-4.12427,-0.382438,15,32765
0,-0,-0,16,32765
0,-0,-0,15,32765
0,-0,-0,13,32765
6.6807,-2.11928,-0.761222,15,32765
6.69289,-2.14777,-0.759742,15,32765
6.64813,-2.158,-0.75256,15,32765
6.66969,-2.18937,-0.751973,15,32765
6.64386,-2.20514,-0.747021,15,32765
6.60866,-2.2176,-0.740234,16,32765
6.62992,-2.24909,-0.739846,16,32765
6.62255,-2.2717,-0.736739,16,32765
6.60586,-2.29072,-0.732236,16,32765
6.59832,-2.3132,-0.729561,16,32765
6.55319,-2.32254,-0.722194,16,32765
6.56436,-2.35142,-0.721138,15,32765
6.57529,-2.38061,-0.720487,16,32765
6.56751,-2.40288,-0.717557,16,32765
6.52232,-2.41141,-0.710287,16,32765
6.31873,-2.36018,-0.68668,16,32765
6.32965,-2.38867,-0.685379,16,32765
6.28452,-2.39605,-0.679278,17,32765
6.25803,-2.41053,-0.673772,16,32765
6.39827,-2.48991,-0.687358,17,32765
6.48254,-2.54825,-0.695029,17,32765
6.45571,-2.56284,-0.689953,17,32765
6.41957,-2.57353,-0.684541,17,32765
6.45722,-2.61397,-0.68661,17,32765
6.43013,-2.62848,-0.681793,17,32765
6.43971,-2.65833,-0.680753,17,32765
6.22856,-2.59643,-0.657236,17,32765
5.62349,-2.36704,-0.591946,22,32765
5.58819,-2.37443,-0.586692,24,32765
5.63525,-2.41695,-0.589842,21,32765
5.67282,-2.45607,-0.592401,23,32765
5.71018,-2.49541,-0.595337,22,32765
5.66535,-2.49904,-0.589065,24,32765
5.62058,-2.5024,-0.582693,23,32765
5.53937,-2.48932,-0.573291,24,32765
5.63978,-2.55787,-0.581922,22,32765
5.57692,-2.5523,-0.573852,23,32765
5.5503,-2.56303,-0.569777,23,32765
5.51476,-2.56924,-0.564334,18,32765
5.54223,-2.60487,-0.56639,14,32765
5.52454,-2.61944,-0.563521,18,32765
5.43509,-2.59943,-0.552552,23,32765
5.50704,-2.657,-0.559,21,32765
5.48911,-2.67162,-0.555877,20,32765
5.32797,-2.61616,-0.538612,16,32765
5.47976,-2.71417,-0.552338,13,32765
5.4706,-2.73305,-0.550062,21,32765
5.44356,-2.74283,-0.546781,22,32765
5.35456,-2.72085,-0.535307,21,32765
5.42501,-2.78029,-0.541922,24,32765
5.39793,-2.78987,-0.537551,23,32765
5.32672,-2.77608,-0.529519,23,32765
5.37927,-2.82647,-0.533421,24,32765
5.36999,-2.84449,-0.531188,24,32765
5.29026,-2.82513,-0.521738,25,32765
5.30713,-2.85734,-0.521998,22,32765
5.3325,-2.89464,-0.523044,20,32765
5.2965,-2.8986,-0.518447,24,32765
5.88019,-3.24374,-0.573659,17,32765
6.06108,-3.37008,-0.589524,17,32765
6.01524,-3.37084,-0.583744,17,32765
6.00417,-3.39101,-0.580823,17,32765
6.01895,-3.42602,-0.580622,16,32765
5.96432,-3.42166,-0.573661,17,32765
5.96153,-3.44693,-0.571834,17,32765
5.95013,-3.46706,-0.568748,16,32765
5.93872,-3.48708,-0.565738,17,32765
5.92718,-3.5071,-0.56292,17,32765
5.9501,-3.54717,-0.562449,16,32765
5.90421,-3.54664,-0.556604,17,32765
5.79886,-3.50952,-0.544477,16,32765
5.39581,-3.29026,-0.505002,21,32765
5.35964,-3.29255,-0.499483,22,32765
5.37436,-3.32613,-0.498718,24,32765
5.44802,-3.39693,-0.503567,23,32765
5.37789,-3.37793,-0.494773,24,32765
5.33316,-3.37457,-0.488467,23,32765
5.33054,-3.39769,-0.486541,23,32765
5.40351,-3.46921,-0.490155,23,32765
5.30005,-3.42769,-0.478875,24,32765
5.38087,-3.50517,-0.483314,25,32765
5.26109,-3.45194,-0.470259,22,32765
5.28303,-3.4916,-0.469961,22,32765
5.26346,-3.50359,-0.465186,24,32765
5.26042,-3.52655,-0.462501,22,32765
5.23271,-3.53253,-0.456988,23,32765
5.24607,-3.56662,-0.455618,23,32765
5.16036,-3.53342,-0.44561,18,32765
5.16526,-3.56205,-0.442707,21,32765
5.24383,-3.64177,-0.446871,21,32765
5.18318,-3.62463,-0.438535,21,32765
5.20436,-3.6644,-0.437274,21,32765
5.12758,-3.63527,-0.427466,23,32765
5.14029,-3.66957,-0.424965,23,32765
5.20938,-3.74498,-0.427124,23,32765
5.27838,-3.82049,-0.428346,18,32765
5.62111,-4.0964,-0.451145,16,32765
5.62429,-4.12651,-0.446447,15,32765
0,-0,-0,0,32765
0,-0,-0,0,32765
0,-0,-0,0,32765
6.66469,-2.10933,-0.743983,14,32765
6.68603,-2.14071,-0.746979,13,32765
6.67875,-2.16339,-0.746794,13,32765
6.67149,-2.18581,-0.746358,13,32765
6.71141,-2.22372,-0.751041,14,32765
6.66635,-2.23337,-0.746148,14,32765
6.64014,-2.24898,-0.743719,14,32765
6.59513,-2.25804,-0.738661,13,32765
6.6817,-2.31253,-0.747811,14,32765
6.58008,-2.30211,-0.736863,14,32765
6.6006,-2.33425,-0.738224,14,32765
6.60211,-2.35986,-0.738767,14,32765
6.58464,-2.37928,-0.737016,13,32765
6.52999,-2.38468,-0.729817,14,32765
6.54996,-2.41727,-0.731595,13,32765
6.45804,-2.40807,-0.720984,14,32765
6.36636,-2.39804,-0.710259,14,32765
6.32127,-2.40526,-0.704488,14,32765
6.35043,-2.44079,-0.707236,14,32765
6.35155,-2.46594,-0.706721,14,32765
6.48215,-2.54218,-0.72046,15,32765
6.49213,-2.57154,-0.721009,14,32765
6.48339,-2.59406,-0.719004,15,32765
6.45624,-2.60868,-0.715355,14,32765
6.42909,-2.62319,-0.711344,15,32765
6.43878,-2.65254,-0.711424,15,32765
6.43008,-2.67402,-0.709709,15,32765
5.74246,-2.41061,-0.632974,18,32765
5.61546,-2.37931,-0.618328,23,32765
5.635,-2.41022,-0.618993,21,32765
5.62689,-2.42965,-0.61686,22,32765
5.59131,-2.43719,-0.611826,23,32765
5.61044,-2.46846,-0.612564,20,32765
5.47495,-2.43085,-0.596934,19,32765
5.51236,-2.46958,-0.599997,20,32765
5.50408,-2.48839,-0.598238,21,32765
5.50495,-2.51111,-0.596847,21,32765
5.55981,-2.55915,-0.601467,20,32765
0,-0,-0,0,32765
0,-0,-0,0,32765
5.50681,-2.6036,-0.592233,18,32765
5.4713,-2.60935,-0.586734,17,32765
5.46252,-2.6281,-0.584898,20,32765
5.4987,-2.66819,-0.587021,21,32765
5.48093,-2.68246,-0.583773,20,32765
5.42733,-2.67906,-0.577205,15,32765
0,-0,-0,0,32765
5.47161,-2.74753,-0.578833,24,32765
5.39124,-2.73047,-0.569162,20,32765
5.39977,-2.75818,-0.56833,21,32765
5.37271,-2.76774,-0.564366,20,32765
5.38122,-2.79517,-0.5636,20,32765
5.42474,-2.8414,-0.566695,20,32765
5.37127,-2.83651,-0.560066,19,32765
5.40592,-2.87813,-0.561176,18,32765
5.32601,-2.85895,-0.55217,21,32765
5.3429,-2.89106,-0.552408,18,32765
5.37701,-2.9331,-0.55423,21,32765
0,-0,-0,0,32765
6.04591,-3.35052,-0.620153,16,32765
6.03473,-3.37108,-0.617637,15,32765
6.02358,-3.39153,-0.614512,14,32765
6.02949,-3.42203,-0.613705,14,32765
6.03547,-3.45223,-0.612841,14,32765
6.02406,-3.47262,-0.609905,14,32765
5.99533,-3.483,-0.60525,14,32765
5.96675,-3.49294,-0.600744,14,32765
6.00646,-3.54369,-0.603937,15,32765
5.96047,-3.54366,-0.597377,15,32765
5.93158,-3.55363,-0.593044,14,32765
5.97093,-3.60466,-0.595328,15,32765
5.53338,-3.36589,-0.549966,19,32765
5.48823,-3.3638,-0.54389,22,32765
5.43481,-3.35595,-0.537115,21,32765
5.42373,-3.37418,-0.534977,20,32765
5.42108,-3.39769,-0.532889,19,32765
5.38476,-3.39964,-0.528164,21,32765
5.40714,-3.43921,-0.528715,21,32765
5.39594,-3.45716,-0.526121,20,32765
5.35116,-3.45341,-0.520728,18,32765
5.36487,-3.48761,-0.520737,19,32765
5.37014,-3.51632,-0.520328,22,32765
5.33361,-3.51783,-0.51528,20,32765
5.30541,-3.52467,-0.511245,20,32765
5.36862,-3.59196,-0.515923,21,32765
5.208,-3.50961,-0.499398,19,32765
5.29553,-3.59399,-0.506914,19,32765
5.2097,-3.56096,-0.497508,20,32765
5.32946,-3.66869,-0.507608,19,32765
5.28465,-3.6637,-0.502219,19,32765
5.21541,-3.64129,-0.494841,19,32765
5.22012,-3.66964,-0.494052,19,32765
5.19189,-3.67532,-0.490563,19,32765
5.20432,-3.70963,-0.491725,20,32765
0,-0,-0,0,32765
5.21273,-3.76687,-0.490535,18,32765
5.64407,-4.10639,-0.531035,15,32765
5.63069,-4.125,-0.528885,14,32765
0,-0,-0,14,32765
0,-0,-0,14,32765
0,-0,-0,13,32765
0,-0,-0,0,32765
0,-0,-0,0,32765
6.82049,-2.21785,-0.830927,11,32765
6.72811,-2.21289,-0.82012,11,32765
6.68303,-2.22288,-0.814911,12,32765
6.67566,-2.24513,-0.814234,12,32765
6.593,-2.24163,-0.804723,12,32765
6.67018,-2.29254,-0.814198,13,32765
6.5782,-2.28548,-0.802503,13,32765
6.57052,-2.30762,-0.802064,13,32765
6.56289,-2.32985,-0.800273,14,32765
6.59243,-2.36547,-0.804326,14,32765
6.5656,-2.38153,-0.801333,14,32765
6.55765,-2.40398,-0.799352,15,32765
6.55887,-2.42986,-0.799124,16,32765
6.4205,-2.40327,-0.781998,15,32765
6.29177,-2.37905,-0.765911,16,32765
6.2932,-2.40377,-0.765423,16,32765
6.30376,-2.43215,-0.766285,16,32765
6.27712,-2.44639,-0.762492,16,32765
6.42606,-2.52984,-0.779879,17,32765
6.4545,-2.56644,-0.782857,17,32765
6.45499,-2.5926,-0.781971,17,32765
6.41867,-2.60343,-0.777018,16,32765
6.42835,-2.63293,-0.777271,16,32765
6.4196,-2.65477,-0.775309,16,32765
6.42005,-2.68007,-0.774696,17,32765
5.71515,-2.40833,-0.688877,20,32765
5.63407,-2.39634,-0.67853,23,32765
5.61698,-2.41171,-0.675065,23,32765
5.5815,-2.41927,-0.669648,24,32765
5.5642,-2.43465,-0.666524,22,32765
5.61967,-2.48199,-0.671891,23,32765
5.55697,-2.47671,-0.663625,23,32765
5.57601,-2.50767,-0.664951,25,32765
5.55855,-2.52264,-0.662084,35,32765
5.53217,-2.5332,-0.65753,36,32765
5.56881,-2.5731,-0.660637,40,32765
5.54211,-2.58388,-0.656589,36,32765
5.52449,-2.59874,-0.652793,35,32765
5.47976,-2.60074,-0.646843,35,32765
5.48915,-2.6279,-0.64635,40,32765
5.51611,-2.66407,-0.648709,37,32765
5.51635,-2.68702,-0.647066,41,32765
5.46281,-2.68385,-0.639527,36,32765
5.44492,-2.69807,-0.63666,36,32765
5.4182,-2.70779,-0.631765,40,32765
5.47121,-2.75788,-0.636832,44,32765
5.42638,-2.75884,-0.63053,39,32765
5.47019,-2.80491,-0.633958,42,32765
5.38114,-2.78276,-0.622615,29,32765
5.43367,-2.83329,-0.627109,26,32765
5.34489,-2.81038,-0.615514,21,32765
5.38828,-2.85647,-0.61956,22,32765
5.38769,-2.87951,-0.61709,23,32765
5.37797,-2.898,-0.615357,23,32765
5.28976,-2.87337,-0.60386,25,32765
5.29766,-2.90101,-0.603179,24,32765
5.47108,-3.01982,-0.621626,20,32765
6.02641,-3.35266,-0.683359,19,32765
6.03257,-3.38296,-0.682802,17,32765
5.98672,-3.38388,-0.675754,16,32765
6.0272,-3.43404,-0.679031,16,32765
5.99859,-3.4445,-0.674458,16,32765
5.9872,-3.46482,-0.671527,16,32765
5.97572,-3.48515,-0.668616,16,32765
5.98148,-3.51524,-0.667752,17,32765
5.91822,-3.5053,-0.66002,16,32765
5.9408,-3.54581,-0.660728,17,32765
5.94605,-3.57628,-0.659992,16,32765
5.91712,-3.5862,-0.655267,16,32765
5.49742,-3.35717,-0.607179,22,32765
5.44387,-3.34976,-0.599803,23,32765
5.3398,-3.31029,-0.586994,23,32765
5.40486,-3.37573,-0.593222,23,32765
5.40219,-3.39924,-0.591223,22,32765
5.38272,-3.41182,-0.588054,21,32765
5.32946,-3.40325,-0.580731,22,32765
5.31836,-3.421,-0.578162,22,32765
5.34897,-3.46575,-0.580581,23,32765
5.32923,-3.47825,-0.577242,23,32765
5.28454,-3.4741,-0.571616,22,32765
5.19838,-3.44236,-0.560943,22,32765
5.25331,-3.50405,-0.565694,21,32765
5.26681,-3.538,-0.565884,24,32765
5.28815,-3.57797,-0.567196,22,32765
5.17769,-3.52818,-0.554611,21,32765
5.19898,-3.568,-0.55583,22,32765
5.17912,-3.57963,-0.552532,21,32765
5.28184,-3.6766,-0.562498,25,32765
5.22897,-3.6656,-0.556198,23,32765
5.13588,-3.62513,-0.545204,20,32765
5.21338,-3.7056,-0.552741,24,32765
5.20133,-3.72268,-0.551583,19,32765
5.19751,-3.74548,-0.549746,22,32765
5.18536,-3.76251,-0.548177,19,32765
5.61573,-4.10262,-0.593729,15,32765
5.61037,-4.1271,-0.592421,16,32765
0,-0,-0,0,32765
0,-0,-0,0,32765
0,-0,-0,0,32765
0,-0,-0,0,32765
0,-0,-0,0,32765
0,-0,-0,0,32765
0,-0,-0,0,32765
0,-0,-0,0,32765
0,-0,-0,0,32765
0,-0,-0,0,32765
0,-0,-0,0,32765
0,-0,-0,0,32765
0,-0,-0,0,32765
0,-0,-0,0,32765
0,-0,-0,0,32765
0,-0,-0,0,32765
0,-0,-0,0,32765
0,-0,-0,0,32765
0,-0,-0,0,32765
0,-0,-0,0,32765
6.38413,-2.42916,-0.822481,11,32765
6.32969,-2.43326,-0.814359,11,32765
6.32161,-2.45493,-0.812069,12,32765
6.52608,-2.56004,-0.836683,13,32765
6.47171,-2.56365,-0.827478,13,32765
6.50925,-2.60423,-0.83139,13,32765
6.45474,-2.60748,-0.823116,13,32765
6.45536,-2.63303,-0.822167,14,32765
6.42833,-2.64756,-0.816656,14,32765
6.40104,-2.66237,-0.811705,14,32765
5.87901,-2.46967,-0.744525,15,32765
5.61464,-2.38148,-0.709928,19,32765
5.5975,-2.39696,-0.706724,18,32765
5.59867,-2.42008,-0.705471,19,32765
5.59069,-2.43912,-0.70317,19,32765
5.60984,-2.47029,-0.704487,18,32765
5.52902,-2.45721,-0.692925,20,32765
5.56609,-2.49649,-0.69701,18,32765
5.5398,-2.50723,-0.691976,27,32765
5.63085,-2.57163,-0.702272,30,32765
5.54998,-2.55785,-0.691086,32,32765
5.48743,-2.55172,-0.681892,36,32765
5.50586,-2.58314,-0.683573,38,32765
5.49734,-2.60188,-0.681049,36,32765
5.48878,-2.62057,-0.678434,38,32765
5.47099,-2.63527,-0.675039,37,32765
5.46222,-2.65399,-0.672746,40,32765
5.47119,-2.68151,-0.672724,38,32765
5.43546,-2.68715,-0.667106,38,32765
5.45327,-2.71902,-0.66761,42,32765
5.48849,-2.76023,-0.670827,34,32765
5.47051,-2.77437,-0.667294,27,32765
5.45232,-2.78882,-0.663508,27,32765
5.4341,-2.80308,-0.660193,26,32765
5.46886,-2.84467,-0.662884,20,32765
5.38007,-2.82191,-0.650966,21,32765
5.3621,-2.83538,-0.646935,19,32765
5.27384,-2.8113,-0.635012,20,32765
5.34347,-2.87145,-0.641935,21,32765
5.34284,-2.89412,-0.640431,20,32765
5.31583,-2.90281,-0.635388,20,32765
5.32364,-2.93053,-0.634802,20,32765
6.00979,-3.33465,-0.714594,16,32765
6.05965,-3.38893,-0.718486,15,32765
6.04867,-3.40925,-0.714845,14,32765
6.0373,-3.42993,-0.712037,14,32765
6.00876,-3.44063,-0.70601,14,32765
6.03176,-3.48105,-0.707215,14,32765
6.00308,-3.49172,-0.700948,14,32765
5.97451,-3.50188,-0.695486,14,32765
5.98015,-3.53228,-0.693663,14,32765
5.93436,-3.53216,-0.68619,14,32765
5.97405,-3.58284,-0.688503,14,32765
5.91124,-3.5721,-0.678896,14,32765
5.51707,-3.35901,-0.631745,15,32765
5.44677,-3.34115,-0.621193,19,32765
0,-0,-0,0,32765
5.35748,-3.33554,-0.605924,22,32765
5.29602,-3.3218,-0.596835,20,32765
5.41172,-3.4189,-0.607713,20,32765
5.35877,-3.41014,-0.599069,22,32765
5.29754,-3.39562,-0.590082,19,32765
5.32013,-3.43484,-0.589635,19,32765
5.28399,-3.43629,-0.5833,20,32765
5.30625,-3.47578,-0.582714,21,32765
5.31991,-3.50999,-0.581822,18,32765
5.30859,-3.52778,-0.577624,21,32765
5.31368,-3.55673,-0.575219,19,32765
5.26079,-3.54677,-0.566932,20,32765
5.27434,-3.58088,-0.564507,19,32765
5.28741,-3.61536,-0.563334,20,32765
5.18566,-3.57062,-0.549528,19,32765
5.27263,-3.65569,-0.555799,19,32765
5.26922,-3.67866,-0.552526,21,32765
5.274,-3.70734,-0.549046,19,32765
5.1807,-3.66741,-0.536039,20,32765
5.16909,-3.68448,-0.531126,20,32765
5.26268,-3.77694,-0.537503,20,32765
5.16988,-3.73604,-0.523737,19,32765
5.64141,-4.10518,-0.567453,14,32765
5.64432,-4.13588,-0.56263,14,32765
0,-0,-0,0,32765
0,-0,-0,0,32765
0,-0,-0,0,32765
0,-0,-0,0,32765
0,-0,-0,0,32765
0,-0,-0,0,32765
0,-0,-0,0,32765
0,-0,-0,0,32765
0,-0,-0,0,32765
0,-0,-0,0,32765
0,-0,-0,0,32765
0,-0,-0,0,32765
0,-0,-0,0,32765
0,-0,-0,0,32765
0,-0,-0,0,32765
0,-0,-0,0,32765
0,-0,-0,0,32765
0,-0,-0,0,32765
0,-0,-0,0,32765
0,-0,-0,0,32765
0,-0,-0,0,32765
0,-0,-0,0,32765
0,-0,-0,0,32765
0,-0,-0,0,32765
0,-0,-0,0,32765
0,-0,-0,0,32765
0,-0,-0,0,32765
0,-0,-0,0,32765
0,-0,-0,0,32765
6.39914,-2.67226,-0.877586,11,32765
5.97852,-2.52155,-0.818986,11,32765
5.5501,-2.36354,-0.759271,12,32765
5.59684,-2.40629,-0.764706,13,32765
2.34841,-1.0192,-0.320313,14,32765
2.32687,-1.01924,-0.316868,14,32765
2.26902,-1.00317,-0.308581,14,32765
5.54642,-2.47482,-0.752959,19,32765
5.52904,-2.48981,-0.750126,22,32765
5.59317,-2.54152,-0.757147,24,32765
5.52152,-2.5318,-0.746475,24,32765
5.51298,-2.55098,-0.744311,23,32765
5.55848,-2.59511,-0.749113,38,32765
5.55874,-2.6184,-0.748621,50,32765
5.50528,-2.61608,-0.740036,48,32765
5.51457,-2.64344,-0.739809,51,32765
5.53247,-2.67557,-0.741088,51,32765
5.51463,-2.69021,-0.737565,51,32765
5.49671,-2.70483,-0.734126,51,32765
5.48764,-2.72383,-0.731767,51,32765
5.48752,-2.74708,-0.730147,54,32765
5.43391,-2.74376,-0.722022,35,32765
5.42485,-2.76226,-0.719584,23,32765
5.35371,-2.74939,-0.7087,23,32765
5.44146,-2.81816,-0.719312,25,32765
5.40565,-2.82311,-0.713158,23,32765
5.40496,-2.84639,-0.712001,24,32765
5.3957,-2.86465,-0.709005,23,32765
5.38633,-2.88284,-0.706565,24,32765
5.36813,-2.89634,-0.702806,23,32765
5.28886,-2.87645,-0.691107,23,32765
5.31421,-2.91365,-0.692711,23,32765
5.34803,-2.95585,-0.695692,20,32765
5.9633,-3.32223,-0.773826,18,32765
6.02174,-3.38135,-0.779498,16,32765
5.95889,-3.37225,-0.769168,16,32765
5.99943,-3.42224,-0.773061,16,32765
5.98819,-3.44276,-0.769074,16,32765
5.94231,-3.44335,-0.761823,16,32765
5.96529,-3.48384,-0.761999,16,32765
5.97105,-3.51408,-0.760726,16,32765
5.94242,-3.52427,-0.754732,16,32765
5.93086,-3.54445,-0.751221,16,32765
5.93633,-3.57473,-0.749772,16,32765
5.90766,-3.5845,-0.743902,16,32765
5.48878,-3.35543,-0.689396,18,32765
5.40168,-3.32703,-0.676086,21,32765
5.44157,-3.37673,-0.67867,23,32765
5.36324,-3.35279,-0.666403,23,32765
5.35232,-3.37086,-0.662999,23,32765
5.4172,-3.4364,-0.668986,24,32765
5.42297,-3.46516,-0.66708,24,32765
5.3784,-3.46161,-0.659538,24,32765
5.35897,-3.47415,-0.654286,24,32765
5.28944,-3.454,-0.643581,25,32765
5.27833,-3.47174,-0.639316,22,32765
5.30025,-3.51145,-0.639706,22,32765
5.27238,-3.51818,-0.63352,20,32765
5.27747,-3.54709,-0.631313,22,32765
5.32359,-3.60397,-0.634362,23,32765
5.21357,-3.55428,-0.617526,21,32765
5.25129,-3.60556,-0.619563,23,32765
5.1334,-3.54932,-0.602836,21,32765
5.23657,-3.64577,-0.612147,22,32765
5.20058,-3.64584,-0.605185,21,32765
5.11597,-3.61123,-0.591596,20,32765
5.2017,-3.69763,-0.598327,22,32765
5.12523,-3.66846,-0.585973,23,32765
5.12171,-3.69112,-0.58254,21,32765
5.18252,-3.76083,-0.585284,20,32765
5.62073,-4.10724,-0.630875,15,32765
5.58351,-4.10845,-0.621776,15,32765
0,-0,-0,0,32765
0,-0,-0,0,32765
0,-0,-0,0,32765
0,-0,-0,0,32765
0,-0,-0,0,32765
0,-0,-0,0,32765
0,-0,-0,0,32765
0,-0,-0,0,32765
0,-0,-0,0,32765
0,-0,-0,0,32765
0,-0,-0,0,32765
0,-0,-0,0,32765
0,-0,-0,0,32765
0,-0,-0,0,32765
0,-0,-0,0,32765
0,-0,-0,0,32765
0,-0,-0,0,32765
0,-0,-0,0,32765
0,-0,-0,0,32765
0,-0,-0,0,32765
0,-0,-0,0,32765
0,-0,-0,0,32765
0,-0,-0,0,32765
0,-0,-0,0,32765
0,-0,-0,0,32765
0,-0,-0,0,32765
0,-0,-0,0,32765
0,-0,-0,0,32765
0,-0,-0,0,32765
0,-0,-0,0,32765
0,-0,-0,0,32765
0,-0,-0,0,32765
0,-0,-0,0,32765
0,-0,-0,0,32765
0,-0,-0,0,32765
2.1961,-0.967849,-0.311154,13,32765
2.21099,-0.983531,-0.312734,13,32765
2.23484,-1.00334,-0.31578,14,32765
2.34893,-1.06428,-0.331404,15,32765
2.25521,-1.0311,-0.317588,13,32765
2.2608,-1.04299,-0.317917,13,32765
5.52194,-2.57022,-0.775715,19,32765
5.52254,-2.59319,-0.77425,38,32765
5.53191,-2.62061,-0.774128,44,32765
5.61267,-2.6825,-0.784285,47,32765
5.55012,-2.67602,-0.774072,52,32765
5.5412,-2.69518,-0.771498,50,32765
5.51461,-2.70516,-0.766318,48,32765
5.50576,-2.72402,-0.763201,52,32765
5.51453,-2.75177,-0.762751,51,32765
5.46973,-2.75339,-0.754833,41,32765
5.32767,-2.70516,-0.733757,19,32765
5.47774,-2.80498,-0.75267,20,32765
5.45092,-2.81445,-0.747537,20,32765
5.3889,-2.80543,-0.737393,20,32765
5.39723,-2.83318,-0.736594,21,32765
5.40525,-2.86126,-0.736256,22,32765
5.38692,-2.87541,-0.731842,18,32765
5.36856,-2.8893,-0.728087,21,32765
5.29801,-2.87441,-0.716764,20,32765
0,-0,-0,0,32765
5.31399,-2.92947,-0.715381,18,32765
5.80794,-3.22718,-0.780502,16,32765
6.01395,-3.36842,-0.806059,15,32765
6.03741,-3.40851,-0.807584,15,32765
6.04331,-3.43913,-0.806684,14,32765
5.99747,-3.44014,-0.798392,14,32765
6.02064,-3.48041,-0.799095,15,32765
5.97479,-3.4809,-0.791751,14,32765
5.96349,-3.50095,-0.788446,15,32765
5.96907,-3.53123,-0.788056,14,32765
5.97452,-3.56158,-0.787508,15,32765
5.94606,-3.57135,-0.78122,15,32765
5.95131,-3.6018,-0.78035,15,32765
5.77828,-3.52359,-0.756223,15,32765
5.34335,-3.28301,-0.697521,20,32765
5.42549,-3.35866,-0.706988,22,32765
5.33875,-3.32944,-0.693885,20,32765
5.38685,-3.38426,-0.699011,18,32765
5.40955,-3.42342,-0.700428,22,32765
5.23915,-3.33992,-0.677328,21,32765
5.34526,-3.43281,-0.690036,21,32765
5.37583,-3.47775,-0.692347,21,32765
5.38104,-3.50676,-0.691837,21,32765
5.36124,-3.51936,-0.688284,20,32765
5.25019,-3.4715,-0.673118,20,32765
5.32982,-3.54974,-0.682576,21,32765
5.28533,-3.5452,-0.675937,22,32765
5.35628,-3.6184,-0.683695,20,32765
5.36111,-3.64723,-0.683133,20,32765
5.29152,-3.62602,-0.674053,19,32765
5.27143,-3.63818,-0.670217,19,32765
5.21871,-3.62743,-0.662506,20,32765
5.30465,-3.71317,-0.673174,19,32765
5.19522,-3.66164,-0.658921,21,32765
5.23216,-3.71317,-0.662834,20,32765
5.22016,-3.73029,-0.661298,19,32765
5.18379,-3.73013,-0.656448,19,32765
5.1876,-3.75911,-0.65689,19,32765
5.45649,-3.98159,-0.691252,14,32765
5.65203,-4.15262,-0.716111,14,32765
6.70825,-2.0584,-1.01513,11,32765
6.90912,-2.14506,-1.04825,12,32765
6.73203,-2.11434,-1.02284,11,32765
6.75302,-2.14593,-1.02826,11,32765
6.74574,-2.16838,-1.02892,11,32765
6.85132,-2.22772,-1.04649,11,32765
6.70285,-2.20412,-1.02495,11,32765
6.61095,-2.1984,-1.01192,11,32765
0,-0,-0,0,32765
0,-0,-0,0,32765
0,-0,-0,0,32765
0,-0,-0,0,32765
0,-0,-0,0,32765
0,-0,-0,0,32765
0,-0,-0,0,32765
0,-0,-0,0,32765
0,-0,-0,0,32765
0,-0,-0,0,32765
0,-0,-0,0,32765
0,-0,-0,0,32765
0,-0,-0,0,32765
0,-0,-0,0,32765
0,-0,-0,0,32765
0,-0,-0,0,32765
0,-0,-0,0,32765
0,-0,-0,0,32765
0,-0,-0,0,32765
0,-0,-0,0,32765
0,-0,-0,0,32765
0,-0,-0,0,32765
0,-0,-0,0,32765
0,-0,-0,0,32765
0,-0,-0,0,32765
0,-0,-0,0,32765
0,-0,-0,0,32765
0,-0,-0,0,32765
0,-0,-0,0,32765
0,-0,-0,0,32765
0,-0,-0,0,32765
2.00771,-0.921779,-0.303853,11,32765
0,-0,-0,0,32765
2.09133,-0.977492,-0.315849,11,32765
2.04333,-0.963484,-0.308057,12,32765
1.91488,-0.910919,-0.288224,11,32765
2.04584,-0.981866,-0.307551,12,32765
2.12285,-1.02782,-0.318598,12,32765
2.20847,-1.07867,-0.330954,13,32765
2.14272,-1.0555,-0.32056,13,32765
2.24579,-1.11577,-0.335246,14,32765
5.39702,-2.70439,-0.804109,20,32765
5.42322,-2.7414,-0.806399,20,32765
5.30797,-2.70643,-0.787886,18,32765
5.41362,-2.78374,-0.801925,18,32765
5.41331,-2.80672,-0.800533,20,32765
5.45688,-2.85271,-0.805408,21,32765
2.2018,-1.16063,-0.324221,18,32765
2.25043,-1.19625,-0.330827,15,32765
5.34074,-2.8627,-0.783314,22,32765
5.36606,-2.90006,-0.785865,24,32765
5.26076,-2.86617,-0.768796,22,32765
5.31228,-2.91746,-0.774728,20,32765
5.33748,-2.95477,-0.776638,23,32765
5.71765,-3.19036,-0.830707,18,32765
6.04438,-3.3997,-0.876152,16,32765
6.03313,-3.42042,-0.873018,16,32765
6.02173,-3.44127,-0.8698,16,32765
5.99314,-3.45214,-0.863617,16,32765
5.98188,-3.47258,-0.859741,16,32765
6.00464,-3.51305,-0.861869,16,32765
5.9505,-3.50808,-0.852408,15,32765
5.93893,-3.52826,-0.849751,15,32765
5.95287,-3.5637,-0.850602,16,32765
5.95843,-3.59394,-0.848974,15,32765
5.92116,-3.59874,-0.842232,15,32765
5.68922,-3.48402,-0.807944,16,32765
5.39901,-3.3313,-0.765041,22,32765
5.42175,-3.37062,-0.767125,22,32765
5.40245,-3.38352,-0.762687,23,32765
5.44184,-3.43339,-0.767227,22,32765
5.37211,-3.41424,-0.755993,22,32765
5.34427,-3.4215,-0.751135,22,32765
5.38306,-3.4719,-0.755691,19,32765
5.28015,-3.43051,-0.739755,24,32765
5.33533,-3.49191,-0.746437,23,32765
5.32388,-3.50987,-0.743957,24,32765
5.34548,-3.54975,-0.746173,23,32765
5.32555,-3.56221,-0.742765,22,32765
5.32227,-3.58542,-0.741486,23,32765
5.27779,-3.58083,-0.734116,23,32765
5.27449,-3.60387,-0.732621,22,32765
5.28701,-3.63868,-0.734279,23,32765
5.28322,-3.66221,-0.732602,22,32765
5.21421,-3.64013,-0.722154,21,32765
5.24295,-3.68604,-0.726029,22,32765
5.23926,-3.70887,-0.725278,23,32765
5.1869,-3.69723,-0.717394,22,32765
5.19915,-3.73164,-0.719206,21,32765
5.25141,-3.79546,-0.726326,22,32765
5.20673,-3.78967,-0.720245,19,32765
5.56296,-4.07728,-0.769991,15,32765
5.6057,-4.13689,-0.776142,16,32765
6.87812,-2.10202,-1.12755,11,32765
6.86179,-2.12195,-1.12518,11,32765
6.80808,-2.12967,-1.1149,11,32765
6.85768,-2.17039,-1.12253,11,32765
6.85073,-2.19349,-1.12003,11,32765
6.78718,-2.19848,-1.10873,11,32765
6.72365,-2.20307,-1.09758,11,32765
6.72596,-2.22888,-1.09656,12,32765
6.85004,-2.29546,-1.11532,12,32765
6.63681,-2.24868,-1.07904,12,32765
6.76046,-2.31619,-1.09744,11,32765
6.65951,-2.30709,-1.07943,11,32765
6.74526,-2.36266,-1.0919,12,32765
6.77489,-2.39904,-1.09471,11,32765
6.68337,-2.39199,-1.07858,11,32765
0,-0,-0,0,32765
0,-0,-0,0,32765
0,-0,-0,0,32765
0,-0,-0,0,32765
0,-0,-0,0,32765
0,-0,-0,0,32765
0,-0,-0,0,32765
0,-0,-0,0,32765
0,-0,-0,0,32765
0,-0,-0,0,32765
0,-0,-0,0,32765
0,-0,-0,0,32765
0,-0,-0,0,32765
0,-0,-0,0,32765
0,-0,-0,0,32765
0,-0,-0,0,32765
0,-0,-0,0,32765
0,-0,-0,0,32765
0,-0,-0,0,32765
0,-0,-0,0,32765
0,-0,-0,0,32765
0,-0,-0,0,32765
0,-0,-0,0,32765
0,-0,-0,0,32765
0,-0,-0,0,32765
0,-0,-0,0,32765
0,-0,-0,0,32765
0,-0,-0,0,32765
0,-0,-0,0,32765
0,-0,-0,0,32765
0,-0,-0,0,32765
0,-0,-0,0,32765
0,-0,-0,0,32765
0,-0,-0,0,32765
2.15323,-1.07666,-0.330596,11,32765
2.05233,-1.03503,-0.314699,12,32765
2.26082,-1.14996,-0.346238,12,32765
2.07177,-1.06292,-0.316981,12,32765
2.27058,-1.17495,-0.346945,12,32765
2.28427,-1.19195,-0.348389,12,32765
2.1575,-1.13526,-0.328618,15,32765
2.22371,-1.1799,-0.338437,17,32765
2.10624,-1.12672,-0.319926,16,32765
0,-0,-0,0,32765
5.28634,-2.87384,-0.800365,15,32765
2.15597,-1.18147,-0.326034,18,32765
5.29354,-2.9241,-0.798781,16,32765
0,-0,-0,0,32765
6.06976,-3.4065,-0.913311,14,32765
0,-0,-0,0,32765
6.04727,-3.44794,-0.906973,14,32765
0,-0,-0,0,32765
6.0073,-3.47944,-0.897647,14,32765
6.05597,-3.53473,-0.903181,15,32765
0,-0,-0,0,32765
0,-0,-0,0,32765
0,-0,-0,0,32765
0,-0,-0,0,32765
0,-0,-0,0,32765
5.94385,-3.63119,-0.874944,15,32765
5.4082,-3.32872,-0.794348,19,32765
5.42261,-3.3628,-0.794829,18,32765
5.47062,-3.41786,-0.800317,20,32765
5.38407,-3.38873,-0.78511,20,32765
5.40669,-3.42815,-0.786132,20,32765
5.4041,-3.45147,-0.783985,22,32765
5.33451,-3.43211,-0.771804,20,32765
5.32358,-3.4499,-0.767985,20,32765
5.34591,-3.48929,-0.768785,20,32765
5.41779,-3.56162,-0.776756,18,32765
5.30719,-3.51382,-0.758239,20,32765
5.2876,-3.52621,-0.753058,18,32765
5.16909,-3.47201,-0.733857,19,32765
5.2074,-3.52255,-0.737238,20,32765
5.29476,-3.60702,-0.746619,20,32765
5.22593,-3.58543,-0.733973,19,32765
5.2635,-3.63684,-0.736589,19,32765
5.32541,-3.70536,-0.742413,19,32765
5.26518,-3.68842,-0.730982,19,32765
5.25376,-3.70566,-0.725958,19,32765
5.21809,-3.7054,-0.717766,19,32765
5.23868,-3.74594,-0.717335,18,32765
5.13021,-3.6935,-0.698998,18,32765
5.22323,-3.78638,-0.70803,19,32765
5.46847,-3.99113,-0.736723,15,32765
5.66453,-4.16209,-0.758316,14,32765
6.86505,-2.10761,-1.19474,11,32765
6.83929,-2.12464,-1.19063,11,32765
6.83272,-2.1471,-1.18807,11,32765
6.78813,-2.15813,-1.17989,11,32765
6.8188,-2.19315,-1.18393,11,32765
6.77412,-2.20417,-1.17533,11,32765
6.84188,-2.25192,-1.18637,11,32765
6.6755,-2.22212,-1.1562,11,32765
6.86482,-2.31075,-1.18758,12,32765
6.80142,-2.31478,-1.17509,12,32765
6.73796,-2.31881,-1.1625,11,32765
6.57194,-2.28692,-1.13232,12,32765
6.72275,-2.36527,-1.15695,12,32765
6.7151,-2.38844,-1.15374,12,32765
6.58662,-2.36783,-1.13042,12,32765
6.69961,-2.43435,-1.14788,12,32765
6.57114,-2.41308,-1.12485,12,32765
6.64669,-2.46648,-1.13595,12,32765
6.6202,-2.48227,-1.13002,12,32765
6.54754,-2.48033,-1.11616,12,32765
6.53928,-2.50315,-1.11361,12,32765
6.56792,-2.53994,-1.11715,12,32765
6.486,-2.53405,-1.10129,11,32765
6.55129,-2.58541,-1.11049,11,32765
0,-0,-0,0,32765
0,-0,-0,0,32765
0,-0,-0,0,32765
0,-0,-0,0,32765
0,-0,-0,0,32765
0,-0,-0,0,32765
0,-0,-0,0,32765
0,-0,-0,0,32765
0,-0,-0,0,32765
0,-0,-0,0,32765
0,-0,-0,0,32765
0,-0,-0,0,32765
0,-0,-0,0,32765
0,-0,-0,0,32765
0,-0,-0,0,32765
0,-0,-0,0,32765
0,-0,-0,0,32765
0,-0,-0,0,32765
0,-0,-0,0,32765
0,-0,-0,0,32765
0,-0,-0,0,32765
0,-0,-0,0,32765
0,-0,-0,0,32765
0,-0,-0,0,32765
0,-0,-0,0,32765
0,-0,-0,0,32765
0,-0,-0,0,32765
0,-0,-0,0,32765
0,-0,-0,0,32765
0,-0,-0,0,32765
0,-0,-0,0,32765
0,-0,-0,0,32765
0,-0,-0,0,32765
0,-0,-0,0,32765
1.98463,-1.07498,-0.322622,12,32765
1.96376,-1.07222,-0.318722,12,32765
0,-0,-0,0,32765
0,-0,-0,128,32765
0,-0,-0,11,32765
0,-0,-0,0,32765
0,-0,-0,11,32765
5.67227,-3.24829,-0.913193,11,32765
0,-0,-0,11,32765
5.47099,-3.1827,-0.877968,13,32765
0,-0,-0,13,32765
0,-0,-0,14,32765
0,-0,-0,17,32765
0,-0,-0,14,32765
0,-0,-0,13,32765
0,-0,-0,12,32765
0,-0,-0,13,32765
0,-0,-0,17,32765
0,-0,-0,17,32765
5.39018,-3.38249,-0.849213,17,32765
5.37096,-3.39543,-0.843758,20,32765
5.38511,-3.42959,-0.843829,21,32765
5.34912,-3.4315,-0.836551,20,32765
5.37967,-3.47652,-0.839343,20,32765
5.27719,-3.43502,-0.821249,22,32765
5.34924,-3.50698,-0.830156,22,32765
5.34638,-3.53031,-0.827495,24,32765
5.33523,-3.54813,-0.823213,23,32765
5.35677,-3.58826,-0.824243,24,32765
5.32879,-3.59525,-0.817665,22,32765
5.32556,-3.61857,-0.815186,23,32765
5.32229,-3.642,-0.811806,22,32765
5.23717,-3.60923,-0.795995,22,32765
5.20933,-3.61553,-0.789252,22,32765
5.27112,-3.68404,-0.795927,23,32765
5.19486,-3.6555,-0.781536,21,32765
5.17545,-3.66683,-0.775348,20,32765
5.21271,-3.71822,-0.777791,20,32765
5.20094,-3.73569,-0.77292,22,32765
5.18931,-3.75288,-0.76779,22,32765
5.18555,-3.77602,-0.763745,20,32765
5.56634,-4.08089,-0.815328,16,32765
0,-0,-0,0,32765
7.82145,0.0521717,1.36597,32,32765
7.77233,0.0266669,1.3573,32,32765
7.75277,0.00154026,1.35331,31,32765
7.76272,-0.0245668,1.35427,32,32765
7.75301,-0.0502497,1.35099,32,32765
7.73331,-0.0759942,1.34633,32,32765
7.71344,-0.101457,1.34218,32,32765
7.70343,-0.127066,1.33916,32,32765
7.69341,-0.152842,1.33575,33,32765
7.67335,-0.177838,1.33121,32,32765
7.65338,-0.202177,1.32584,32,32765
7.63324,-0.226238,1.32096,32,32765
7.63256,-0.250965,1.32043,33,32765
7.61227,-0.275325,1.31544,31,32765
7.60176,-0.299752,1.31219,32,32765
7.60087,-0.324751,1.31139,32,32765
7.58032,-0.348806,1.30656,32,32765
7.5598,-0.372214,1.30124,32,32765
7.5586,-0.397092,1.3009,32,32765
7.55741,-0.421659,1.30006,32,32765
7.53652,-0.445516,1.29537,32,32765
7.51543,-0.469033,1.29147,32,32765
7.514,-0.493541,1.29065,32,32765
7.51255,-0.51797,1.28952,32,32765
7.47176,-0.53944,1.28131,32,32765
7.47001,-0.564017,1.28096,32,32765
7.4387,-0.586407,1.27543,32,32765
7.44657,-0.611656,1.27706,32,32765
7.43496,-0.635697,1.27362,32,32765
7.42305,-0.659146,1.27181,33,32765
7.42104,-0.683521,1.27066,33,32765
7.3894,-0.705115,1.26508,32,32765
7.36752,-0.727137,1.26137,32,32765
7.34552,-0.749198,1.25785,32,32765
7.3431,-0.773091,1.25748,31,32765
7.32104,-0.794887,1.25356,32,32765
7.31851,-0.819033,1.25277,31,32765
7.29609,-0.840867,1.25,32,32765
7.29342,-0.864854,1.24921,32,32765
7.27096,-0.886256,1.24605,31,32765
7.26818,-0.910066,1.24506,32,32765
7.27488,-0.935531,1.24681,32,32765
7.27154,-0.959965,1.24768,32,32765
7.25857,-0.983059,1.24563,32,32765
7.23574,-1.00411,1.24253,33,32765
7.23234,-1.02746,1.24329,33,32765
7.20947,-1.04793,1.23995,33,32765
7.22555,-1.07413,1.24329,33,32765
7.20241,-1.09518,1.24013,32,32765
7.17914,-1.11608,1.23744,33,32765
7.18515,-1.1419,1.23857,35,32765
7.12286,-1.15675,1.22847,34,32765
6.65194,-1.10326,1.14895,32,32765
6.85218,-1.16031,1.18485,31,32765
6.70257,-1.15771,1.15984,32,32765
6.6502,-1.17122,1.15136,33,32765
6.75295,-1.21233,1.17027,31,32765
6.67125,-1.2203,1.15747,33,32765
6.65752,-1.24053,1.15561,32,32765
6.85674,-1.30093,1.19123,30,32765
6.61042,-1.2768,1.14934,34,32765
6.99296,-1.37478,1.21715,35,32765
6.99804,-1.39965,1.21899,35,32765
6.85809,-1.39534,1.19567,31,32765
6.57348,-1.36006,1.14705,33,32765
6.5979,-1.38784,1.15205,31,32765
6.67032,-1.42631,1.16568,32,32765
6.53067,-1.41886,1.1426,32,32765
6.93993,-1.5319,1.21437,34,32765
6.90576,-1.54851,1.21036,35,32765
6.92945,-1.57788,1.21537,38,32765
6.90493,-1.5963,1.21238,36,32765
6.89969,-1.61903,1.21207,36,32765
6.87524,-1.63728,1.20798,34,32765
6.8601,-1.65754,1.20714,37,32765
6.87391,-1.68466,1.20983,34,32765
6.84919,-1.70221,1.20693,35,32765
6.8341,-1.72189,1.20525,34,32765
6.83814,-1.7466,1.20614,35,32765
6.83253,-1.7686,1.20587,35,32765
6.82671,-1.79093,1.20593,36,32765
6.79222,-1.80568,1.2009,35,32765
6.81508,-1.83516,1.20518,35,32765
6.79962,-1.85479,1.20308,35,32765
6.75557,-1.86615,1.19658,31,32765
6.79703,-1.90128,1.20461,37,32765
6.76247,-1.91538,1.19885,35,32765
6.72777,-1.92891,1.19432,36,32765
6.71216,-1.94807,1.19168,35,32765
6.7628,-1.98584,1.20142,35,32765
6.69044,-1.9878,1.18873,34,32765
6.68427,-2.00907,1.18768,34,32765
6.69686,-2.03599,1.1903,33,32765
6.68101,-2.05459,1.18778,34,32765
6.66522,-2.07251,1.18573,33,32765
6.65882,-2.09367,1.18449,36,32765
6.62425,-2.10537,1.17863,32,32765
6.47732,-2.08032,1.15181,15,32765
6.37735,-2.06998,1.1334,13,32765
6.3712,-2.08958,1.13201,13,32765
6.3652,-2.10917,1.12943,13,32765
7.81424,0.0531831,1.28888,40,32765
7.81438,0.0278321,1.28881,40,32765
7.80466,0.00253145,1.28662,39,32765
7.76528,-0.0236392,1.27936,39,32765
7.77528,-0.0494976,1.27942,40,32765
7.73581,-0.0751672,1.27169,40,32765
7.73563,-0.100937,1.27097,40,32765
7.71573,-0.126499,1.26643,40,32765
7.71554,-0.152554,1.26473,40,32765
7.70531,-0.177892,1.26198,40,32765
7.70502,-0.202893,1.26002,40,32765
7.68484,-0.22716,1.25531,39,32765
7.66442,-0.251446,1.25156,39,32765
7.66381,-0.276662,1.24996,40,32765
7.65326,-0.301296,1.24679,40,32765
7.64249,-0.326083,1.24438,39,32765
7.62189,-0.350313,1.23973,39,32765
7.5816,-0.372923,1.23138,40,32765
7.58039,-0.397911,1.23104,40,32765
7.57919,-0.422588,1.2302,40,32765
7.55825,-0.446555,1.22569,40,32765
7.54698,-0.470795,1.22357,40,32765
7.53568,-0.494797,1.22116,40,32765
7.52436,-0.518656,1.21843,40,32765
7.51303,-0.542331,1.21536,40,32765
7.48173,-0.564852,1.21024,40,32765
7.48973,-0.590419,1.21135,40,32765
7.46808,-0.613451,1.20811,40,32765
7.45643,-0.637601,1.20476,40,32765
7.44449,-0.661157,1.20304,40,32765
7.4228,-0.683829,1.19871,40,32765
7.4206,-0.708276,1.19817,40,32765
7.38884,-0.729463,1.19306,40,32765
7.39626,-0.754634,1.19448,40,32765
7.384,-0.777695,1.19253,40,32765
7.36188,-0.799658,1.18879,40,32765
7.35933,-0.823976,1.18799,40,32765
7.35648,-0.848239,1.18859,40,32765
7.33416,-0.870136,1.18463,39,32765
7.33125,-0.894094,1.18482,40,32765
7.30884,-0.915684,1.18066,40,32765
7.30573,-0.940065,1.18073,40,32765
7.30239,-0.964641,1.1816,40,32765
7.29916,-0.9892,1.18123,39,32765
7.27628,-1.01042,1.17831,39,32765
7.23375,-1.02837,1.17274,39,32765
7.23039,-1.05172,1.17276,40,32765
7.22695,-1.07512,1.17274,40,32765
7.21354,-1.09769,1.17136,38,32765
7.19022,-1.11867,1.16885,38,32765
7.18648,-1.14301,1.1683,40,32765
7.17282,-1.16581,1.16669,40,32765
6.75959,-1.12204,1.10116,35,32765
6.77512,-1.14822,1.10496,36,32765
6.74208,-1.16553,1.10039,40,32765
6.70904,-1.1826,1.09555,36,32765
6.72446,-1.20828,1.09915,37,32765
6.62323,-1.2126,1.08392,36,32765
6.73567,-1.25623,1.10281,37,32765
6.67327,-1.26728,1.09356,38,32765
6.66902,-1.28932,1.09374,36,32765
6.80992,-1.34006,1.11807,36,32765
7.00875,-1.40314,1.15162,40,32765
7.02336,-1.43035,1.15507,42,32765
6.61252,-1.36948,1.08846,36,32765
6.65627,-1.4015,1.09636,34,32765
6.51637,-1.39479,1.07424,36,32765
6.5985,-1.43505,1.08907,36,32765
6.70948,-1.48254,1.10751,37,32765
6.96442,-1.56327,1.15152,40,32765
6.94959,-1.58411,1.14989,41,32765
6.92501,-1.60262,1.14708,42,32765
6.91013,-1.62319,1.14518,39,32765
6.88562,-1.64151,1.14128,39,32765
6.89924,-1.66879,1.14531,40,32765
6.89385,-1.69138,1.14463,40,32765
6.88823,-1.71379,1.1451,40,32765
6.89223,-1.73845,1.1467,41,32765
6.85796,-1.75361,1.14112,40,32765
6.8332,-1.77076,1.13767,40,32765
6.86555,-1.80316,1.1441,42,32765
6.84051,-1.82059,1.14095,42,32765
6.81569,-1.83743,1.13698,40,32765
6.84781,-1.87009,1.14293,41,32765
6.81317,-1.88425,1.13839,41,32765
6.75956,-1.893,1.13006,39,32765
6.80095,-1.92855,1.13729,41,32765
6.74718,-1.93677,1.12987,40,32765
6.71254,-1.9505,1.12415,39,32765
6.72537,-1.97722,1.12697,41,32765
6.70969,-1.99593,1.12446,40,32765
6.70347,-2.0173,1.12341,41,32765
6.72549,-2.0472,1.12743,41,32765
6.69071,-2.06011,1.12183,41,32765
6.71258,-2.08982,1.12621,40,32765
6.65901,-2.09634,1.11705,37,32765
6.64319,-2.11404,1.11463,40,32765
6.58061,-2.11616,1.10339,29,32765
6.32071,-2.0542,1.05913,15,32765
6.3052,-2.07058,1.05619,15,32765
6.29922,-2.08999,1.05363,15,32765
7.81965,0.0681676,1.1902,34,32765
7.80953,0.042717,1.19139,33,32765
7.78956,0.0172497,1.19033,32,32765
7.77956,-0.00834623,1.18967,31,32765
7.76924,-0.0341922,1.19052,32,32765
7.72935,-0.0598111,1.18574,32,32765
7.72887,-0.0850951,1.18735,32,32765
7.71844,-0.110003,1.18732,33,32765
7.6883,-0.134195,1.18339,31,32765
7.66797,-0.158892,1.18094,31,32765
7.66732,-0.183985,1.18153,31,32765
7.64671,-0.208819,1.17979,31,32765
7.65581,-0.234277,1.18159,32,32765
7.62526,-0.258736,1.17764,32,32765
7.60452,-0.283394,1.17517,32,32765
7.60352,-0.308587,1.17529,32,32765
7.60238,-0.333191,1.17595,32,32765
7.58142,-0.357249,1.17337,32,32765
7.56039,-0.38103,1.17084,32,32765
7.55909,-0.406174,1.17083,32,32765
7.55769,-0.431271,1.17084,33,32765
7.55615,-0.455875,1.1715,32,32765
7.53492,-0.479419,1.16824,33,32765
7.49388,-0.501377,1.16207,32,32765
7.47244,-0.524697,1.15922,33,32765
7.47058,-0.549694,1.15958,33,32765
7.46862,-0.574557,1.16019,33,32765
7.43715,-0.597,1.15536,32,32765
7.44511,-0.62215,1.15621,33,32765
7.42335,-0.64494,1.15305,33,32765
7.41125,-0.668238,1.1523,32,32765
7.41878,-0.693558,1.15426,33,32765
7.36734,-0.713563,1.14595,32,32765
7.35497,-0.737097,1.1452,32,32765
7.35257,-0.761751,1.14447,33,32765
7.35008,-0.785818,1.14423,33,32765
7.32782,-0.807318,1.14142,32,32765
7.32513,-0.831339,1.14146,33,32765
7.30278,-0.853053,1.13809,33,32765
7.29994,-0.877752,1.13758,32,32765
7.29685,-0.902324,1.13812,32,32765
7.28407,-0.92504,1.13642,33,32765
7.25154,-0.945561,1.13184,32,32765
7.25832,-0.970582,1.13265,33,32765
7.23547,-0.992146,1.12946,33,32765
7.23218,-1.01622,1.12912,33,32765
7.22889,-1.03984,1.12868,33,32765
7.22541,-1.06358,1.12886,33,32765
7.22197,-1.08691,1.12864,33,32765
7.1892,-1.10627,1.12301,32,32765
7.17565,-1.12857,1.12202,33,32765
7.17173,-1.1527,1.12253,33,32765
7.12871,-1.17056,1.11688,33,32765
6.91035,-1.1585,1.08306,29,32765
6.75061,-1.15521,1.05814,32,32765
6.64932,-1.16069,1.04316,31,32765
6.77204,-1.20497,1.06263,31,32765
6.66096,-1.20757,1.04686,33,32765
6.60846,-1.22023,1.03891,33,32765
6.76943,-1.27295,1.06548,30,32765
6.60991,-1.26539,1.04116,33,32765
6.76086,-1.31733,1.06601,32,32765
6.66932,-1.32229,1.05168,31,32765
7.0039,-1.41263,1.10579,37,32765
6.97984,-1.43177,1.10268,37,32765
6.62673,-1.38212,1.04817,32,32765
6.66068,-1.41204,1.05529,32,32765
6.55926,-1.41326,1.04063,34,32765
6.68004,-1.46214,1.06098,32,32765
6.60767,-1.46936,1.04983,30,32765
6.88208,-1.55425,1.09581,36,32765
6.9155,-1.58551,1.10198,35,32765
6.89074,-1.60377,1.10056,36,32765
6.90467,-1.63046,1.10432,35,32765
6.86088,-1.64394,1.09789,33,32765
6.86491,-1.66838,1.10092,35,32765
6.86887,-1.69286,1.10384,36,32765
6.83441,-1.70801,1.10018,35,32765
6.83828,-1.73257,1.10258,37,32765
6.83244,-1.75479,1.10364,34,32765
6.82645,-1.77711,1.10504,34,32765
6.80134,-1.79409,1.10338,33,32765
6.81438,-1.82142,1.10736,37,32765
6.79868,-1.84077,1.10744,34,32765
6.8114,-1.86825,1.11222,35,32765
6.79562,-1.88749,1.112,36,32765
6.77026,-1.9039,1.11049,37,32765
6.76383,-1.92591,1.11173,36,32765
6.77636,-1.95326,1.11596,37,32765
6.7317,-1.96431,1.11165,36,32765
6.75338,-1.99444,1.11848,35,32765
6.71836,-2.00703,1.11601,36,32765
6.67385,-2.01673,1.11182,34,32765
6.69544,-2.04627,1.11893,35,32765
6.68854,-2.06772,1.12077,35,32765
6.62482,-2.07172,1.11387,35,32765
6.66492,-2.10788,1.12343,36,32765
6.63881,-2.12314,1.12341,33,32765
6.3874,-2.06495,1.08496,14,32765
6.38033,-2.08502,1.08817,13,32765
6.37322,-2.10487,1.09161,13,32765
7.83052,0.0692217,1.11639,39,32765
7.81052,0.0436402,1.11626,39,32765
7.81034,0.018174,1.11822,39,32765
7.79043,-0.00752255,1.11623,39,32765
7.76033,-0.0333606,1.11434,38,32765
7.75009,-0.059221,1.1142,39,32765
7.75952,-0.0847207,1.11724,40,32765
7.7392,-0.109628,1.11588,40,32765
7.73872,-0.134444,1.11651,40,32765
7.69857,-0.158937,1.1114,39,32765
7.70781,-0.184408,1.11342,39,32765
7.68718,-0.209417,1.11187,39,32765
7.68641,-0.234746,1.11215,40,32765
7.66571,-0.259683,1.10991,39,32765
7.66472,-0.285252,1.1105,40,32765
7.64394,-0.309885,1.10776,40,32765
7.6428,-0.334659,1.10841,40,32765
7.60204,-0.357958,1.10316,40,32765
7.61063,-0.383339,1.10512,40,32765
7.56979,-0.406568,1.09937,40,32765
7.58815,-0.432868,1.10225,40,32765
7.54709,-0.455228,1.09716,40,32765
7.55546,-0.480665,1.0984,40,32765
7.53411,-0.504047,1.09547,40,32765
7.51263,-0.527538,1.09281,40,32765
7.49102,-0.551258,1.0903,41,32765
7.48906,-0.576229,1.09092,40,32765
7.4674,-0.599568,1.0878,40,32765
7.4655,-0.624034,1.08711,40,32765
7.4437,-0.646928,1.08414,40,32765
7.44143,-0.671218,1.08492,41,32765
7.41941,-0.693914,1.08249,40,32765
7.41714,-0.718725,1.08182,40,32765
7.40474,-0.742464,1.08117,40,32765
7.40232,-0.767325,1.08044,40,32765
7.38011,-0.789489,1.07732,40,32765
7.37749,-0.813288,1.07757,40,32765
7.35511,-0.835278,1.07474,39,32765
7.35237,-0.859422,1.07443,39,32765
7.33967,-0.883148,1.07248,39,32765
7.32675,-0.906678,1.07159,39,32765
7.32375,-0.930776,1.07142,40,32765
7.32059,-0.955303,1.07142,40,32765
7.29791,-0.976654,1.06783,39,32765
7.29462,-1.00107,1.0677,40,32765
7.25209,-1.01988,1.06161,40,32765
7.24878,-1.0436,1.06117,39,32765
7.2257,-1.06456,1.05848,40,32765
7.22225,-1.08793,1.05826,40,32765
7.20898,-1.11032,1.05578,39,32765
7.1954,-1.13273,1.05488,38,32765
7.18169,-1.15539,1.05396,39,32765
7.18743,-1.18134,1.05586,40,32765
7.13466,-1.19727,1.04847,39,32765
6.69167,-1.14625,0.98346,36,32765
6.78526,-1.18561,0.998094,36,32765
6.70344,-1.19398,0.98624,36,32765
6.64095,-1.20518,0.978659,36,32765
6.73435,-1.24477,0.992697,36,32765
6.70096,-1.2614,0.988984,38,32765
6.69676,-1.28339,0.989123,37,32765
6.76044,-1.31866,0.999565,38,32765
6.58141,-1.30628,0.97316,38,32765
6.95531,-1.40437,1.02974,39,32765
7.01849,-1.44129,1.03975,41,32765
6.92642,-1.44624,1.02739,40,32765
6.55363,-1.39091,0.973773,38,32765
