x, y, z, intensity, ring
1.88963,-1.32858,-0.0161112,18,32765
1.92613,-1.36359,-0.0158477,19,32765
1.93796,-1.38147,-0.0156471,18,32765
1.94167,-1.39348,-0.0152448,18,32765
1.94536,-1.40547,-0.0148822,19,32765
1.9488,-1.41776,-0.0147903,19,32765
1.94417,-1.42411,-0.0144452,19,32765
0,-0,-0,0,32765
0,-0,-0,0,32765
0,-0,-0,0,32765
0,-0,-0,0,32765
0,-0,-0,0,32765
0,-0,-0,0,32765
1.71847,-0.563708,-0.0720064,17,32765
1.70715,-0.566213,-0.0709639,15,32765
1.73376,-0.581269,-0.0713479,15,32765
1.79812,-0.609385,-0.0734653,15,32765
1.79616,-0.615233,-0.072742,15,32765
1.75637,-0.608107,-0.070598,14,32765
1.83921,-0.643751,-0.0733136,15,32765
1.75226,-0.620023,-0.0689074,15,32765
1.64664,-0.589005,-0.0644442,15,32765
1.61649,-0.584334,-0.0625942,15,32765
1.69903,-0.620617,-0.0651741,17,32765
1.70633,-0.629746,-0.0651354,18,32765
1.71364,-0.638876,-0.0646758,19,32765
1.70215,-0.641113,-0.0636974,18,32765
1.70001,-0.646828,-0.0631879,18,32765
1.7165,-0.659727,-0.0632538,18,32765
1.68636,-0.654592,-0.0617143,17,32765
1.73071,-0.678446,-0.0627896,19,32765
1.71917,-0.680545,-0.0618676,19,32765
1.73545,-0.693756,-0.0618352,19,32765
1.72383,-0.695914,-0.0608845,19,32765
1.76776,-0.720625,-0.0618328,19,32765
1.73761,-0.715156,-0.0603927,19,32765
1.74441,-0.72492,-0.060128,19,32765
1.73277,-0.726918,-0.0591077,19,32765
1.77634,-0.752254,-0.0601446,18,32765
1.77377,-0.758357,-0.0595435,19,32765
1.74368,-0.752483,-0.0579831,19,32765
1.74112,-0.758427,-0.0573828,19,32765
1.71113,-0.752218,-0.0557892,18,32765
1.76342,-0.782295,-0.0569857,20,32765
1.76991,-0.792333,-0.0567227,18,32765
1.71261,-0.773548,-0.0547126,19,32765
1.75548,-0.800077,-0.0555019,17,32765
1.77095,-0.814363,-0.0552555,19,32765
1.74101,-0.807716,-0.0537802,19,32765
1.75637,-0.822122,-0.0537688,18,32765
1.78972,-0.845189,-0.0542907,18,32765
1.78686,-0.851264,-0.0535823,19,32765
1.775,-0.852938,-0.0525994,18,32765
1.75413,-0.850209,-0.0515635,18,32765
1.76922,-0.864938,-0.0513954,18,32765
1.82009,-0.897445,-0.0524427,18,32765
1.75438,-0.8725,-0.0499853,17,32765
1.76932,-0.887358,-0.0498894,17,32765
1.82878,-0.924919,-0.0508958,18,32765
1.80784,-0.922033,-0.0498238,18,32765
1.79583,-0.923586,-0.0489417,17,32765
1.84594,-0.957296,-0.0498267,18,32765
1.82505,-0.954174,-0.0485132,17,32765
1.80416,-0.950992,-0.0471978,17,32765
1.80982,-0.961695,-0.0469231,17,32765
1.84189,-0.986579,-0.0471017,18,32765
1.81219,-0.978509,-0.0457128,17,32765
1.80892,-0.984563,-0.0450434,17,32765
1.80561,-0.990667,-0.0441562,18,32765
1.85476,-1.0258,-0.044646,20,32765
1.83382,-1.02236,-0.0435951,18,32765
1.82166,-1.02365,-0.0425257,18,32765
1.84436,-1.04449,-0.0422282,19,32765
1.80616,-1.03079,-0.0406103,17,32765
1.82007,-1.04677,-0.0402806,18,32765
1.84255,-1.06784,-0.0400569,19,32765
1.86488,-1.08915,-0.0398452,19,32765
1.86989,-1.10041,-0.0389477,19,32765
1.88341,-1.11686,-0.0383756,19,32765
1.87116,-1.11793,-0.037362,18,32765
1.85038,-1.11372,-0.0360732,18,32765
1.88093,-1.14053,-0.0357993,18,32765
1.9028,-1.16232,-0.0353279,18,32765
1.86487,-1.14771,-0.0336996,19,32765
1.90358,-1.18019,-0.0334991,18,32765
1.8488,-1.1547,-0.0316176,19,32765
1.8619,-1.17148,-0.0309505,18,32765
1.86651,-1.18293,-0.0299438,18,32765
1.93848,-1.23749,-0.0300955,18,32765
1.85035,-1.18972,-0.0276324,18,32765
1.87163,-1.21209,-0.0269457,18,32765
1.88441,-1.22915,-0.026121,19,32765
1.86367,-1.22435,-0.0246367,18,32765
1.88464,-1.24707,-0.0237698,18,32765
1.88052,-1.25329,-0.0225468,18,32765
1.91792,-1.28733,-0.0217636,18,32765
1.87223,-1.26569,-0.0200337,18,32765
1.88465,-1.28302,-0.0189885,18,32765
1.92167,-1.31748,-0.0180221,18,32765
1.85977,-1.28398,-0.0161473,18,32765
1.92131,-1.33563,-0.0153335,18,32765
1.94967,-1.36492,-0.0140855,18,32765
1.97794,-1.39427,-0.0129488,19,32765
1.96525,-1.39491,-0.011263,19,32765
1.96085,-1.4011,-0.00965268,19,32765
1.93194,-1.38994,-0.00794713,19,32765
1.91914,-1.39059,-0.00607053,18,32765
1.94689,-1.42046,-0.00419017,19,32765
1.62279,-0.498745,-0.0884384,17,32765
1.60209,-0.498208,-0.0864975,16,32765
1.62912,-0.512317,-0.0872361,17,32765
1.66558,-0.529639,-0.0883762,18,32765
1.67337,-0.538199,-0.0880856,19,32765
1.69059,-0.550004,-0.088344,20,32765
1.65084,-0.543145,-0.0855471,19,32765
1.71541,-0.570657,-0.0883395,20,32765
1.71359,-0.576225,-0.0875487,20,32765
1.72118,-0.585052,-0.0874453,20,32765
1.69096,-0.580927,-0.0853215,19,32765
1.71736,-0.596375,-0.086151,20,32765
1.71536,-0.602191,-0.0854962,19,32765
1.6851,-0.598033,-0.0831021,19,32765
1.70186,-0.610569,-0.083628,19,32765
1.69044,-0.612886,-0.0823851,19,32765
1.69778,-0.622008,-0.0821463,19,32765
1.73318,-0.641559,-0.0835551,19,32765
1.72173,-0.643802,-0.0822804,20,32765
1.77565,-0.670786,-0.0843098,21,32765
1.7174,-0.655392,-0.081131,17,32765
1.70589,-0.657601,-0.0800638,19,32765
1.71302,-0.666919,-0.0799834,19,32765
1.7387,-0.683605,-0.0806534,19,32765
1.72714,-0.685738,-0.0796332,20,32765
1.74339,-0.699008,-0.0797832,20,32765
1.74103,-0.704949,-0.0791552,20,32765
1.73865,-0.710869,-0.0784763,20,32765
1.71779,-0.709105,-0.077176,19,32765
1.73383,-0.722669,-0.0774217,19,32765
1.73141,-0.728514,-0.0767182,19,32765
1.73815,-0.738278,-0.0766008,19,32765
1.74481,-0.748203,-0.0764128,19,32765
1.73311,-0.75016,-0.0753777,18,32765
1.75803,-0.768084,-0.075966,18,32765
1.7646,-0.778046,-0.0756507,18,32765
1.76199,-0.783999,-0.0750556,19,32765
1.75935,-0.789963,-0.0744986,19,32765
1.7476,-0.791723,-0.0738495,19,32765
1.76311,-0.805968,-0.073948,19,32765
1.76947,-0.816129,-0.0735062,20,32765
1.75767,-0.817897,-0.0724959,19,32765
1.77297,-0.832394,-0.0726641,19,32765
1.75208,-0.829904,-0.071346,20,32765
1.7673,-0.844484,-0.0713788,19,32765
1.73747,-0.83742,-0.0695868,19,32765
1.7616,-0.85641,-0.0701622,20,32765
1.77665,-0.871198,-0.070176,19,32765
1.77371,-0.877221,-0.0696689,20,32765
1.7886,-0.892217,-0.0697085,19,32765
1.77668,-0.893752,-0.0687492,19,32765
1.76475,-0.89525,-0.0676705,19,32765
1.77062,-0.905799,-0.0674462,19,32765
1.7409,-0.898068,-0.0658099,19,32765
1.77332,-0.922443,-0.0666042,19,32765
1.84107,-0.965493,-0.0684241,19,32765
1.81132,-0.95769,-0.0665869,20,32765
1.78167,-0.949639,-0.0651118,19,32765
1.76972,-0.950833,-0.0640789,19,32765
1.80169,-0.975828,-0.0646428,18,32765
1.83352,-1.00102,-0.065223,19,32765
1.79513,-0.987949,-0.06309,19,32765
1.82676,-1.01342,-0.063534,18,32765
1.83204,-1.02452,-0.0632062,19,32765
1.78505,-1.00618,-0.0608541,18,32765
1.80778,-1.02695,-0.060852,18,32765
1.8304,-1.04786,-0.0608948,18,32765
1.80094,-1.03898,-0.0593136,18,32765
1.85799,-1.08014,-0.060501,19,32765
1.81124,-1.06113,-0.0583376,18,32765
1.84217,-1.08748,-0.05838,18,32765
1.85572,-1.10388,-0.0580052,19,32765
1.84351,-1.10486,-0.0569078,19,32765
1.83991,-1.11089,-0.0559642,18,32765
1.85335,-1.12734,-0.0555537,19,32765
1.84967,-1.13342,-0.0546179,18,32765
1.87141,-1.15536,-0.0543718,19,32765
1.88459,-1.1721,-0.0539027,19,32765
1.88919,-1.18366,-0.0531366,20,32765
1.89372,-1.19527,-0.0523981,19,32765
1.89825,-1.20686,-0.0514619,18,32765
1.9027,-1.2185,-0.0506393,19,32765
1.85673,-1.19762,-0.0483571,20,32765
1.88635,-1.22551,-0.0481572,19,32765
1.88233,-1.23171,-0.0470887,20,32765
1.88664,-1.2434,-0.0460271,19,32765
1.87421,-1.24413,-0.0446283,19,32765
1.91166,-1.27812,-0.0443733,18,32765
1.87429,-1.26208,-0.0423453,19,32765
1.87011,-1.26831,-0.0410843,18,32765
1.87424,-1.28004,-0.0400469,19,32765
1.90299,-1.30888,-0.0393796,20,32765
1.91516,-1.32649,-0.0383439,19,32765
1.91089,-1.33268,-0.0369623,19,32765
1.89831,-1.33326,-0.0353296,18,32765
1.95114,-1.37983,-0.0350371,20,32765
1.94665,-1.38619,-0.0334163,18,32765
1.95041,-1.39817,-0.0319506,19,32765
1.96209,-1.41622,-0.0306028,20,32765
1.94113,-1.4111,-0.0284815,19,32765
1.9365,-1.41748,-0.0265052,19,32765
0,-0,-0,0,32765
0,-0,-0,0,32765
0,-0,-0,0,32765
1.69457,-0.537985,-0.0861424,12,32765
1.65474,-0.531336,-0.084412,15,32765
1.61499,-0.524414,-0.0823887,17,32765
1.70815,-0.560904,-0.0872403,19,32765
1.70625,-0.566644,-0.087309,19,32765
1.70437,-0.572264,-0.087308,20,32765
1.7025,-0.577829,-0.0872772,19,32765
1.70061,-0.583363,-0.0871929,19,32765
1.67039,-0.579119,-0.0855421,18,32765
1.70611,-0.598032,-0.0875352,19,32765
1.68522,-0.597205,-0.0863971,18,32765
1.72081,-0.61641,-0.0880557,19,32765
1.72813,-0.625597,-0.0883129,19,32765
1.69792,-0.621019,-0.0866665,19,32765
1.71459,-0.633573,-0.0875207,19,32765
1.72187,-0.6427,-0.0877134,19,32765
1.75714,-0.662483,-0.0893684,21,32765
1.82025,-0.693276,-0.092411,19,32765
1.85524,-0.713671,-0.0940382,14,32765
1.69457,-0.658399,-0.0857082,17,32765
1.72957,-0.678687,-0.0871102,19,32765
1.74585,-0.691884,-0.0877364,19,32765
1.74355,-0.697718,-0.0872829,18,32765
1.75047,-0.707315,-0.0874602,18,32765
1.7666,-0.720765,-0.0878666,17,32765
1.78262,-0.734398,-0.0884525,17,32765
1.71558,-0.713585,-0.084745,18,32765
1.69474,-0.711683,-0.0833984,18,32765
1.72919,-0.732903,-0.0846133,18,32765
1.70833,-0.730914,-0.0834589,18,32765
1.69673,-0.732691,-0.0822853,18,32765
1.69424,-0.738478,-0.0819539,18,32765
1.71003,-0.752292,-0.0822285,18,32765
1.73489,-0.770243,-0.0829935,19,32765
1.76874,-0.79252,-0.0841868,19,32765
1.72968,-0.781993,-0.0819041,19,32765
1.78159,-0.812694,-0.0840741,19,32765
1.75169,-0.806074,-0.0821058,18,32765
1.75808,-0.816124,-0.0818771,19,32765
1.7463,-0.817794,-0.080865,19,32765
1.76166,-0.832168,-0.0809899,18,32765
1.78595,-0.850955,-0.081524,18,32765
1.74707,-0.839658,-0.0794027,18,32765
1.75325,-0.849896,-0.0792266,18,32765
1.73241,-0.84713,-0.0775994,18,32765
1.74744,-0.86193,-0.0775882,18,32765
1.74449,-0.867936,-0.077008,18,32765
1.77728,-0.891811,-0.0777397,17,32765
1.77428,-0.89782,-0.0770305,18,32765
1.80682,-0.922067,-0.078036,18,32765
1.76818,-0.909887,-0.0756998,18,32765
1.77398,-0.920488,-0.0754145,18,32765
1.75321,-0.917173,-0.0739055,18,32765
1.81202,-0.955689,-0.0757049,18,32765
1.80878,-0.961867,-0.0749973,18,32765
1.84961,-0.991542,-0.0759591,19,32765
1.83753,-0.99298,-0.0747358,18,32765
1.80789,-0.984778,-0.0730036,17,32765
1.83967,-1.01005,-0.0735474,18,32765
1.83627,-1.01625,-0.0729488,18,32765
1.87651,-1.04678,-0.0738141,17,32765
1.81203,-1.0188,-0.0705843,18,32765
1.84344,-1.04455,-0.0710431,17,32765
1.84002,-1.05064,-0.0700405,18,32765
1.8538,-1.06683,-0.0701231,18,32765
1.85024,-1.07303,-0.0693557,18,32765
1.82938,-1.06918,-0.0680007,18,32765
1.84303,-1.08547,-0.0677496,18,32765
1.80503,-1.07125,-0.0656357,18,32765
1.82716,-1.09272,-0.0659792,18,32765
1.8492,-1.11431,-0.0660444,18,32765
1.86261,-1.1308,-0.066059,18,32765
1.85892,-1.13693,-0.0650037,18,32765
1.83819,-1.13251,-0.0638958,18,32765
1.8939,-1.17549,-0.0652397,19,32765
1.88156,-1.17645,-0.0639126,19,32765
1.83531,-1.15617,-0.0618555,19,32765
1.84835,-1.17299,-0.0616753,18,32765
1.91191,-1.22211,-0.0630475,17,32765
1.88264,-1.21221,-0.0615966,18,32765
1.88709,-1.22378,-0.0611114,19,32765
1.84959,-1.20814,-0.0592935,18,32765
1.88737,-1.24171,-0.0598366,19,32765
1.87492,-1.24245,-0.058949,18,32765
1.86247,-1.24316,-0.0581081,18,32765
1.85839,-1.24927,-0.0573439,18,32765
1.91223,-1.29463,-0.0583716,19,32765
1.91631,-1.30646,-0.0577093,18,32765
1.9204,-1.3182,-0.0574057,18,32765
1.92437,-1.3301,-0.0571059,19,32765
1.879,-1.30781,-0.0554553,18,32765
1.94833,-1.36572,-0.0568229,19,32765
1.91113,-1.34912,-0.0550811,19,32765
1.93938,-1.37845,-0.0555404,19,32765
1.92682,-1.37886,-0.0549185,19,32765
1.93869,-1.39663,-0.0547966,18,32765
1.95851,-1.42041,-0.0552247,19,32765
1.90552,-1.39131,-0.0532813,17,32765
1.66985,-0.513842,-0.100367,20,32765
1.67768,-0.522249,-0.101191,20,32765
1.68547,-0.530731,-0.101976,20,32765
1.64567,-0.524086,-0.0999463,19,32765
1.66293,-0.535626,-0.101307,20,32765
1.67066,-0.544177,-0.101798,20,32765
1.66885,-0.549704,-0.101802,19,32765
1.68593,-0.561637,-0.103025,20,32765
1.70298,-0.573578,-0.10418,20,32765
1.67275,-0.5695,-0.102412,18,32765
1.65201,-0.568455,-0.101171,17,32765
1.68786,-0.587,-0.103283,17,32765
1.71409,-0.602706,-0.105072,18,32765
1.67439,-0.595219,-0.102591,18,32765
1.70055,-0.611057,-0.10405,19,32765
1.73603,-0.630422,-0.106123,19,32765
1.7152,-0.629301,-0.104765,19,32765
1.69438,-0.628063,-0.103516,19,32765
1.69232,-0.633645,-0.103234,19,32765
1.7089,-0.646314,-0.104128,20,32765
1.6974,-0.64851,-0.103291,21,32765
1.68593,-0.650573,-0.102478,19,32765
1.72096,-0.670748,-0.10444,20,32765
1.728,-0.680202,-0.104521,20,32765
1.70715,-0.678673,-0.103092,20,32765
1.69563,-0.680673,-0.102088,19,32765
1.73036,-0.701384,-0.104034,20,32765
1.728,-0.707236,-0.103525,20,32765
1.74405,-0.720769,-0.104303,20,32765
1.76005,-0.734387,-0.104892,21,32765
1.73916,-0.732635,-0.103345,20,32765
1.73674,-0.738425,-0.102742,20,32765
1.72506,-0.740398,-0.10194,20,32765
1.75925,-0.762084,-0.103355,20,32765
1.75665,-0.7681,-0.103009,20,32765
1.72664,-0.762002,-0.10078,19,32765
1.76056,-0.784115,-0.102349,20,32765
1.74879,-0.786062,-0.101268,20,32765
1.72797,-0.783697,-0.0996649,20,32765
1.71626,-0.785374,-0.0987369,19,32765
1.76807,-0.816197,-0.101181,19,32765
1.76537,-0.82211,-0.100522,19,32765
1.77166,-0.832306,-0.100437,19,32765
1.805,-0.855352,-0.101754,18,32765
1.7571,-0.839873,-0.098507,19,32765
1.74528,-0.84147,-0.0975255,19,32765
1.76941,-0.860463,-0.0984405,20,32765
1.78442,-0.875344,-0.0985982,19,32765
1.79038,-0.88593,-0.0982558,19,32765
1.78735,-0.892101,-0.0976587,19,32765
1.76649,-0.889231,-0.0958368,19,32765
1.75459,-0.890699,-0.0946489,20,32765
1.76044,-0.901279,-0.0945979,19,32765
1.77517,-0.916412,-0.0947491,19,32765
1.78093,-0.927063,-0.0945518,20,32765
1.769,-0.92841,-0.0933171,20,32765
1.77473,-0.939034,-0.0929844,19,32765
1.79798,-0.959208,-0.0936661,19,32765
1.77719,-0.955792,-0.0919115,19,32765
1.77402,-0.961756,-0.091077,19,32765
1.75328,-0.958118,-0.089533,18,32765
1.7851,-0.983269,-0.0904731,18,32765
1.79927,-0.999002,-0.0907706,18,32765
1.79592,-1.00507,-0.0899336,18,32765
1.82737,-1.03077,-0.0908434,19,32765
1.78921,-1.01712,-0.088238,19,32765
1.81189,-1.03795,-0.0885328,19,32765
1.83434,-1.05907,-0.0892284,19,32765
1.83081,-1.06523,-0.088466,19,32765
1.87894,-1.10175,-0.0902406,20,32765
1.84085,-1.08774,-0.0876901,19,32765
1.8458,-1.09904,-0.0872299,20,32765
1.82497,-1.095,-0.0858218,19,32765
1.83842,-1.11146,-0.0857654,20,32765
1.84328,-1.12276,-0.0855704,19,32765
1.82258,-1.11839,-0.0837402,18,32765
1.84442,-1.14012,-0.0843976,19,32765
1.89155,-1.17793,-0.0860019,19,32765
1.86229,-1.16827,-0.0838176,19,32765
1.85834,-1.17458,-0.0831887,19,32765
1.86287,-1.18615,-0.0828072,20,32765
1.83377,-1.17608,-0.0808349,19,32765
1.88023,-1.21472,-0.0824393,19,32765
1.85115,-1.20451,-0.080586,19,32765
1.88062,-1.23255,-0.0812973,19,32765
1.87656,-1.23876,-0.0804998,19,32765
1.87245,-1.24501,-0.0798742,20,32765
1.85999,-1.24571,-0.0789373,19,32765
1.88905,-1.27419,-0.0795664,19,32765
1.88485,-1.28044,-0.0788093,19,32765
1.90546,-1.30349,-0.0789327,20,32765
1.89308,-1.3039,-0.0780427,20,32765
1.89708,-1.31573,-0.0778399,20,32765
1.87639,-1.31048,-0.0767323,19,32765
1.95377,-1.37426,-0.0792649,19,32765
1.89213,-1.34032,-0.0761603,19,32765
1.92035,-1.36965,-0.0769919,19,32765
1.90782,-1.37,-0.076277,19,32765
1.90349,-1.37605,-0.0756984,18,32765
1.93141,-1.40565,-0.0767267,19,32765
1.91884,-1.40595,-0.0758234,18,32765
1.65986,-0.507099,-0.123717,18,32765
1.61059,-0.497921,-0.119062,16,32765
1.65656,-0.518291,-0.121574,17,32765
1.61683,-0.5118,-0.117977,17,32765
1.56769,-0.501951,-0.113525,16,32765
1.58506,-0.513257,-0.114264,17,32765
1.69721,-0.555691,-0.121612,18,32765
1.67647,-0.555061,-0.119457,18,32765
1.64626,-0.551166,-0.116773,18,32765
1.6728,-0.566319,-0.118034,18,32765
1.66152,-0.568662,-0.116567,19,32765
1.68797,-0.583896,-0.11796,19,32765
1.68607,-0.589537,-0.117168,19,32765
1.6465,-0.581845,-0.11402,19,32765
1.68215,-0.600862,-0.115848,18,32765
1.68014,-0.606582,-0.115264,19,32765
1.70625,-0.622538,-0.116474,19,32765
1.71352,-0.631799,-0.116485,19,32765
1.71143,-0.637558,-0.115807,19,32765
1.69064,-0.636297,-0.113919,19,32765
1.68852,-0.641979,-0.113386,19,32765
1.75165,-0.672625,-0.116967,21,32765
1.71221,-0.664062,-0.113857,16,32765
1.75647,-0.688003,-0.116488,19,32765
1.72633,-0.682934,-0.113972,19,32765
1.69624,-0.677655,-0.111627,19,32765
1.70324,-0.687117,-0.111501,20,32765
1.7287,-0.704106,-0.11281,20,32765
1.75405,-0.721341,-0.113925,20,32765
1.71474,-0.712009,-0.110996,19,32765
1.70315,-0.713959,-0.109693,19,32765
1.7559,-0.743121,-0.112598,20,32765
1.68916,-0.72158,-0.108042,19,32765
1.71426,-0.739147,-0.109016,18,32765
1.75752,-0.764915,-0.111423,19,32765
1.77321,-0.778952,-0.112102,20,32765
1.73407,-0.768812,-0.109164,19,32765
1.70409,-0.762582,-0.10691,17,32765
1.71973,-0.776602,-0.107396,17,32765
1.75343,-0.799043,-0.109128,18,32765
1.75077,-0.80495,-0.108459,18,32765
1.71188,-0.794004,-0.10553,18,32765
1.70922,-0.799765,-0.105132,18,32765
1.74268,-0.82255,-0.106677,18,32765
1.74887,-0.832856,-0.106733,17,32765
1.74604,-0.838854,-0.106107,18,32765
1.74319,-0.844857,-0.105366,18,32765
1.74033,-0.850819,-0.104705,19,32765
1.78227,-0.878763,-0.106701,18,32765
1.72566,-0.858137,-0.103018,18,32765
1.73171,-0.868424,-0.103003,18,32765
1.75551,-0.887875,-0.103775,18,32765
1.77916,-0.907535,-0.104715,18,32765
1.81162,-0.931877,-0.106042,19,32765
1.77302,-0.919635,-0.103279,18,32765
1.76998,-0.925543,-0.102621,18,32765
1.80226,-0.950093,-0.103878,18,32765
1.80787,-0.960908,-0.103775,19,32765
1.82226,-0.976455,-0.10402,19,32765
1.79265,-0.968328,-0.10169,18,32765
1.79822,-0.979069,-0.10155,18,32765
1.81258,-0.994549,-0.101579,19,32765
1.81807,-1.00537,-0.101237,18,32765
1.83219,-1.02116,-0.101469,19,32765
1.77648,-0.998075,-0.0977852,18,32765
1.7992,-1.01888,-0.0982448,18,32765
1.79584,-1.0249,-0.0972344,18,32765
1.84434,-1.06086,-0.0993501,19,32765
1.83221,-1.06198,-0.0979647,19,32765
1.82866,-1.06815,-0.0972085,18,32765
1.85955,-1.09458,-0.0979145,19,32765
1.8473,-1.09576,-0.0965229,18,32765
1.84364,-1.10199,-0.095379,17,32765
1.83146,-1.10295,-0.0940171,19,32765
1.86202,-1.12972,-0.0950216,19,32765
1.84134,-1.12536,-0.0929988,18,32765
1.84617,-1.13667,-0.09233,19,32765
1.8594,-1.15337,-0.091985,20,32765
1.83019,-1.14365,-0.0898389,18,32765
1.81796,-1.14442,-0.088304,18,32765
1.87334,-1.18781,-0.0899934,18,32765
1.83581,-1.17243,-0.0872964,19,32765
1.8572,-1.19471,-0.0871169,17,32765
1.87849,-1.21708,-0.0870759,18,32765
1.8494,-1.20691,-0.0849009,18,32765
1.91228,-1.25688,-0.0866645,18,32765
1.88319,-1.24664,-0.0841161,19,32765
1.86245,-1.24182,-0.0821052,18,32765
1.87499,-1.25911,-0.0814946,18,32765
1.87087,-1.26531,-0.0802512,19,32765
1.89983,-1.2939,-0.0804077,19,32765
1.90393,-1.30572,-0.0790925,19,32765
1.85031,-1.27793,-0.0757654,18,32765
1.88725,-1.31245,-0.0758082,18,32765
1.93215,-1.35299,-0.0763554,18,32765
1.84607,-1.30172,-0.0716749,18,32765
1.91518,-1.35988,-0.0727759,19,32765
1.94321,-1.38954,-0.0721865,18,32765
1.93864,-1.396,-0.0704316,19,32765
1.90176,-1.37886,-0.0674112,18,32765
1.92977,-1.40842,-0.0666048,19,32765
1.64867,-0.505396,-0.139196,20,32765
1.64706,-0.510926,-0.13807,20,32765
1.63588,-0.513556,-0.136272,20,32765
1.62471,-0.516034,-0.134672,19,32765
1.67052,-0.536683,-0.137562,20,32765
1.64983,-0.536034,-0.135334,19,32765
1.6955,-0.557,-0.13836,20,32765
1.67477,-0.556364,-0.136017,19,32765
1.65405,-0.555631,-0.133816,20,32765
1.69942,-0.577261,-0.136873,20,32765
1.6221,-0.55703,-0.130007,20,32765
1.66741,-0.578712,-0.133198,20,32765
1.68434,-0.590902,-0.13391,20,32765
1.673,-0.593186,-0.132622,20,32765
1.65226,-0.592151,-0.130366,19,32765
1.66903,-0.604578,-0.131265,19,32765
1.70448,-0.623964,-0.133492,20,32765
1.70239,-0.629782,-0.132866,19,32765
1.71899,-0.642503,-0.133642,20,32765
1.70753,-0.64479,-0.132285,19,32765
1.74266,-0.664764,-0.134625,20,32765
1.77773,-0.684904,-0.136686,15,32765
0,-0,-0,12,32765
1.71747,-0.674959,-0.131312,19,32765
1.73376,-0.688149,-0.13206,19,32765
1.7222,-0.690309,-0.130837,20,32765
1.7199,-0.696141,-0.130091,20,32765
1.7453,-0.713226,-0.131674,20,32765
1.71526,-0.707728,-0.128902,20,32765
1.71287,-0.713592,-0.12837,20,32765
1.71048,-0.719411,-0.127659,20,32765
1.70805,-0.725271,-0.127022,20,32765
1.74231,-0.746757,-0.129308,20,32765
1.69404,-0.732855,-0.125125,19,32765
1.71899,-0.750629,-0.126655,20,32765
1.70731,-0.752496,-0.125515,19,32765
1.74123,-0.774554,-0.127568,20,32765
1.72037,-0.772426,-0.125694,19,32765
1.7723,-0.803008,-0.129005,21,32765
1.75142,-0.800786,-0.127139,20,32765
1.75781,-0.810884,-0.127124,20,32765
1.72799,-0.804152,-0.124467,20,32765
1.74336,-0.818464,-0.125362,20,32765
1.77672,-0.841417,-0.127265,21,32765
1.7198,-0.821751,-0.122898,20,32765
1.76196,-0.849332,-0.125481,20,32765
1.76804,-0.859772,-0.125367,20,32765
1.74721,-0.857046,-0.123428,19,32765
1.75329,-0.867375,-0.123367,20,32765
1.77715,-0.886713,-0.124773,19,32765
1.75635,-0.883743,-0.12296,19,32765
1.76226,-0.894291,-0.122757,19,32765
1.78586,-0.91402,-0.123971,19,32765
1.75616,-0.906397,-0.121374,19,32765
1.74426,-0.907769,-0.120086,19,32765
1.77661,-0.932148,-0.121861,19,32765
1.7647,-0.933441,-0.120473,19,32765
1.80559,-0.962945,-0.12287,19,32765
1.76719,-0.950158,-0.119725,20,32765
1.77281,-0.960861,-0.119505,19,32765
1.76088,-0.961991,-0.118285,18,32765
1.79276,-0.987016,-0.119685,19,32765
1.76334,-0.978428,-0.117123,19,32765
1.7601,-0.984324,-0.116408,18,32765
1.78285,-1.00507,-0.117346,18,32765
1.79683,-1.02102,-0.11751,19,32765
1.82812,-1.04689,-0.118749,20,32765
1.85918,-1.07306,-0.120288,19,32765
1.80387,-1.04913,-0.116024,19,32765
1.80036,-1.05523,-0.115276,18,32765
1.77966,-1.05115,-0.11309,18,32765
1.83621,-1.09293,-0.115978,20,32765
1.83256,-1.09915,-0.114837,19,32765
1.84604,-1.11557,-0.114982,20,32765
1.85945,-1.13206,-0.115291,20,32765
1.79622,-1.10158,-0.110463,19,32765
1.8436,-1.13902,-0.112503,20,32765
1.85681,-1.15575,-0.112341,19,32765
1.83608,-1.15131,-0.110423,19,32765
1.83228,-1.15745,-0.109292,19,32765
1.83698,-1.1688,-0.108629,19,32765
1.88365,-1.20717,-0.110512,20,32765
1.83775,-1.18633,-0.106675,19,32765
1.88417,-1.22502,-0.108366,19,32765
1.86344,-1.22032,-0.106383,19,32765
1.85114,-1.22096,-0.104634,19,32765
1.84717,-1.22708,-0.103244,19,32765
1.89294,-1.26658,-0.104743,19,32765
1.85566,-1.25052,-0.101572,18,32765
1.8929,-1.28472,-0.102577,19,32765
1.88052,-1.28526,-0.100874,19,32765
1.90932,-1.31404,-0.10097,19,32765
1.88039,-1.30329,-0.0983665,19,32765
1.88442,-1.31512,-0.0971534,17,32765
1.89653,-1.33275,-0.0965899,18,32765
1.89221,-1.33899,-0.0951045,18,32765
1.91227,-1.36264,-0.0945792,19,32765
1.91589,-1.37488,-0.0931746,19,32765
1.92757,-1.39297,-0.0922148,19,32765
1.93924,-1.41104,-0.0911072,19,32765
1.94292,-1.42308,-0.0895152,19,32765
1.63989,-0.501683,-0.13225,18,32765
1.68585,-0.521716,-0.136418,18,32765
1.60798,-0.50343,-0.130597,19,32765
1.66334,-0.52677,-0.135304,19,32765
1.65208,-0.529223,-0.134741,19,32765
1.66924,-0.540948,-0.136373,18,32765
1.69586,-0.555776,-0.138776,19,32765
1.67507,-0.555169,-0.137228,19,32765
1.68269,-0.563859,-0.1379,19,32765
1.67139,-0.566182,-0.137066,19,32765
1.68835,-0.578221,-0.138651,19,32765
1.6676,-0.577301,-0.136877,20,32765
1.71268,-0.59945,-0.140631,20,32765
1.65428,-0.585235,-0.135856,19,32765
1.6899,-0.604164,-0.138686,19,32765
1.68787,-0.609806,-0.138628,19,32765
1.66714,-0.608559,-0.136717,19,32765
1.69315,-0.624574,-0.138806,19,32765
1.71908,-0.640774,-0.140612,18,32765
1.71693,-0.646576,-0.140316,19,32765
1.68679,-0.641768,-0.137685,20,32765
1.74051,-0.66889,-0.141856,14,32765
1.55237,-0.602556,-0.126402,12,32765
1.66177,-0.651469,-0.134939,16,32765
1.71522,-0.679064,-0.139221,19,32765
1.67591,-0.670055,-0.135813,19,32765
1.68293,-0.679398,-0.136212,19,32765
1.68064,-0.685149,-0.135694,19,32765
1.70599,-0.702279,-0.137517,19,32765
1.68518,-0.700517,-0.135447,19,32765
1.71042,-0.717816,-0.1371,19,32765
1.71719,-0.727503,-0.137434,19,32765
1.7056,-0.729404,-0.135997,18,32765
1.7398,-0.750959,-0.138403,19,32765
1.72814,-0.752912,-0.136983,19,32765
1.70735,-0.750761,-0.134898,19,32765
1.7231,-0.764612,-0.135662,19,32765
1.73872,-0.778649,-0.13654,18,32765
1.69065,-0.764046,-0.132427,19,32765
1.74258,-0.794569,-0.13587,19,32765
1.749,-0.804643,-0.135859,19,32765
1.71014,-0.79371,-0.132462,19,32765
1.72554,-0.807992,-0.133253,19,32765
1.72284,-0.81387,-0.132396,18,32765
1.76512,-0.841224,-0.135241,19,32765
1.77132,-0.851515,-0.135051,19,32765
1.8224,-0.883546,-0.138217,18,32765
1.73879,-0.850251,-0.131455,18,32765
1.76278,-0.869408,-0.132789,19,32765
1.74195,-0.866628,-0.130668,18,32765
1.75684,-0.881613,-0.131023,17,32765
1.76271,-0.89224,-0.130974,18,32765
1.71526,-0.875608,-0.126831,17,32765
1.79219,-0.922533,-0.131819,18,32765
1.78913,-0.928563,-0.131058,18,32765
1.77719,-0.929996,-0.12957,18,32765
1.77411,-0.93599,-0.128718,18,32765
1.80623,-0.960734,-0.130534,18,32765
1.79423,-0.96213,-0.128972,18,32765
1.79103,-0.968193,-0.128178,19,32765
1.82287,-0.99335,-0.129622,19,32765
1.84581,-1.01391,-0.13064,19,32765
1.80751,-1.00079,-0.127357,18,32765
1.77803,-0.992311,-0.124687,18,32765
1.77474,-0.99829,-0.123756,18,32765
1.81482,-1.02891,-0.126027,18,32765
1.81142,-1.03498,-0.125145,19,32765
1.79067,-1.03114,-0.123114,18,32765
1.77864,-1.0321,-0.121663,18,32765
1.81831,-1.06324,-0.123941,18,32765
1.83199,-1.0795,-0.124037,19,32765
1.77689,-1.05507,-0.119921,18,32765
1.82476,-1.09186,-0.122491,19,32765
1.82968,-1.10314,-0.122224,18,32765
1.84305,-1.11969,-0.12268,18,32765
1.83934,-1.12587,-0.12182,18,32765
1.88665,-1.16341,-0.124285,18,32765
1.84892,-1.14856,-0.121326,18,32765
1.85365,-1.15993,-0.12105,18,32765
1.80762,-1.13941,-0.117645,17,32765
1.82919,-1.16144,-0.118439,18,32765
1.81702,-1.16206,-0.11685,18,32765
1.82155,-1.17354,-0.116787,17,32765
1.87633,-1.21762,-0.11994,17,32765
1.84728,-1.20741,-0.117464,18,32765
1.91833,-1.26302,-0.121578,18,32765
1.89754,-1.25834,-0.119651,18,32765
1.90164,-1.27026,-0.119574,18,32765
1.92235,-1.29325,-0.120268,19,32765
1.85193,-1.25483,-0.115547,18,32765
1.89732,-1.29473,-0.11777,18,32765
1.86842,-1.28396,-0.115581,18,32765
1.88886,-1.30714,-0.116606,19,32765
1.85191,-1.29036,-0.11406,18,32765
1.90502,-1.33646,-0.116856,18,32765
1.89255,-1.33689,-0.115646,18,32765
1.91265,-1.36039,-0.116744,19,32765
1.9163,-1.3725,-0.116833,19,32765
1.92806,-1.39041,-0.117197,19,32765
1.88317,-1.36729,-0.114416,19,32765
1.91102,-1.39692,-0.116236,18,32765
1.63814,-0.502896,-0.148335,21,32765
1.6555,-0.51411,-0.150376,20,32765
1.65376,-0.519571,-0.150729,20,32765
1.63305,-0.518981,-0.149064,20,32765
1.65027,-0.530488,-0.151006,21,32765
1.64845,-0.536076,-0.151086,20,32765
1.66559,-0.54776,-0.152898,21,32765
1.64484,-0.547054,-0.151161,20,32765
1.69024,-0.568367,-0.155399,20,32765
1.66007,-0.56431,-0.152734,20,32765
1.63932,-0.563391,-0.151032,19,32765
1.65628,-0.575385,-0.152542,20,32765
1.65431,-0.581043,-0.152432,19,32765
1.68053,-0.596598,-0.154887,20,32765
1.67855,-0.602204,-0.154629,20,32765
1.66717,-0.604428,-0.153707,19,32765
1.66518,-0.609966,-0.153334,20,32765
1.70049,-0.629472,-0.156562,19,32765
1.71704,-0.642247,-0.157786,20,32765
1.68692,-0.637492,-0.154921,19,32765
1.70339,-0.650344,-0.156283,20,32765
1.71982,-0.663246,-0.1576,19,32765
1.70832,-0.665405,-0.156436,20,32765
1.69684,-0.667539,-0.155027,20,32765
1.68534,-0.669565,-0.15394,19,32765
1.71084,-0.68641,-0.15607,19,32765
1.72703,-0.699636,-0.157394,20,32765
1.67856,-0.686689,-0.152666,18,32765
1.72228,-0.711463,-0.15644,19,32765
1.71986,-0.71743,-0.155842,19,32765
1.72664,-0.727154,-0.1561,19,32765
1.73336,-0.736921,-0.156522,20,32765
1.73091,-0.742815,-0.155806,19,32765
1.72844,-0.748662,-0.155289,19,32765
1.75332,-0.766555,-0.15705,19,32765
1.7234,-0.760465,-0.153952,19,32765
1.72998,-0.77035,-0.154083,20,32765
1.75465,-0.788532,-0.15595,19,32765
1.73383,-0.786305,-0.153779,20,32765
1.72217,-0.788013,-0.152152,19,32765
1.6924,-0.78133,-0.149052,19,32765
1.72595,-0.803857,-0.151651,20,32765
1.7413,-0.818228,-0.15262,20,32765
1.73856,-0.824177,-0.151752,19,32765
1.75376,-0.838745,-0.152705,20,32765
1.72404,-0.831697,-0.149497,19,32765
1.74822,-0.850558,-0.150921,19,32765
1.76329,-0.865258,-0.151823,20,32765
1.76038,-0.871277,-0.151122,20,32765
1.75741,-0.877395,-0.150339,21,32765
1.76333,-0.887986,-0.150111,20,32765
1.7425,-0.885115,-0.147885,19,32765
1.74838,-0.895663,-0.147786,20,32765
1.75426,-0.906191,-0.147626,19,32765
1.73356,-0.902898,-0.145394,19,32765
1.7747,-0.931969,-0.148262,19,32765
1.78042,-0.94264,-0.148142,19,32765
1.78607,-0.953373,-0.148135,18,32765
1.78289,-0.959436,-0.147212,18,32765
1.75339,-0.951209,-0.144256,18,32765
1.80275,-0.985869,-0.147523,19,32765
1.80821,-0.996777,-0.147402,17,32765
1.82233,-1.01258,-0.148009,19,32765
1.77543,-0.994389,-0.143642,18,32765
1.7982,-1.01509,-0.144808,19,32765
1.82081,-1.03599,-0.146138,19,32765
1.79143,-1.02721,-0.143175,19,32765
1.80528,-1.04327,-0.143715,19,32765
1.79322,-1.04429,-0.14216,18,32765
1.81558,-1.06545,-0.143533,18,32765
1.82922,-1.08174,-0.143813,19,32765
1.7999,-1.07258,-0.141154,19,32765
1.87329,-1.12493,-0.146269,20,32765
1.83541,-1.11058,-0.142749,19,32765
1.84873,-1.12719,-0.143385,20,32765
1.81098,-1.11252,-0.139891,18,32765
1.85825,-1.15004,-0.142923,20,32765
1.82908,-1.14035,-0.14025,20,32765
1.82537,-1.14638,-0.139426,19,32765
1.83005,-1.15774,-0.139418,19,32765
1.85152,-1.1799,-0.140476,20,32765
1.88129,-1.20755,-0.141946,20,32765
1.86051,-1.20303,-0.140058,20,32765
1.86492,-1.21465,-0.140074,20,32765
1.84426,-1.20987,-0.137946,20,32765
1.85689,-1.22706,-0.138542,20,32765
1.86116,-1.23876,-0.138306,19,32765
1.89847,-1.27283,-0.140788,20,32765
1.86122,-1.25676,-0.13748,20,32765
1.89007,-1.28542,-0.139334,19,32765
1.88586,-1.29169,-0.138462,19,32765
1.87344,-1.29221,-0.137199,18,32765
1.8774,-1.30407,-0.137297,19,32765
1.94685,-1.3616,-0.142144,20,32765
1.88537,-1.32764,-0.13723,19,32765
1.87294,-1.32801,-0.13593,19,32765
1.85239,-1.3225,-0.134358,18,32765
1.90477,-1.36941,-0.138074,19,32765
1.90842,-1.38147,-0.138036,19,32765
1.93623,-1.41117,-0.140044,19,32765
1.94777,-1.42922,-0.14106,20,32765
1.64626,-0.502517,-0.173774,19,32765
1.60669,-0.496194,-0.168669,18,32765
1.64313,-0.513311,-0.171825,18,32765
1.62256,-0.512777,-0.168697,18,32765
1.65884,-0.530327,-0.171743,18,32765
1.64766,-0.532829,-0.170049,18,32765
1.65544,-0.541376,-0.170085,18,32765
1.64427,-0.543705,-0.168417,18,32765
1.652,-0.552278,-0.168486,19,32765
1.63139,-0.551366,-0.165687,18,32765
1.69552,-0.579446,-0.171598,20,32765
1.66543,-0.575381,-0.167869,18,32765
1.70113,-0.594164,-0.170975,18,32765
1.68039,-0.593354,-0.168263,18,32765
1.69721,-0.605715,-0.169338,18,32765
1.69521,-0.611495,-0.168642,18,32765
1.72127,-0.627449,-0.170671,18,32765
1.69119,-0.62296,-0.167064,17,32765
1.73581,-0.645982,-0.171059,18,32765
1.70574,-0.641347,-0.167406,17,32765
1.71292,-0.650674,-0.167759,17,32765
1.69217,-0.649419,-0.164992,16,32765
1.68998,-0.655253,-0.164358,16,32765
1.72488,-0.675559,-0.167363,16,32765
1.71341,-0.677714,-0.165646,18,32765
1.67418,-0.668707,-0.161428,18,32765
1.71816,-0.692995,-0.16513,19,32765
1.67897,-0.683816,-0.160836,19,32765
1.66746,-0.68582,-0.15918,18,32765
1.70192,-0.706873,-0.16212,18,32765
1.69035,-0.708907,-0.160561,19,32765
1.71553,-0.726274,-0.162458,19,32765
1.71313,-0.732083,-0.161664,19,32765
1.70153,-0.734001,-0.160133,20,32765
1.7082,-0.74378,-0.160448,19,32765
1.73306,-0.761686,-0.16227,20,32765
1.7214,-0.763608,-0.160627,18,32765
1.73697,-0.777728,-0.161747,19,32765
1.70711,-0.771421,-0.158408,19,32765
1.73173,-0.789645,-0.160176,18,32765
1.72909,-0.795552,-0.159489,19,32765
1.72647,-0.801401,-0.15866,18,32765
1.72379,-0.807234,-0.158153,19,32765
1.73912,-0.821588,-0.159199,18,32765
1.71843,-0.818869,-0.156695,18,32765
1.7516,-0.842014,-0.159416,18,32765
1.71289,-0.830637,-0.155459,18,32765
1.77271,-0.867258,-0.160544,19,32765
1.76084,-0.868965,-0.15892,18,32765
1.74006,-0.866131,-0.156586,18,32765
1.79058,-0.898905,-0.160917,19,32765
1.75203,-0.887006,-0.156595,18,32765
1.77562,-0.906657,-0.158533,18,32765
1.75484,-0.903641,-0.156106,18,32765
1.7695,-0.918804,-0.157067,18,32765
1.7753,-0.929375,-0.157114,18,32765
1.77225,-0.935303,-0.156381,18,32765
1.76035,-0.936603,-0.154779,18,32765
1.766,-0.947301,-0.154778,18,32765
1.78911,-0.967599,-0.156285,18,32765
1.81211,-0.988042,-0.157896,18,32765
1.7739,-0.974929,-0.153954,18,32765
1.7794,-0.98572,-0.153876,18,32765
1.77617,-0.991646,-0.153173,18,32765
1.80768,-1.01714,-0.155301,19,32765
1.80432,-1.02321,-0.154489,19,32765
1.77494,-1.01448,-0.151437,18,32765
1.84933,-1.06529,-0.157264,18,32765
1.82856,-1.06151,-0.15485,19,32765
1.81645,-1.0626,-0.153203,18,32765
1.82153,-1.07377,-0.153066,19,32765
1.78376,-1.05942,-0.149064,18,32765
1.82306,-1.09101,-0.151846,19,32765
1.81951,-1.09706,-0.150825,19,32765
1.86705,-1.13422,-0.154163,19,32765
1.82933,-1.11958,-0.150283,19,32765
1.8172,-1.12041,-0.148527,19,32765
1.85589,-1.15282,-0.150973,19,32765
1.82677,-1.14309,-0.147781,18,32765
1.83992,-1.15982,-0.14805,18,32765
1.86982,-1.18732,-0.149825,18,32765
1.81557,-1.16124,-0.144415,19,32765
1.87048,-1.20511,-0.148074,19,32765
1.84147,-1.19501,-0.144757,18,32765
1.82088,-1.19019,-0.142304,18,32765
1.86698,-1.22921,-0.145066,19,32765
1.84638,-1.22435,-0.14236,18,32765
1.86732,-1.24706,-0.143075,18,32765
1.87992,-1.26427,-0.142894,19,32765
1.89237,-1.28164,-0.142882,17,32765
1.84696,-1.25982,-0.138493,17,32765
1.83463,-1.26034,-0.136343,18,32765
1.94546,-1.34591,-0.14358,19,32765
1.89202,-1.31802,-0.138436,18,32765
1.86334,-1.30694,-0.135201,18,32765
1.89995,-1.34181,-0.136568,19,32765
1.89564,-1.34805,-0.1349,19,32765
1.91561,-1.3718,-0.134968,20,32765
1.88697,-1.36051,-0.131319,19,32765
1.93113,-1.40188,-0.132623,19,32765
1.89446,-1.38458,-0.12839,19,32765
1.6441,-0.503769,-0.189901,20,32765
1.65205,-0.512142,-0.18988,20,32765
1.65046,-0.517553,-0.189037,20,32765
1.6299,-0.517043,-0.185717,20,32765
1.62826,-0.522512,-0.184831,19,32765
1.62657,-0.527989,-0.184126,19,32765
1.61546,-0.530286,-0.182135,19,32765
1.6704,-0.554417,-0.187816,20,32765
1.64981,-0.553609,-0.184795,19,32765
1.64806,-0.559079,-0.183911,19,32765
1.61801,-0.555017,-0.179999,19,32765
1.64442,-0.570235,-0.182278,19,32765
1.6707,-0.585703,-0.184725,19,32765
1.66877,-0.591434,-0.183906,19,32765
1.65748,-0.593725,-0.182085,20,32765
1.67422,-0.606158,-0.183452,19,32765
1.6629,-0.608409,-0.181686,18,32765
1.67024,-0.617514,-0.18189,19,32765
1.66822,-0.623117,-0.181292,19,32765
1.6848,-0.635808,-0.182432,19,32765
1.6548,-0.630911,-0.178863,18,32765
1.72699,-0.665221,-0.185937,19,32765
1.63202,-0.635107,-0.175326,18,32765
1.69472,-0.666184,-0.1817,20,32765
1.72029,-0.682933,-0.183856,20,32765
1.6811,-0.673932,-0.179261,19,32765
1.71578,-0.694568,-0.182442,20,32765
1.70426,-0.696661,-0.180705,20,32765
1.72952,-0.713951,-0.182831,20,32765
1.69953,-0.708464,-0.179334,19,32765
1.71548,-0.722082,-0.180577,19,32765
1.7131,-0.7279,-0.179855,19,32765
1.7107,-0.733718,-0.179059,19,32765
1.68997,-0.731681,-0.17648,18,32765
1.71488,-0.749419,-0.178791,19,32765
1.73057,-0.763374,-0.179939,19,32765
1.70072,-0.757198,-0.176317,19,32765
1.69813,-0.763119,-0.175747,19,32765
1.71369,-0.777231,-0.176822,18,32765
1.72015,-0.787235,-0.177,19,32765
1.70848,-0.788945,-0.175387,19,32765
1.7149,-0.798946,-0.175488,18,32765
1.73026,-0.813228,-0.176824,19,32765
1.72754,-0.819108,-0.176215,19,32765
1.73384,-0.829238,-0.176269,20,32765
1.73104,-0.835182,-0.175712,20,32765
1.73717,-0.845505,-0.175922,20,32765
1.74321,-0.855958,-0.176224,19,32765
1.72247,-0.853152,-0.173618,19,32765
1.73741,-0.867989,-0.174694,20,32765
1.74336,-0.878421,-0.175113,20,32765
1.72269,-0.875364,-0.172222,19,32765
1.76401,-0.904047,-0.176213,20,32765
1.74327,-0.90099,-0.173603,20,32765
1.74024,-0.906943,-0.172994,20,32765
1.74606,-0.917444,-0.173143,20,32765
1.76945,-0.937281,-0.175031,19,32765
1.78393,-0.952658,-0.175935,20,32765
1.7632,-0.949297,-0.173424,20,32765
1.75123,-0.950621,-0.171771,19,32765
1.7655,-0.9662,-0.172816,19,32765
1.76231,-0.972158,-0.171928,19,32765
1.75911,-0.978097,-0.171098,19,32765
1.77328,-0.993715,-0.172086,19,32765
1.77869,-1.00456,-0.172065,19,32765
1.80136,-1.02534,-0.173769,18,32765
1.80658,-1.03642,-0.173761,19,32765
1.7945,-1.03757,-0.172129,19,32765
1.84273,-1.07374,-0.176139,20,32765
1.82201,-1.06984,-0.173569,19,32765
1.83563,-1.08613,-0.174334,19,32765
1.80643,-1.07691,-0.170758,19,32765
1.8456,-1.10864,-0.173989,20,32765
1.82494,-1.10447,-0.17135,20,32765
1.83832,-1.12097,-0.172051,19,32765
1.83468,-1.12708,-0.17098,19,32765
1.85644,-1.14893,-0.17227,19,32765
1.82728,-1.13934,-0.168898,20,32765
1.8658,-1.17193,-0.171656,19,32765
1.84512,-1.16751,-0.168996,19,32765
1.85812,-1.18437,-0.169599,19,32765
1.84592,-1.18513,-0.167444,20,32765
1.84204,-1.1913,-0.166434,19,32765
1.8549,-1.2083,-0.166608,20,32765
1.85931,-1.21994,-0.166193,20,32765
1.8553,-1.22618,-0.165042,19,32765
1.83474,-1.22128,-0.162155,20,32765
1.86393,-1.24956,-0.163878,20,32765
1.84344,-1.24448,-0.160992,19,32765
1.88892,-1.28421,-0.164051,19,32765
1.86003,-1.27361,-0.160619,19,32765
1.89694,-1.30816,-0.162584,20,32765
1.85173,-1.286,-0.157801,18,32765
1.89668,-1.32636,-0.160473,19,32765
1.87618,-1.32102,-0.157638,19,32765
1.91267,-1.35601,-0.159451,19,32765
1.9002,-1.35652,-0.157096,18,32765
1.90389,-1.36869,-0.156103,19,32765
1.8834,-1.36321,-0.15284,19,32765
1.88715,-1.37526,-0.15146,19,32765
1.92304,-1.41093,-0.152648,19,32765
1.66425,-0.508511,-0.184865,18,32765
1.64354,-0.508169,-0.182899,18,32765
1.63232,-0.510688,-0.181995,17,32765
1.61166,-0.510081,-0.179911,18,32765
1.61942,-0.5185,-0.180926,18,32765
1.67442,-0.542379,-0.187227,18,32765
1.6537,-0.541809,-0.185004,19,32765
1.63302,-0.541075,-0.182743,18,32765
1.64066,-0.549656,-0.183635,18,32765
1.69536,-0.574208,-0.189886,19,32765
1.69347,-0.57981,-0.18967,19,32765
1.70097,-0.588702,-0.190371,19,32765
1.63329,-0.571422,-0.182902,18,32765
1.67828,-0.59351,-0.187702,19,32765
1.67628,-0.59917,-0.187574,19,32765
1.63681,-0.59144,-0.183207,18,32765
1.68154,-0.61408,-0.187936,18,32765
1.70747,-0.630143,-0.190715,19,32765
1.65877,-0.618524,-0.185188,18,32765
1.70328,-0.641582,-0.190025,19,32765
1.69187,-0.643761,-0.188554,19,32765
1.72687,-0.663725,-0.192318,16,32765
1.81738,-0.705582,-0.202215,14,32765
1.62054,-0.635544,-0.180115,18,32765
1.69239,-0.670359,-0.187955,20,32765
1.67164,-0.668839,-0.185384,18,32765
1.71552,-0.693162,-0.19008,18,32765
1.70399,-0.695258,-0.188537,19,32765
1.69248,-0.697239,-0.187003,19,32765
1.71775,-0.714344,-0.189594,19,32765
1.7154,-0.720103,-0.189083,18,32765
1.7222,-0.729708,-0.189634,18,32765
1.73807,-0.743413,-0.190923,19,32765
1.68989,-0.729684,-0.185258,18,32765
1.71479,-0.747457,-0.18764,18,32765
1.69406,-0.745347,-0.184963,18,32765
1.69159,-0.75106,-0.184435,18,32765
1.71637,-0.768947,-0.186819,19,32765
1.68659,-0.762505,-0.183315,18,32765
1.70219,-0.776463,-0.184551,19,32765
1.70863,-0.786469,-0.184841,19,32765
1.70598,-0.792335,-0.184257,19,32765
1.73938,-0.815089,-0.187301,19,32765
1.70963,-0.808306,-0.183863,19,32765
1.72494,-0.822653,-0.18498,19,32765
1.70423,-0.819932,-0.18248,19,32765
1.73738,-0.843044,-0.185476,19,32765
1.72564,-0.844558,-0.183798,19,32765
1.73175,-0.854831,-0.184174,19,32765
1.73783,-0.865169,-0.184225,19,32765
1.7527,-0.880102,-0.185415,18,32765
1.7053,-0.863673,-0.180032,18,32765
1.71126,-0.874104,-0.180111,18,32765
1.77025,-0.91194,-0.185953,18,32765
1.77607,-0.922543,-0.186016,19,32765
1.72886,-0.905553,-0.180605,18,32765
1.73466,-0.916052,-0.180874,18,32765
1.74923,-0.931298,-0.181584,18,32765
1.78119,-0.956123,-0.184663,19,32765
1.78681,-0.966846,-0.18474,18,32765
1.76611,-0.963393,-0.18204,17,32765
1.82403,-1.00291,-0.187545,18,32765
1.82074,-1.00902,-0.186761,18,32765
1.84346,-1.02978,-0.188673,19,32765
1.78798,-1.00671,-0.182406,18,32765
1.76726,-1.00301,-0.179879,18,32765
1.79854,-1.02875,-0.182623,19,32765
1.80377,-1.0398,-0.182622,18,32765
1.80032,-1.0459,-0.181749,19,32765
1.83989,-1.07707,-0.185244,20,32765
1.80194,-1.06311,-0.181181,18,32765
1.79842,-1.06921,-0.180243,19,32765
1.8034,-1.08043,-0.180306,19,32765
1.81687,-1.09685,-0.18115,19,32765
1.86432,-1.13405,-0.185296,19,32765
1.83507,-1.12474,-0.181858,19,32765
1.84834,-1.14134,-0.18267,18,32765
1.84458,-1.14754,-0.181942,19,32765
1.82392,-1.14315,-0.17929,18,32765
1.81177,-1.14385,-0.177708,19,32765
1.82481,-1.16067,-0.178431,18,32765
1.82102,-1.16672,-0.177556,18,32765
1.81722,-1.17276,-0.176836,19,32765
1.83843,-1.19513,-0.178446,19,32765
1.87621,-1.22853,-0.181792,19,32765
1.86385,-1.22932,-0.180066,18,32765
1.81829,-1.20799,-0.175215,18,32765
1.88896,-1.26384,-0.181529,18,32765
1.86827,-1.259,-0.179149,18,32765
1.89715,-1.28757,-0.181605,18,32765
1.87648,-1.28262,-0.179197,19,32765
1.8805,-1.2945,-0.17911,20,32765
1.86806,-1.29508,-0.177529,19,32765
1.88834,-1.3184,-0.179167,19,32765
1.88414,-1.32451,-0.178322,18,32765
1.831,-1.29616,-0.173004,19,32765
1.90798,-1.36,-0.180273,20,32765
1.84693,-1.32552,-0.173951,18,32765
1.90729,-1.37827,-0.179482,18,32765
1.91092,-1.39031,-0.179793,19,32765
1.91443,-1.4025,-0.179821,20,32765
1.65247,-0.506873,-0.200016,20,32765
1.6223,-0.503548,-0.19671,20,32765
1.63006,-0.511958,-0.198011,20,32765
1.63782,-0.520368,-0.199193,20,32765
1.65498,-0.531938,-0.20145,20,32765
1.63427,-0.531424,-0.1991,20,32765
1.66079,-0.546239,-0.202442,20,32765
1.64955,-0.548665,-0.201142,20,32765
1.65715,-0.557325,-0.202123,19,32765
1.63649,-0.556411,-0.199746,19,32765
1.68164,-0.577979,-0.20527,19,32765
1.66097,-0.577075,-0.202629,18,32765
1.63091,-0.57279,-0.199086,17,32765
1.64774,-0.584955,-0.200924,18,32765
1.64577,-0.590528,-0.200796,17,32765
1.66241,-0.603004,-0.202898,17,32765
1.65107,-0.605271,-0.201259,17,32765
1.73288,-0.64198,-0.211132,18,32765
1.67491,-0.62694,-0.203999,18,32765
1.64497,-0.621996,-0.200245,18,32765
1.70789,-0.652351,-0.207725,18,32765
1.67791,-0.647382,-0.203967,17,32765
1.67575,-0.653091,-0.203556,17,32765
1.6643,-0.65521,-0.201983,18,32765
1.72674,-0.686587,-0.209434,20,32765
1.71518,-0.68889,-0.207781,19,32765
1.69445,-0.687275,-0.205124,20,32765
1.66456,-0.681775,-0.201268,19,32765
1.70822,-0.706419,-0.206305,21,32765
1.71507,-0.715962,-0.206954,20,32765
1.6944,-0.714009,-0.204234,20,32765
1.71034,-0.72746,-0.205982,20,32765
1.71706,-0.737239,-0.206361,20,32765
1.70546,-0.739222,-0.204615,19,32765
1.73027,-0.757094,-0.207266,20,32765
1.75501,-0.775119,-0.20983,20,32765
1.73428,-0.772961,-0.207112,20,32765
1.72267,-0.774726,-0.205432,20,32765
1.72007,-0.780622,-0.20488,19,32765
1.72654,-0.79059,-0.205209,19,32765
1.72389,-0.796536,-0.204508,19,32765
1.73923,-0.810875,-0.206051,20,32765
1.73653,-0.816869,-0.205194,19,32765
1.70681,-0.810066,-0.201476,19,32765
1.74899,-0.837322,-0.205945,19,32765
1.75513,-0.847658,-0.206408,19,32765
1.75236,-0.853577,-0.205551,20,32765
1.73168,-0.850764,-0.202726,21,32765
1.74665,-0.865502,-0.204231,21,32765
1.74379,-0.871471,-0.203327,21,32765
1.74972,-0.881986,-0.203662,22,32765
1.7556,-0.892565,-0.203995,22,32765
1.74373,-0.894121,-0.202087,21,32765
1.74953,-0.904739,-0.202426,22,32765
1.74654,-0.910701,-0.201571,22,32765
1.75228,-0.921359,-0.201791,22,32765
1.74921,-0.927305,-0.20113,22,32765
1.76372,-0.942639,-0.202012,20,32765
1.7693,-0.953412,-0.202446,20,32765
1.73994,-0.945127,-0.198625,19,32765
1.78043,-0.974968,-0.202716,19,32765
1.75981,-0.971342,-0.19995,19,32765
1.75662,-0.977255,-0.19919,18,32765
1.78807,-1.00272,-0.202384,19,32765
1.78475,-1.0088,-0.201455,19,32765
1.77271,-1.01001,-0.199715,18,32765
1.80389,-1.03583,-0.202823,19,32765
1.80908,-1.04692,-0.202907,20,32765
1.80561,-1.05307,-0.202028,19,32765
1.79358,-1.05407,-0.20023,19,32765
1.81572,-1.07543,-0.202495,19,32765
1.82071,-1.0867,-0.202496,19,32765
1.79149,-1.0775,-0.19885,18,32765
1.82196,-1.10424,-0.201766,18,32765
1.83531,-1.12079,-0.202706,18,32765
1.83158,-1.12702,-0.201803,19,32765
1.81943,-1.12791,-0.200006,19,32765
1.84103,-1.14986,-0.202066,19,32765
1.82882,-1.15076,-0.200149,19,32765
1.81667,-1.15149,-0.198468,20,32765
1.84643,-1.17908,-0.201198,20,32765
1.83421,-1.17984,-0.199398,21,32765
1.83871,-1.19135,-0.199575,20,32765
1.85147,-1.20841,-0.200544,22,32765
1.83919,-1.2091,-0.19894,22,32765
1.86843,-1.23727,-0.201617,21,32765
1.84777,-1.2325,-0.198974,21,32765
1.85206,-1.24413,-0.198992,21,32765
1.88097,-1.27266,-0.201748,21,32765
1.85211,-1.26207,-0.19839,20,32765
1.83155,-1.25697,-0.195814,20,32765
1.86022,-1.28572,-0.198457,20,32765
1.856,-1.29193,-0.197658,19,32765
1.8436,-1.2924,-0.196101,20,32765
1.88831,-1.33285,-0.200455,19,32765
1.86772,-1.32755,-0.198023,18,32765
1.88771,-1.35106,-0.200185,19,32765
1.89955,-1.36888,-0.200918,19,32765
1.91124,-1.3868,-0.20205,18,32765
1.90677,-1.39301,-0.201596,19,32765
1.91828,-1.41112,-0.202559,19,32765
1.64099,-0.500839,-0.221858,18,32765
1.61102,-0.497562,-0.216879,18,32765
1.64733,-0.514779,-0.221122,18,32765
1.61736,-0.511278,-0.216401,18,32765
1.663,-0.531781,-0.221875,19,32765
1.65185,-0.534402,-0.219758,19,32765
1.65014,-0.539999,-0.218923,19,32765
1.67663,-0.554992,-0.221992,19,32765
1.6184,-0.541804,-0.213606,18,32765
1.65426,-0.559985,-0.217811,19,32765
1.6055,-0.549519,-0.210955,18,32765
1.68811,-0.58416,-0.221452,19,32765
1.65811,-0.580079,-0.217015,19,32765
1.67491,-0.592344,-0.218841,19,32765
1.66365,-0.594671,-0.216858,19,32765
1.68037,-0.607103,-0.218564,18,32765
1.67839,-0.612821,-0.217858,19,32765
1.6764,-0.618451,-0.217253,19,32765
1.67436,-0.62414,-0.216713,20,32765
1.67235,-0.62977,-0.215969,19,32765
1.6981,-0.646129,-0.21877,19,32765
1.71448,-0.659083,-0.220581,20,32765
1.66602,-0.646981,-0.214015,19,32765
1.70085,-0.667207,-0.218059,16,32765
1.69871,-0.672911,-0.217198,14,32765
1.69646,-0.678722,-0.216679,19,32765
1.70346,-0.688137,-0.217227,20,32765
1.692,-0.690138,-0.215497,20,32765
1.68973,-0.695931,-0.214664,20,32765
1.68738,-0.701827,-0.213974,19,32765
1.73074,-0.727053,-0.219182,20,32765
1.70085,-0.721424,-0.21506,19,32765
1.67103,-0.71557,-0.210979,18,32765
1.72337,-0.744944,-0.217156,19,32765
1.7027,-0.742859,-0.214158,19,32765
1.71841,-0.756702,-0.215799,19,32765
1.75222,-0.778722,-0.219597,19,32765
1.7224,-0.77253,-0.215687,18,32765
1.71082,-0.774291,-0.213699,18,32765
1.72631,-0.788414,-0.215303,19,32765
1.73268,-0.79855,-0.215754,18,32765
1.71201,-0.796102,-0.212741,18,32765
1.71833,-0.806176,-0.213337,18,32765
1.69771,-0.803523,-0.210324,18,32765
1.70403,-0.813575,-0.210625,18,32765
1.7192,-0.828105,-0.212123,19,32765
1.73432,-0.842675,-0.213605,19,32765
1.71365,-0.839884,-0.210706,19,32765
1.71974,-0.850197,-0.211068,20,32765
1.72583,-0.860506,-0.211283,21,32765
1.71404,-0.862015,-0.209498,20,32765
1.70233,-0.863337,-0.207651,20,32765
1.72598,-0.882826,-0.210039,20,32765
1.75835,-0.907012,-0.213623,20,32765
1.75533,-0.913047,-0.212765,19,32765
1.72585,-0.905229,-0.20882,19,32765
1.79323,-0.948226,-0.216352,20,32765
1.75502,-0.935541,-0.211318,19,32765
1.79576,-0.964996,-0.215732,19,32765
1.74889,-0.94734,-0.209634,18,32765
1.7283,-0.943771,-0.206579,18,32765
1.77745,-0.978441,-0.211947,19,32765
1.80903,-1.00377,-0.215102,18,32765
1.81442,-1.01474,-0.215134,18,32765
1.7938,-1.01105,-0.211996,18,32765
1.79043,-1.01719,-0.211163,18,32765
1.77846,-1.01835,-0.208963,18,32765
1.844,-1.06421,-0.216206,18,32765
1.80608,-1.05052,-0.210887,18,32765
1.81124,-1.06163,-0.210844,17,32765
1.82489,-1.0779,-0.211677,18,32765
1.7786,-1.05863,-0.205659,17,32765
1.81782,-1.09021,-0.209502,18,32765
1.80574,-1.09119,-0.207386,18,32765
1.81069,-1.10242,-0.207337,18,32765
1.82407,-1.11892,-0.208032,19,32765
1.76963,-1.09366,-0.201004,19,32765
1.79991,-1.12062,-0.203568,19,32765
1.81313,-1.13724,-0.204331,19,32765
1.8516,-1.16976,-0.207927,20,32765
1.83945,-1.17057,-0.205636,20,32765
1.81055,-1.16053,-0.201674,19,32765
1.85703,-1.19895,-0.205816,20,32765
1.84481,-1.19972,-0.203648,20,32765
1.84927,-1.21134,-0.203081,20,32765
1.82872,-1.20656,-0.200001,19,32765
1.8663,-1.24023,-0.203071,19,32765
1.82916,-1.22436,-0.198012,20,32765
1.87472,-1.26392,-0.202031,19,32765
1.88722,-1.28128,-0.201988,19,32765
1.85841,-1.27072,-0.197999,19,32765
1.85437,-1.27684,-0.196508,20,32765
1.89946,-1.31696,-0.200226,20,32765
1.8381,-1.28325,-0.192742,20,32765
1.91559,-1.34656,-0.199422,20,32765
1.91125,-1.35297,-0.197754,18,32765
1.91508,-1.36505,-0.196775,19,32765
