x, y, z, intensity, ring
4.96133,2.75656,0.787088,43,32765
4.97949,2.74463,0.786943,43,32765
4.98879,2.72827,0.784979,43,32765
4.99817,2.71157,0.783098,40,32765
4.97249,2.67643,0.77532,20,32765
4.92927,2.6318,0.765217,16,32765
4.92081,2.60609,0.760431,16,32765
5.04366,2.64991,0.775866,38,32765
5.07018,2.64248,0.776826,44,32765
5.079,2.62608,0.774837,45,32765
5.10569,2.61832,0.774897,45,32765
5.07925,2.58338,0.76804,44,32765
5.1147,2.57966,0.770493,43,32765
5.14138,2.57117,0.771549,43,32765
5.17693,2.56712,0.773459,45,32765
5.15036,2.53207,0.765858,42,32765
5.17685,2.52356,0.766816,45,32765
5.14079,2.485,0.758062,43,32765
5.1937,2.48968,0.763562,43,32765
5.25581,2.4983,0.76932,45,32765
5.2373,2.46833,0.763946,43,32765
5.25462,2.45532,0.763463,44,32765
5.28089,2.44636,0.764465,44,32765
5.29829,2.43305,0.763408,43,32765
5.3065,2.41555,0.761938,44,32765
5.29667,2.38982,0.757391,44,32765
5.33191,2.38445,0.759768,45,32765
5.33988,2.36691,0.758635,45,32765
5.34791,2.34917,0.757223,43,32765
5.3467,2.32769,0.754359,43,32765
5.38209,2.3216,0.755917,44,32765
5.38072,2.2999,0.753878,45,32765
5.39761,2.28616,0.753256,43,32765
5.45095,2.28752,0.758943,44,32765
5.38522,2.23946,0.747399,43,32765
5.42957,2.23679,0.750331,45,32765
5.47362,2.2342,0.754635,45,32765
5.48093,2.21648,0.753789,45,32765
5.51593,2.20963,0.756389,44,32765
5.4956,2.1807,0.751339,42,32765
5.52131,2.17001,0.75275,45,32765
5.54701,2.15907,0.754404,45,32765
5.55409,2.14108,0.753601,46,32765
5.57053,2.12636,0.753586,48,32765
5.56818,2.10483,0.75169,46,32765
5.60304,2.09692,0.754792,47,32765
5.582,2.06847,0.750162,46,32765
5.61666,2.06075,0.75326,45,32765
5.6235,2.04237,0.752285,44,32765
5.64893,2.03078,0.753707,46,32765
5.63692,2.00557,0.7508,45,32765
5.67152,1.99714,0.754291,45,32765
5.69651,1.98585,0.756684,47,32765
5.69341,1.96457,0.75523,46,32765
5.72774,1.95626,0.758996,47,32765
5.73407,1.93778,0.758539,47,32765
5.74035,1.91906,0.758693,43,32765
5.6995,1.88491,0.751859,18,32765
5.68659,1.86041,0.750007,13,32765
5.75842,1.86388,0.759293,21,32765
5.80198,1.85775,0.7651,43,32765
5.83601,1.84854,0.76989,46,32765
4.39463,3.23357,0.837625,32,32765
4.45373,3.2544,0.842386,34,32765
4.47305,3.24568,0.839917,33,32765
4.42835,3.19035,0.825675,35,32765
4.47966,3.20463,0.829377,33,32765
4.45867,3.16696,0.819452,33,32765
4.45324,3.14111,0.813737,33,32765
4.48017,3.13806,0.813384,33,32765
4.49074,3.12368,0.810402,33,32765
4.55842,3.14829,0.817973,35,32765
4.56127,3.1276,0.813042,35,32765
4.53127,3.08457,0.80288,35,32765
4.53362,3.0643,0.798294,33,32765
4.61826,3.09889,0.808095,37,32765
4.60406,3.06746,0.800885,34,32765
4.61455,3.05237,0.798122,36,32765
4.63324,3.04278,0.796579,34,32765
4.64357,3.02767,0.794016,37,32765
4.63725,3.00178,0.78844,34,32765
4.68907,3.0134,0.793036,41,32765
4.68269,2.98743,0.787249,36,32765
4.69298,2.97199,0.784397,38,32765
4.6863,2.94602,0.779529,36,32765
4.75518,2.96729,0.786821,40,32765
4.71461,2.92048,0.776699,34,32765
4.74139,2.91551,0.776819,34,32765
4.8021,2.93095,0.782193,35,32765
4.778,2.89483,0.774766,38,32765
4.81317,2.89464,0.776772,36,32765
4.78034,2.85369,0.767552,34,32765
4.79862,2.84294,0.766662,38,32765
4.83407,2.84194,0.768574,37,32765
4.78408,2.79073,0.75665,36,32765
4.84526,2.80432,0.76273,39,32765
4.87186,2.79842,0.763374,36,32765
4.88115,2.78276,0.761293,38,32765
4.86449,2.75235,0.75556,37,32765
4.89954,2.75121,0.757799,39,32765
4.8396,2.69653,0.745042,34,32765
4.94408,2.73337,0.75812,39,32765
4.92742,2.70261,0.751878,38,32765
4.9627,2.70062,0.753861,37,32765
4.93692,2.66546,0.746835,23,32765
5.00724,2.68169,0.754294,14,32765
0,0,0,0,32765
4.86747,2.56553,0.72681,19,32765
5.01672,2.62304,0.745837,38,32765
5.0079,2.59749,0.741683,39,32765
5.05193,2.59921,0.744958,41,32765
5.03418,2.56901,0.739742,36,32765
5.07837,2.57013,0.743057,39,32765
5.05183,2.53525,0.735875,37,32765
5.10499,2.54039,0.74028,38,32765
5.06038,2.49684,0.731066,35,32765
5.12236,2.50609,0.737138,38,32765
5.11306,2.48043,0.732783,37,32765
5.15737,2.48053,0.735764,40,32765
5.17468,2.46759,0.736229,39,32765
5.17413,2.44623,0.732997,38,32765
5.19141,2.43345,0.732079,39,32765
5.21755,2.42482,0.733112,40,32765
5.23477,2.41173,0.732687,38,32765
5.2339,2.39032,0.729822,40,32765
5.26014,2.38112,0.730476,39,32765
5.29542,2.37583,0.732449,40,32765
5.27636,2.34622,0.726458,40,32765
5.3117,2.34045,0.728475,43,32765
5.36507,2.34271,0.733283,43,32765
5.37314,2.32477,0.731316,44,32765
5.32641,2.28335,0.722006,40,32765
5.3068,2.25416,0.716038,40,32765
5.4241,2.28295,0.729549,39,32765
5.36767,2.2385,0.71888,41,32765
5.40276,2.23231,0.720489,42,32765
5.43779,2.22603,0.722231,41,32765
5.45465,2.2116,0.721506,40,32765
5.46226,2.19347,0.719271,40,32765
5.479,2.17906,0.718222,41,32765
5.49563,2.16465,0.71751,40,32765
5.5121,2.15051,0.716678,41,32765
5.49145,2.12195,0.711437,39,32765
5.49861,2.10431,0.708583,43,32765
5.50557,2.08664,0.706768,40,32765
5.54044,2.07931,0.708185,38,32765
5.56602,2.06841,0.708211,41,32765
5.59161,2.05718,0.708497,45,32765
5.59864,2.03875,0.706217,42,32765
5.6055,2.02058,0.703979,45,32765
5.57493,1.98909,0.696602,39,32765
5.59099,1.97439,0.69538,42,32765
5.66326,1.97928,0.701118,47,32765
5.66995,1.96082,0.698852,43,32765
5.67649,1.94267,0.69644,47,32765
5.70181,1.931,0.695845,43,32765
5.69875,1.91004,0.691748,41,32765
5.70494,1.89235,0.689303,40,32765
0,0,0,0,32765
5.66074,1.83793,0.676849,13,32765
5.70476,1.83222,0.677899,24,32765
5.78651,1.83869,0.683805,38,32765
5.78309,1.81825,0.678102,43,32765
4.43841,3.27047,0.793374,38,32765
4.47368,3.27367,0.793281,37,32765
4.46903,3.24741,0.78647,38,32765
4.52865,3.26728,0.791115,39,32765
4.49974,3.2236,0.780305,39,32765
4.50297,3.20299,0.774898,39,32765
4.50573,3.18265,0.770722,40,32765
4.50035,3.15668,0.764631,38,32765
4.56787,3.18184,0.771239,38,32765
4.54617,3.14428,0.763067,39,32765
4.56532,3.13479,0.760959,40,32765
4.62534,3.15304,0.766174,40,32765
4.59508,3.11021,0.756212,41,32765
4.6388,3.11704,0.758406,42,32765
4.64112,3.09648,0.754139,40,32765
4.65997,3.08671,0.752686,39,32765
4.67876,3.07695,0.751018,40,32765
4.6975,3.06708,0.749752,41,32765
4.6996,3.04635,0.745647,42,32765
4.71826,3.03634,0.744481,41,32765
4.73699,3.02623,0.742789,42,32765
4.72229,2.99465,0.735987,41,32765
4.74922,2.98966,0.736495,41,32765
4.79307,2.99501,0.739209,44,32765
4.7694,2.95842,0.732217,41,32765
4.79631,2.95327,0.732117,41,32765
4.81487,2.94271,0.730476,42,32765
4.81622,2.92191,0.727257,41,32765
4.826,2.90625,0.725133,41,32765
4.83574,2.89062,0.722734,42,32765
4.85415,2.87966,0.721723,42,32765
4.8641,2.86338,0.719533,42,32765
4.84838,2.83198,0.713286,41,32765
4.884,2.83045,0.715007,42,32765
4.90209,2.81947,0.714193,44,32765
4.92006,2.8086,0.713346,43,32765
4.938,2.79757,0.712862,42,32765
4.92132,2.76702,0.707334,43,32765
4.95669,2.76532,0.708946,42,32765
4.96599,2.749,0.707354,44,32765
5.00154,2.74677,0.708776,45,32765
4.9847,2.71604,0.703072,44,32765
4.99386,2.69962,0.701315,42,32765
4.95939,2.65942,0.693421,21,32765
4.96838,2.64318,0.691137,18,32765
4.95977,2.61745,0.687111,16,32765
5.00379,2.61954,0.690053,32,32765
5.06542,2.63058,0.695767,44,32765
5.10077,2.62758,0.697438,45,32765
5.09193,2.60167,0.693692,45,32765
5.10084,2.58465,0.691806,43,32765
5.11867,2.57191,0.690975,44,32765
5.14533,2.56356,0.691302,44,32765
5.14525,2.54178,0.688592,45,32765
5.18069,2.53767,0.690509,47,32765
5.17147,2.51176,0.686318,44,32765
5.19803,2.50305,0.686536,45,32765
5.21543,2.48995,0.6869,45,32765
5.22391,2.47266,0.68492,44,32765
5.2323,2.45548,0.682713,44,32765
5.30354,2.46764,0.689398,47,32765
5.27582,2.43345,0.683013,44,32765
5.32921,2.43664,0.687216,46,32765
5.29229,2.39842,0.679516,44,32765
5.33671,2.39708,0.682354,44,32765
5.29046,2.35515,0.67316,45,32765
5.36221,2.36537,0.679498,46,32765
5.352,2.33961,0.675778,45,32765
5.36005,2.32168,0.673814,46,32765
5.37716,2.30765,0.673068,44,32765
5.4216,2.30546,0.67533,46,32765
5.42014,2.28378,0.672913,45,32765
5.41866,2.26223,0.669698,46,32765
5.41712,2.24067,0.666486,45,32765
5.4522,2.23434,0.66794,48,32765
5.46909,2.21983,0.667115,47,32765
5.47672,2.20162,0.664873,47,32765
5.53965,2.20551,0.669301,48,32765
5.54713,2.18724,0.66736,48,32765
5.56367,2.1729,0.666415,47,32765
5.55234,2.14771,0.662544,46,32765
5.56884,2.1334,0.660758,46,32765
5.58519,2.11899,0.660017,46,32765
5.58297,2.09742,0.656743,46,32765
5.6086,2.08636,0.656562,46,32765
5.62493,2.07154,0.655556,47,32765
5.65068,2.05978,0.655428,47,32765
5.64826,2.03803,0.652088,48,32765
5.68323,2.02975,0.652591,49,32765
5.68067,2.00805,0.649085,47,32765
5.70618,1.99625,0.648792,51,32765
5.71292,1.97762,0.646508,47,32765
5.7195,1.9593,0.644077,49,32765
5.71662,1.93789,0.640107,46,32765
5.74184,1.92633,0.639245,46,32765
5.73863,1.90535,0.635735,48,32765
5.72606,1.88098,0.630641,31,32765
5.73226,1.86292,0.627953,17,32765
5.71956,1.83871,0.622401,16,32765
5.7919,1.84214,0.626522,36,32765
5.83589,1.83657,0.625998,47,32765
4.40796,3.24293,0.723644,33,32765
4.42696,3.23387,0.72454,35,32765
4.42965,3.21345,0.722739,36,32765
4.43194,3.19355,0.720605,33,32765
4.52272,3.23735,0.732591,33,32765
4.50922,3.20538,0.727265,34,32765
4.45509,3.14478,0.715901,33,32765
4.49001,3.14713,0.718545,33,32765
4.5168,3.14373,0.719717,36,32765
4.5598,3.15162,0.723623,35,32765
4.55391,3.1255,0.71974,34,32765
4.54785,3.09959,0.715598,35,32765
4.55826,3.08466,0.713881,36,32765
4.56868,3.06956,0.712334,36,32765
4.64504,3.09846,0.721152,36,32765
4.63089,3.06646,0.715333,34,32765
4.65778,3.06207,0.716404,37,32765
4.67622,3.05237,0.716194,39,32765
4.66969,3.02636,0.712201,36,32765
4.68798,3.01669,0.711906,37,32765
4.68137,2.99065,0.707625,38,32765
4.70817,2.98596,0.708259,37,32765
4.73496,2.98112,0.708964,37,32765
4.7029,2.93936,0.700744,36,32765
4.78012,2.96587,0.709242,36,32765
4.77335,2.93955,0.704791,38,32765
4.76651,2.91325,0.700159,39,32765
4.78501,2.90236,0.699692,38,32765
4.77789,2.87632,0.694956,37,32765
4.79602,2.86576,0.694652,36,32765
4.79699,2.84509,0.691873,35,32765
4.8065,2.82958,0.689566,34,32765
4.82463,2.81871,0.689006,38,32765
4.88585,2.83245,0.69409,38,32765
4.88701,2.81103,0.691115,37,32765
4.89664,2.7947,0.689195,37,32765
4.88022,2.76393,0.683092,38,32765
4.90679,2.75765,0.683873,38,32765
4.91602,2.74166,0.68183,37,32765
4.91669,2.72071,0.677908,37,32765
4.93456,2.70917,0.677759,39,32765
4.96128,2.7022,0.678137,37,32765
4.95302,2.67631,0.67368,39,32765
4.97087,2.66452,0.673171,23,32765
0,0,0,0,32765
4.94503,2.60851,0.662775,19,32765
4.95381,2.59229,0.660789,19,32765
5.04197,2.617,0.669519,40,32765
5.05977,2.60466,0.66885,41,32765
5.04219,2.57415,0.663346,39,32765
5.08654,2.57518,0.665728,39,32765
5.10427,2.56268,0.664539,41,32765
5.11299,2.54584,0.662255,41,32765
5.0859,2.5114,0.65619,38,32765
5.12124,2.50759,0.657637,39,32765
5.1388,2.49484,0.656552,43,32765
5.17423,2.49049,0.658208,39,32765
5.16481,2.46475,0.653764,40,32765
5.20006,2.46059,0.654983,43,32765
5.18126,2.43099,0.649976,39,32765
5.27048,2.45177,0.658262,43,32765
5.21559,2.40528,0.648569,40,32765
5.21475,2.38387,0.645353,40,32765
5.23182,2.37075,0.644959,40,32765
5.30346,2.38162,0.650916,41,32765
5.31164,2.36378,0.649258,39,32765
5.32872,2.35016,0.648944,40,32765
5.35483,2.34077,0.648898,43,32765
5.34435,2.31546,0.645165,40,32765
5.34301,2.29388,0.642501,43,32765
5.35082,2.27601,0.641088,43,32765
5.39524,2.27357,0.643732,45,32765
5.43964,2.27084,0.646969,42,32765
5.41045,2.2379,0.641052,42,32765
5.39028,2.20901,0.6362,41,32765
5.46198,2.21775,0.642826,43,32765
5.46015,2.19621,0.64018,41,32765
5.43046,2.1638,0.634423,41,32765
5.44679,2.14984,0.634584,42,32765
5.47245,2.13933,0.635348,36,32765
5.5073,2.13224,0.637781,38,32765
5.45858,2.09315,0.63009,44,32765
5.52131,2.09644,0.63538,41,32765
5.56537,2.09257,0.638933,44,32765
5.55365,2.06748,0.635666,43,32765
5.57916,2.05608,0.637109,44,32765
5.59525,2.04142,0.637118,42,32765
5.62068,2.02997,0.638214,43,32765
5.61785,2.00848,0.636959,42,32765
5.64313,1.99682,0.638919,44,32765
5.6497,1.97847,0.637932,43,32765
5.6655,1.96347,0.638608,46,32765
5.65299,1.93886,0.636074,43,32765
5.69682,1.93372,0.639947,48,32765
5.73121,1.925,0.643417,46,32765
5.72795,1.90354,0.641856,42,32765
5.70568,1.87602,0.638246,24,32765
5.7114,1.85825,0.639035,16,32765
5.7455,1.8497,0.642412,13,32765
5.79862,1.84654,0.648636,28,32765
5.83301,1.83654,0.652368,45,32765
4.41861,3.25628,0.673395,39,32765
4.45369,3.25889,0.676627,39,32765
4.45647,3.23834,0.674913,38,32765
4.47495,3.22993,0.675293,38,32765
4.50943,3.23321,0.677845,40,32765
4.52017,3.21848,0.67643,40,32765
4.50659,3.18636,0.671848,39,32765
4.54166,3.18855,0.674195,40,32765
4.53603,3.16227,0.670347,40,32765
4.60361,3.18707,0.677475,41,32765
4.57329,3.14388,0.670167,40,32765
4.62468,3.15703,0.674574,41,32765
4.62707,3.13625,0.671632,40,32765
4.63767,3.12089,0.670059,40,32765
4.65645,3.11102,0.669792,41,32765
4.66716,3.09536,0.667797,41,32765
4.6444,3.05808,0.661579,41,32765
4.7127,3.08101,0.66835,42,32765
4.67294,3.03321,0.659824,41,32765
4.71631,3.03965,0.662952,42,32765
4.73486,3.02951,0.662355,43,32765
4.74503,3.01399,0.660444,43,32765
4.73833,2.98783,0.656291,41,32765
4.79886,3.00393,0.661296,44,32765
4.76667,2.96204,0.653966,42,32765
4.79369,2.95657,0.654321,43,32765
4.81232,2.9457,0.653314,43,32765
4.83094,2.93464,0.652735,42,32765
4.8154,2.90326,0.647018,41,32765
4.8251,2.88745,0.645465,41,32765
4.85177,2.88187,0.646181,41,32765
4.86138,2.86615,0.643845,43,32765
4.85392,2.84002,0.639778,41,32765
4.90666,2.84871,0.643158,43,32765
4.89065,2.81725,0.63802,41,32765
4.88304,2.79102,0.633857,39,32765
4.91844,2.78965,0.634732,43,32765
4.93645,2.77835,0.634198,42,32765
4.95442,2.76709,0.633249,43,32765
4.97254,2.7556,0.631605,44,32765
4.97313,2.73428,0.629141,43,32765
4.99994,2.72717,0.629314,45,32765
5.03546,2.72475,0.630499,43,32765
5.00969,2.68915,0.624407,41,32765
4.95738,2.63991,0.614591,21,32765
4.97517,2.62813,0.613356,18,32765
4.97521,2.60716,0.610275,19,32765
5.0282,2.61351,0.613846,37,32765
5.11668,2.63765,0.621676,44,32765
5.12575,2.62046,0.619638,46,32765
5.09933,2.58524,0.613076,45,32765
5.12598,2.57714,0.612847,44,32765
5.14364,2.56463,0.61161,44,32765
5.15224,2.54765,0.610131,46,32765
5.17879,2.53924,0.610217,46,32765
5.19646,2.52627,0.609011,47,32765
5.18722,2.50013,0.605139,46,32765
5.2496,2.5086,0.609205,46,32765
5.21311,2.47009,0.601804,45,32765
5.24833,2.46577,0.603281,45,32765
5.24757,2.44437,0.600383,45,32765
5.2829,2.43957,0.601636,44,32765
5.2912,2.42203,0.59951,45,32765
5.30842,2.40863,0.598998,46,32765
5.31672,2.39072,0.597137,43,32765
5.35219,2.38494,0.598522,44,32765
5.36025,2.36714,0.597088,45,32765
5.34084,2.33768,0.591789,46,32765
5.34859,2.32029,0.59026,48,32765
5.40211,2.32224,0.593715,47,32765
5.40086,2.30023,0.591282,48,32765
5.42705,2.28988,0.591535,48,32765
5.42564,2.26786,0.589402,47,32765
5.44237,2.25394,0.588835,48,32765
5.44065,2.23244,0.586238,47,32765
5.45717,2.21855,0.586255,45,32765
5.49225,2.21186,0.587653,48,32765
5.52728,2.20509,0.589158,47,32765
5.53451,2.18714,0.588224,45,32765
5.49543,2.15093,0.581907,45,32765
5.55819,2.15454,0.586993,44,32765
5.59312,2.14731,0.588653,48,32765
5.59095,2.12542,0.586519,47,32765
5.56994,2.09678,0.582864,45,32765
5.61418,2.09248,0.585618,48,32765
5.60244,2.06707,0.582978,46,32765
5.64662,2.06256,0.585798,46,32765
5.66278,2.04753,0.585727,48,32765
5.67875,2.03258,0.586498,48,32765
5.67599,2.01072,0.585365,47,32765
5.68261,1.99223,0.584371,46,32765
5.72668,1.98688,0.587845,48,32765
5.72365,1.96527,0.586458,48,32765
5.70163,1.93747,0.583202,46,32765
5.73607,1.92873,0.586389,48,32765
5.78005,1.92292,0.589738,47,32765
5.75782,1.89519,0.586405,44,32765
5.76362,1.87721,0.5872,25,32765
5.72203,1.84406,0.58258,16,32765
5.72777,1.82586,0.583499,19,32765
5.82859,1.83701,0.593712,47,32765
4.4537,3.27078,0.701015,33,32765
4.42533,3.22654,0.690135,34,32765
4.42077,3.19994,0.683536,33,32765
4.51234,3.2434,0.692229,35,32765
4.44249,3.17123,0.676418,33,32765
4.50188,3.19139,0.679506,37,32765
4.5128,3.17663,0.67615,37,32765
4.53177,3.16758,0.674112,38,32765
4.52616,3.14154,0.668667,36,32765
4.52056,3.11551,0.662571,35,32765
4.52291,3.09509,0.65888,35,32765
4.61563,3.13611,0.667228,38,32765
4.53584,3.05981,0.651002,34,32765
4.58764,3.07243,0.653687,37,32765
4.59823,3.05715,0.650902,37,32765
4.6585,3.07469,0.655048,35,32765
4.63576,3.03746,0.648033,40,32765
4.63772,3.01698,0.643647,39,32765
4.68954,3.0289,0.646826,40,32765
4.67458,2.99778,0.640066,36,32765
4.70967,2.9987,0.641251,40,32765
4.71135,2.97809,0.63742,38,32765
4.71298,2.95746,0.633406,37,32765
4.77352,2.97367,0.637523,40,32765
4.72445,2.92139,0.627035,41,32765
4.75128,2.9161,0.627524,36,32765
4.75275,2.89517,0.623993,37,32765
4.80514,2.90521,0.626832,38,32765
4.79785,2.87922,0.622571,38,32765
4.79057,2.85317,0.618045,35,32765
4.80032,2.83739,0.61503,39,32765
4.80139,2.81651,0.611488,37,32765
4.85397,2.82558,0.614475,42,32765
4.86336,2.80979,0.61261,41,32765
4.84701,2.77892,0.607009,40,32765
4.87364,2.77286,0.607001,38,32765
4.87439,2.75193,0.603406,38,32765
4.90112,2.7455,0.603107,38,32765
4.92768,2.73903,0.603846,42,32765
4.96311,2.73725,0.604159,40,32765
4.94605,2.70665,0.599599,38,32765
4.9813,2.70474,0.600876,41,32765
4.97293,2.67885,0.59679,37,32765
4.98201,2.66242,0.594588,31,32765
4.92955,2.61315,0.585711,17,32765
0,0,0,0,32765
4.89436,2.5527,0.575743,19,32765
5.06218,2.61854,0.592,35,32765
5.06229,2.59695,0.589487,43,32765
5.06232,2.57548,0.586502,40,32765
5.07113,2.55855,0.584407,41,32765
5.07107,2.53696,0.581443,39,32765
5.12416,2.54229,0.584977,40,32765
5.14166,2.5297,0.584394,42,32765
5.1234,2.49957,0.579456,44,32765
5.21246,2.52172,0.586185,41,32765
5.20319,2.49561,0.581996,42,32765
5.19361,2.46986,0.578423,39,32765
5.175,2.43983,0.573669,38,32765
5.17427,2.41844,0.570691,37,32765
5.15533,2.38875,0.566164,39,32765
5.20865,2.39253,0.568602,40,32765
5.21671,2.37528,0.567053,39,32765
5.27008,2.37855,0.569971,46,32765
5.24191,2.34472,0.563566,41,32765
5.3044,2.35155,0.567828,41,32765
5.36715,2.35776,0.571645,42,32765
5.31126,2.31208,0.563212,44,32765
5.31912,2.29448,0.560946,44,32765
5.37269,2.29629,0.564036,43,32765
5.35307,2.26672,0.558777,39,32765
5.4067,2.26806,0.56175,42,32765
5.40532,2.24619,0.558172,41,32765
5.42202,2.23224,0.557606,42,32765
5.42029,2.21077,0.554432,41,32765
5.46463,2.20801,0.555816,41,32765
5.43493,2.17547,0.550669,41,32765
5.44223,2.15768,0.548628,41,32765
5.44945,2.13989,0.546545,40,32765
5.53088,2.15104,0.551353,40,32765
5.44517,2.09717,0.539961,39,32765
5.5359,2.11139,0.546245,40,32765
5.50567,2.07938,0.540268,40,32765
5.58722,2.0894,0.545433,43,32765
5.56628,2.06063,0.540301,41,32765
5.57332,2.04219,0.537747,41,32765
5.58961,2.02724,0.536134,42,32765
5.66195,2.03282,0.539912,46,32765
5.60306,1.99104,0.531457,42,32765
5.64726,1.98633,0.532061,42,32765
5.63499,1.96162,0.528217,40,32765
5.698,1.96302,0.530895,45,32765
5.67615,1.93538,0.525398,43,32765
5.62571,1.89873,0.517538,38,32765
5.70749,1.90625,0.521891,43,32765
5.69489,1.88167,0.517666,40,32765
5.71077,1.86623,0.515028,37,32765
5.76433,1.86345,0.516153,19,32765
5.77021,1.84609,0.512861,13,32765
5.72855,1.81361,0.505409,14,32765
5.78201,1.81076,0.505841,40,32765
4.46407,3.28416,0.650227,41,32765
4.48382,3.27493,0.646741,40,32765
4.48743,3.25391,0.641419,39,32765
4.47441,3.22178,0.634264,39,32765
4.50141,3.21892,0.63305,40,32765
4.51235,3.20442,0.628746,41,32765
4.53143,3.19532,0.626502,41,32765
4.5423,3.18048,0.623236,40,32765
4.57751,3.18272,0.623524,42,32765
4.56385,3.15081,0.616464,39,32765
4.5827,3.14145,0.615041,42,32765
4.60165,3.13203,0.612559,41,32765
4.60415,3.11126,0.608249,40,32765
4.63963,3.1126,0.60825,43,32765
4.62552,3.08059,0.602199,40,32765
4.661,3.08162,0.602548,43,32765
4.64658,3.04976,0.596969,42,32765
4.67355,3.04548,0.595852,42,32765
4.70878,3.04652,0.596426,41,32765
4.67712,3.00452,0.587826,40,32765
4.70385,3.00008,0.587679,42,32765
4.74754,3.00604,0.589155,42,32765
4.77451,3.00114,0.588322,42,32765
4.73395,2.95399,0.579446,42,32765
4.78625,2.96458,0.58197,41,32765
4.80477,2.95386,0.581221,44,32765
4.81484,2.93789,0.578774,42,32765
4.84186,2.93229,0.578059,42,32765
4.84318,2.91125,0.574978,41,32765
4.85308,2.89519,0.572631,44,32765
4.8544,2.8741,0.568571,42,32765
4.88132,2.86811,0.568087,44,32765
4.89111,2.85189,0.565592,42,32765
4.9092,2.84092,0.564701,44,32765
4.91883,2.8247,0.562314,44,32765
4.95426,2.82332,0.563068,45,32765
4.9465,2.79719,0.558543,46,32765
4.95603,2.78076,0.556071,45,32765
4.95663,2.75957,0.553689,46,32765
4.97471,2.74807,0.55177,46,32765
5.01005,2.74607,0.553268,47,32765
5.00172,2.72017,0.549434,44,32765
4.99339,2.69416,0.545525,44,32765
5.02006,2.68702,0.545217,44,32765
5.02041,2.66553,0.542683,31,32765
5.00306,2.63492,0.537549,19,32765
5.02083,2.62279,0.536977,18,32765
4.95915,2.56927,0.527059,26,32765
5.07421,2.60713,0.536847,40,32765
5.10974,2.60366,0.537682,46,32765
5.10088,2.57756,0.533705,44,32765
5.14539,2.57812,0.535453,47,32765
5.11839,2.54335,0.53018,46,32765
5.17163,2.54835,0.533187,46,32765
5.15341,2.51806,0.528516,46,32765
5.17983,2.50977,0.527991,47,32765
5.20642,2.50096,0.527639,45,32765
5.22382,2.488,0.526971,45,32765
5.24127,2.47481,0.526102,45,32765
5.26771,2.46582,0.525892,46,32765
5.27602,2.44833,0.524309,45,32765
5.30242,2.43924,0.523537,46,32765
5.28344,2.40925,0.519286,45,32765
5.29157,2.39179,0.517272,45,32765
5.30886,2.37818,0.515643,46,32765
5.28956,2.34843,0.511399,44,32765
5.35233,2.3547,0.514656,47,32765
5.36943,2.34083,0.513873,46,32765
5.38654,2.32696,0.512451,45,32765
5.38529,2.30502,0.509846,46,32765
5.4207,2.29869,0.510039,46,32765
5.41936,2.27666,0.507358,46,32765
5.42718,2.25853,0.504721,45,32765
5.44393,2.24447,0.504053,46,32765
5.46067,2.23043,0.50266,45,32765
5.46814,2.21259,0.500269,45,32765
5.48469,2.1985,0.499708,46,32765
5.53836,2.1989,0.501842,47,32765
5.56426,2.18806,0.501392,48,32765
5.55302,2.16269,0.49708,45,32765
5.55097,2.14092,0.494064,46,32765
5.5581,2.12282,0.492046,46,32765
5.60245,2.11888,0.492994,47,32765
5.60016,2.09715,0.49002,46,32765
5.64464,2.09253,0.49085,48,32765
5.60499,2.05663,0.484217,46,32765
5.63069,2.04495,0.483298,47,32765
5.63746,2.02681,0.480799,47,32765
5.66301,2.0151,0.480176,46,32765
5.66969,1.99694,0.477205,47,32765
5.72333,1.99508,0.479055,47,32765
5.72051,1.97344,0.475642,49,32765
5.71752,1.95213,0.471972,47,32765
5.72375,1.93443,0.469301,47,32765
5.74895,1.92268,0.468235,47,32765
5.78371,1.91358,0.468009,46,32765
5.74282,1.87922,0.46066,47,32765
5.72054,1.85177,0.455256,32,32765
5.72636,1.83451,0.451988,16,32765
5.74165,1.82018,0.449494,14,32765
5.8332,1.82923,0.452398,31,32765
4.42331,3.2505,0.58224,34,32765
4.46637,3.25914,0.585727,37,32765
4.46915,3.23863,0.583509,36,32765
4.46384,3.2122,0.580299,36,32765
4.43402,3.16861,0.5743,34,32765
4.47714,3.17687,0.577179,36,32765
4.47143,3.1508,0.573396,34,32765
4.50609,3.15363,0.575052,36,32765
4.52471,3.14458,0.574667,35,32765
4.53518,3.12974,0.573138,34,32765
4.57855,3.13709,0.576151,40,32765
4.58098,3.1163,0.572881,33,32765
4.57485,3.09013,0.569497,36,32765
4.56045,3.05842,0.564599,36,32765
4.59537,3.06026,0.565581,35,32765
4.62208,3.05618,0.566606,38,32765
4.6157,3.03009,0.562445,36,32765
4.68437,3.05272,0.567428,38,32765
4.6781,3.02618,0.563605,38,32765
4.63819,2.97829,0.555506,37,32765
4.72367,3.01114,0.562911,38,32765
4.75897,3.01165,0.563757,39,32765
4.7352,2.97512,0.55761,39,32765
4.70278,2.9335,0.550759,39,32765
4.75477,2.94455,0.553384,37,32765
4.77324,2.93384,0.552899,36,32765
4.80018,2.92826,0.553268,41,32765
4.80156,2.90722,0.550164,37,32765
4.77732,2.87069,0.544384,37,32765
4.81263,2.87023,0.545191,38,32765
4.81372,2.84936,0.541939,37,32765
4.86635,2.85854,0.544315,41,32765
4.84144,2.82254,0.539103,38,32765
4.84239,2.80156,0.535673,40,32765
4.869,2.79556,0.535993,39,32765
4.86989,2.77437,0.532866,39,32765
4.92276,2.78255,0.535071,42,32765
4.90632,2.75136,0.529675,41,32765
4.91572,2.73493,0.527613,39,32765
4.91623,2.71382,0.524858,35,32765
4.9341,2.70242,0.52355,35,32765
4.97823,2.70521,0.524533,39,32765
4.98727,2.68895,0.522264,38,32765
4.97002,2.65837,0.517302,38,32765
4.9526,2.62791,0.512568,31,32765
4.9527,2.60678,0.509744,17,32765
4.97038,2.59494,0.508468,19,32765
4.98806,2.58289,0.50747,20,32765
5.05011,2.59344,0.510298,40,32765
5.08548,2.59021,0.51143,41,32765
5.08551,2.56855,0.508444,43,32765
5.11208,2.56042,0.50842,43,32765
5.13866,2.55226,0.507673,42,32765
5.12948,2.52635,0.503589,41,32765
5.11998,2.5009,0.499719,39,32765
5.14653,2.49227,0.499365,37,32765
5.1731,2.48347,0.499009,41,32765
5.1995,2.47482,0.498875,43,32765
5.18984,2.44907,0.495207,40,32765
5.21594,2.44076,0.495061,40,32765
5.18801,2.40678,0.489484,42,32765
5.23231,2.40627,0.491127,41,32765
5.27664,2.40561,0.492447,40,32765
5.24851,2.37153,0.487163,40,32765
5.29281,2.37059,0.488749,43,32765
5.28264,2.34479,0.485474,42,32765
5.2998,2.33109,0.483961,39,32765
5.31676,2.31752,0.483281,39,32765
5.33368,2.30392,0.482412,38,32765
5.33215,2.2826,0.47993,42,32765
5.36739,2.27657,0.480428,40,32765
5.37507,2.25877,0.478647,41,32765
5.37327,2.23747,0.476736,40,32765
5.37155,2.21597,0.474137,38,32765
5.43418,2.22115,0.477802,42,32765
5.42318,2.19569,0.474281,40,32765
5.46753,2.19264,0.476006,44,32765
5.45626,2.16743,0.472846,42,32765
5.45419,2.14586,0.470615,41,32765
5.49836,2.14261,0.472922,41,32765
5.52406,2.13171,0.473452,41,32765
5.44739,2.08146,0.464689,41,32765
5.51951,2.08829,0.469523,41,32765
5.56373,2.08428,0.471406,42,32765
5.59853,2.07687,0.472464,45,32765
5.54914,2.03803,0.467263,40,32765
5.59333,2.03365,0.468886,42,32765
5.59052,2.01217,0.467891,41,32765
5.59721,1.99368,0.466982,38,32765
5.65063,1.99228,0.470422,42,32765
5.63831,1.96736,0.467964,42,32765
5.63538,1.9456,0.466421,38,32765
5.6794,1.94036,0.468859,43,32765
5.72336,1.93496,0.471938,46,32765
5.67269,1.89795,0.467243,40,32765
5.69774,1.88601,0.468096,43,32765
5.66586,1.8553,0.465064,39,32765
5.66223,1.83424,0.464374,24,32765
0,0,0,0,32765
5.77802,1.83202,0.473897,13,32765
5.76461,1.80792,0.473607,32,32765
4.44042,3.26965,0.532623,40,32765
4.45143,3.25476,0.531889,40,32765
4.46226,3.24009,0.530721,40,32765
4.49733,3.24274,0.532476,41,32765
4.53236,3.2453,0.53457,41,32765
4.51896,3.21288,0.530378,41,32765
4.52151,3.19235,0.527711,39,32765
4.55632,3.19502,0.529066,40,32765
4.56691,3.1801,0.527624,39,32765
4.59388,3.17641,0.527959,42,32765
4.59639,3.15541,0.525884,43,32765
4.60711,3.14012,0.52363,41,32765
4.61755,3.12497,0.522287,41,32765
4.61152,3.0986,0.518578,41,32765
4.64659,3.10028,0.519252,41,32765
4.63194,3.06853,0.515456,40,32765
4.69215,3.08612,0.518834,41,32765
4.67765,3.0541,0.513962,42,32765
4.68809,3.03835,0.51215,42,32765
4.73196,3.0442,0.513697,42,32765
4.75055,3.03393,0.512974,43,32765
4.72705,2.99703,0.507205,43,32765
4.7285,2.97644,0.50414,44,32765
4.76364,2.97698,0.504918,45,32765
4.73961,2.94059,0.499021,43,32765
4.75808,2.92991,0.498444,42,32765
4.82751,2.95034,0.503056,44,32765
4.83748,2.93433,0.500912,43,32765
4.83892,2.91301,0.498124,42,32765
4.84017,2.89191,0.49512,41,32765
4.80705,2.85057,0.488462,42,32765
4.86828,2.86485,0.491236,42,32765
4.86059,2.83882,0.488123,42,32765
4.88744,2.83272,0.487352,44,32765
4.93144,2.8365,0.48918,45,32765
4.93246,2.81505,0.486116,46,32765
4.93346,2.79358,0.482726,44,32765
4.95179,2.78181,0.480978,46,32765
4.96129,2.76519,0.478893,44,32765
4.95318,2.73906,0.475375,43,32765
4.95366,2.71793,0.472288,43,32765
5.03286,2.73971,0.476195,46,32765
5.00693,2.7043,0.470601,45,32765
5.04242,2.70183,0.47083,44,32765
5.05154,2.6851,0.468795,44,32765
5.01657,2.645,0.462769,31,32765
4.96371,2.59596,0.454894,23,32765
5.00794,2.59768,0.456219,20,32765
5.07006,2.60819,0.458472,32,32765
5.11437,2.60942,0.460112,45,32765
5.13225,2.59661,0.458796,45,32765
5.13219,2.57489,0.456189,46,32765
5.15882,2.56665,0.455241,45,32765
5.1765,2.55385,0.453683,45,32765
5.18498,2.53696,0.451538,45,32765
5.18475,2.51504,0.448639,45,32765
5.19343,2.49745,0.446532,46,32765
5.17488,2.46727,0.442353,44,32765
5.24632,2.47988,0.445773,46,32765
5.26349,2.46715,0.444654,46,32765
5.24467,2.43714,0.440188,45,32765
5.27098,2.4281,0.439923,46,32765
5.31539,2.42731,0.44085,46,32765
5.30549,2.40125,0.437422,46,32765
5.28621,2.37155,0.433389,44,32765
5.33071,2.37003,0.434761,46,32765
5.3297,2.3481,0.431651,45,32765
5.37414,2.34637,0.433076,46,32765
5.40031,2.33651,0.432826,45,32765
5.40805,2.31886,0.431145,46,32765
5.38835,2.28917,0.426967,44,32765
5.39606,2.27126,0.425177,45,32765
5.44033,2.26904,0.426965,47,32765
5.44793,2.25109,0.425155,47,32765
5.48301,2.24469,0.426085,47,32765
5.47208,2.21902,0.422733,45,32765
5.47024,2.19722,0.420509,46,32765
5.52385,2.19776,0.422496,45,32765
5.53116,2.17958,0.421045,45,32765
5.51042,2.15069,0.418027,46,32765
5.55477,2.14691,0.419771,46,32765
5.56195,2.12855,0.418146,46,32765
5.60628,2.12441,0.420207,47,32765
5.63196,2.11311,0.420299,47,32765
5.62011,2.08809,0.417583,47,32765
5.60819,2.06288,0.415717,46,32765
5.6431,2.05488,0.416255,49,32765
5.64975,2.03658,0.416041,48,32765
5.67532,2.02456,0.416499,48,32765
5.70065,2.01294,0.417395,47,32765
5.70723,1.99439,0.41649,48,32765
5.71382,1.97562,0.415715,47,32765
5.7202,1.9572,0.415026,47,32765
5.74535,1.94526,0.416357,50,32765
5.73254,1.92079,0.414964,48,32765
5.76715,1.91176,0.416303,49,32765
5.7543,1.88699,0.415014,48,32765
5.77924,1.87483,0.416469,47,32765
5.85159,1.87798,0.42158,24,32765
5.76226,1.82961,0.415378,14,32765
5.79644,1.82046,0.418709,20,32765
4.42048,3.24266,0.551937,35,32765
4.45599,3.24542,0.550424,37,32765
4.43498,3.20735,0.542032,36,32765
4.42964,3.18133,0.536511,34,32765
4.47296,3.18995,0.535929,35,32765
4.45956,3.15783,0.529631,34,32765
4.47853,3.14886,0.526715,36,32765
4.50559,3.1455,0.525248,36,32765
4.54068,3.14798,0.524373,36,32765
4.54317,3.12741,0.520074,37,32765
4.57026,3.1237,0.518466,38,32765
4.56444,3.09737,0.513632,35,32765
4.57498,3.08232,0.51033,37,32765
4.59361,3.07299,0.507963,36,32765
4.58735,3.04701,0.50288,36,32765
4.61415,3.04311,0.501615,38,32765
4.6078,3.017,0.496841,36,32765
4.61807,3.00178,0.493633,38,32765
4.68678,3.02438,0.497208,37,32765
4.66362,2.98723,0.49059,39,32765
4.66522,2.96667,0.486947,39,32765
4.70042,2.96736,0.487018,40,32765
4.75264,2.97841,0.488196,36,32765
4.77094,2.96834,0.486497,40,32765
4.74701,2.93178,0.48019,38,32765
4.7653,2.92154,0.478148,35,32765
4.80067,2.92132,0.478607,37,32765
4.78498,2.88994,0.473624,35,32765
4.81177,2.88453,0.4725,40,32765
4.80443,2.85838,0.468204,39,32765
4.77114,2.81725,0.461418,41,32765
4.84948,2.84173,0.465491,42,32765
4.82471,2.80546,0.459943,42,32765
4.86006,2.8045,0.459913,39,32765
4.90422,2.80808,0.460691,41,32765
4.93969,2.80663,0.460789,40,32765
4.94915,2.79028,0.458577,40,32765
4.91513,2.7494,0.452526,41,32765
4.92434,2.73324,0.450328,38,32765
4.95978,2.73134,0.450281,39,32765
4.96023,2.71012,0.447487,38,32765
4.94301,2.67954,0.443054,40,32765
5.00486,2.69129,0.445363,40,32765
5.02265,2.67956,0.443918,42,32765
4.98768,2.63949,0.437899,34,32765
4.89061,2.56743,0.426446,20,32765
0,0,0,0,32765
4.72186,2.4389,0.405878,15,32765
5.05831,2.59158,0.432654,37,32765
5.06711,2.57463,0.43088,40,32765
5.06704,2.55312,0.427516,38,32765
5.12044,2.55816,0.429532,44,32765
5.15616,2.55383,0.429904,43,32765
5.1111,2.51022,0.423781,41,32765
5.1107,2.48871,0.420839,40,32765
5.17299,2.49776,0.423066,40,32765
5.10935,2.4463,0.415411,37,32765
5.21673,2.47625,0.421934,40,32765
5.23403,2.4634,0.42026,42,32765
5.22433,2.43745,0.416726,42,32765
5.25059,2.4285,0.416712,42,32765
5.23159,2.39861,0.412304,41,32765
5.21254,2.36865,0.408037,39,32765
5.26591,2.37201,0.409744,43,32765
5.23759,2.33804,0.404646,41,32765
5.36409,2.37308,0.411666,45,32765
5.30823,2.327,0.404829,41,32765
5.33456,2.31693,0.403981,41,32765
5.36988,2.311,0.404068,42,32765
5.36861,2.28901,0.40123,44,32765
5.38539,2.27539,0.399679,41,32765
5.41133,2.26548,0.399375,41,32765
5.41897,2.24763,0.396626,45,32765
5.41716,2.22615,0.39441,44,32765
5.42467,2.20824,0.391888,42,32765
5.44126,2.19425,0.390276,41,32765
5.50424,2.19842,0.392311,41,32765
5.49315,2.17273,0.388553,41,32765
5.47255,2.14369,0.384588,46,32765
5.53557,2.14736,0.385704,43,32765
5.48687,2.1077,0.379449,43,32765
5.54976,2.11126,0.381155,45,32765
5.55682,2.09307,0.37865,42,32765
5.55426,2.0718,0.376146,41,32765
5.5331,2.04325,0.371591,40,32765
5.6055,2.04919,0.373664,41,32765
5.64048,2.04109,0.372898,44,32765
5.59099,2.00233,0.366095,39,32765
5.64456,2.00101,0.367331,41,32765
5.59468,1.96287,0.360923,41,32765
5.6576,1.96478,0.362253,42,32765
5.67344,1.95003,0.359983,43,32765
5.67041,1.92858,0.356426,41,32765
5.6956,1.91693,0.354821,43,32765
5.71132,1.90186,0.353026,44,32765
5.72701,1.88689,0.350195,47,32765
5.77103,1.88131,0.349647,40,32765
5.76765,1.86004,0.345571,41,32765
5.79261,1.8482,0.34336,20,32765
0,0,0,0,32765
0,0,0,0,32765
4.43729,3.26176,0.502297,41,32765
4.48894,3.27621,0.502282,42,32765
4.4922,3.25548,0.496902,41,32765
4.50317,3.24084,0.493289,41,32765
4.49804,3.21449,0.486989,41,32765
4.53346,3.2168,0.486176,41,32765
4.54446,3.20183,0.482233,42,32765
4.56353,3.19253,0.479667,42,32765
4.5824,3.18345,0.476756,43,32765
4.5768,3.15703,0.47167,44,32765
4.60397,3.1532,0.469845,44,32765
4.61472,3.1379,0.466839,43,32765
4.60887,3.1115,0.461841,41,32765
4.61102,3.09094,0.457708,41,32765
4.67118,3.10902,0.459323,40,32765
4.64828,3.07187,0.452948,42,32765
4.65869,3.05651,0.449944,42,32765
4.66908,3.0411,0.446696,42,32765
4.68771,3.0311,0.444818,44,32765
4.72328,3.03155,0.44409,44,32765
4.75864,3.03218,0.443637,43,32765
4.73509,2.99526,0.437918,43,32765
4.74518,2.97971,0.434733,45,32765
4.80578,2.99601,0.436785,43,32765
4.81584,2.98024,0.433883,44,32765
4.81729,2.95931,0.430183,42,32765
4.82725,2.94335,0.42807,44,32765
4.81163,2.9118,0.423351,45,32765
4.83849,2.90629,0.422019,43,32765
4.87404,2.90553,0.421598,44,32765
4.87522,2.88439,0.418182,44,32765
4.8764,2.86314,0.414862,44,32765
4.90339,2.85682,0.414038,44,32765
4.93028,2.8506,0.41296,47,32765
4.93999,2.8341,0.410448,45,32765
4.94088,2.81279,0.407385,44,32765
4.93299,2.78658,0.403747,43,32765
4.95986,2.7798,0.403118,44,32765
4.97788,2.76832,0.4016,45,32765
4.96103,2.73732,0.397048,43,32765
5.00526,2.73999,0.397821,44,32765
5.00565,2.71873,0.39503,45,32765
5.01495,2.7019,0.392618,46,32765
5.02397,2.6854,0.390387,45,32765
5.05071,2.67796,0.389592,45,32765
5.04204,2.65197,0.385992,38,32765
5.01556,2.6169,0.380646,24,32765
4.96241,2.56802,0.373923,16,32765
4.97095,2.55164,0.372544,22,32765
5.1041,2.59832,0.380068,43,32765
5.13973,2.59463,0.379405,46,32765
5.14868,2.5771,0.377651,47,32765
5.14872,2.55492,0.375123,46,32765
5.16631,2.54208,0.374101,47,32765
5.20189,2.53784,0.373803,47,32765
5.1835,2.5075,0.36966,45,32765
5.24585,2.51632,0.371673,46,32765
5.23633,2.49015,0.368868,46,32765
5.25367,2.47721,0.367088,46,32765
5.25305,2.45536,0.364357,46,32765
5.27938,2.4463,0.364145,47,32765
5.28764,2.42875,0.361865,46,32765
5.28684,2.40681,0.359088,46,32765
5.32215,2.40172,0.359069,47,32765
5.31214,2.37564,0.355539,44,32765
5.35667,2.3741,0.355849,46,32765
5.36477,2.35604,0.353889,45,32765
5.38205,2.34178,0.352228,46,32765
5.38079,2.31987,0.34963,47,32765
5.38872,2.30172,0.347471,45,32765
5.41473,2.29189,0.346402,47,32765
5.44994,2.28573,0.346485,48,32765
5.44841,2.26388,0.343132,47,32765
5.46511,2.24986,0.342155,48,32765
5.46345,2.22799,0.339034,46,32765
5.49862,2.22132,0.338449,47,32765
5.50608,2.20305,0.336498,47,32765
5.51356,2.18466,0.33405,47,32765
5.50228,2.15913,0.330916,47,32765
5.56536,2.16272,0.33145,47,32765
5.52599,2.12647,0.326294,46,32765
5.58895,2.12991,0.327418,48,32765
5.62409,2.12212,0.32652,48,32765
5.64032,2.10759,0.325164,49,32765
5.62863,2.08216,0.321381,49,32765
5.64491,2.0672,0.31957,49,32765
5.66117,2.05214,0.317448,47,32765
5.67748,2.03684,0.314844,50,32765
5.66529,2.01185,0.311952,48,32765
5.68137,1.99674,0.30969,47,32765
5.69724,1.98197,0.307871,48,32765
5.72257,1.97032,0.305988,48,32765
5.71959,1.94867,0.302498,47,32765
5.7543,1.94003,0.301174,48,32765
5.75114,1.91842,0.298275,50,32765
5.78583,1.90956,0.296296,50,32765
5.77295,1.88518,0.292454,45,32765
5.79807,1.87307,0.289894,50,32765
5.80403,1.85503,0.286537,40,32765
5.77201,1.82441,0.281136,19,32765
5.69196,1.77981,0.273436,18,32765
4.39511,3.22715,0.435202,35,32765
4.44592,3.24223,0.438347,34,32765
4.44857,3.22179,0.436361,37,32765
4.41071,3.17223,0.430218,38,32765
4.47003,3.19225,0.434077,38,32765
4.47261,3.17165,0.431768,36,32765
4.49947,3.16841,0.431738,35,32765
4.55069,3.18243,0.433881,34,32765
4.53666,3.15043,0.430234,35,32765
4.54696,3.13578,0.428496,35,32765
4.5411,3.10932,0.425348,35,32765
4.56806,3.10542,0.425172,37,32765
4.55368,3.07362,0.4207,37,32765
4.58044,3.0698,0.420455,39,32765
4.62389,3.07684,0.421492,41,32765
4.63419,3.06154,0.419692,38,32765
4.64454,3.04611,0.417584,39,32765
4.65475,3.03074,0.415764,38,32765
4.67326,3.02078,0.414648,39,32765
4.64133,2.97855,0.408907,36,32765
4.70166,2.99559,0.411027,36,32765
4.68625,2.96425,0.407249,37,32765
4.72983,2.9702,0.408123,37,32765
4.7482,2.96001,0.406319,35,32765
4.75812,2.94426,0.404575,38,32765
4.72553,2.90243,0.398602,40,32765
4.79507,2.92291,0.400994,38,32765
4.81347,2.9121,0.399737,39,32765
4.78929,2.87525,0.394452,37,32765
4.78184,2.84907,0.391458,39,32765
4.83445,2.85851,0.392268,38,32765
4.83551,2.83738,0.38925,40,32765
4.85375,2.82622,0.387935,39,32765
4.88924,2.82492,0.388217,44,32765
4.90735,2.81371,0.387049,38,32765
4.89957,2.78746,0.383154,41,32765
4.91772,2.77602,0.381192,40,32765
4.9271,2.75967,0.378788,40,32765
4.90155,2.72383,0.374079,37,32765
4.96297,2.73678,0.376007,40,32765
4.98095,2.72508,0.374496,38,32765
4.94633,2.68471,0.368493,37,32765
4.96434,2.67277,0.3662,38,32765
5.02622,2.68433,0.368285,42,32765
5.00878,2.65361,0.364598,42,32765
5.00891,2.63222,0.362085,35,32765
4.96476,2.5878,0.355722,18,32765
0,0,0,0,32765
4.98242,2.5543,0.351009,16,32765
5.07988,2.58314,0.35544,37,32765
5.09744,2.57086,0.353809,42,32765
5.13293,2.56728,0.352987,41,32765
5.12368,2.54145,0.34907,40,32765
5.1503,2.53296,0.347924,43,32765
5.11401,2.49384,0.343118,40,32765
5.14956,2.48954,0.342248,41,32765
5.17598,2.48094,0.341602,41,32765
5.17524,2.45963,0.338773,42,32765
5.22866,2.46379,0.339085,41,32765
5.23683,2.4466,0.337412,43,32765
5.24512,2.42905,0.33547,43,32765
5.27164,2.41956,0.334158,44,32765
5.22518,2.37738,0.328686,41,32765
5.25142,2.36813,0.327743,38,32765
5.25929,2.3509,0.32565,41,32765
5.31275,2.35381,0.326553,45,32765
5.32067,2.3361,0.324848,44,32765
5.32843,2.31858,0.323161,40,32765
5.34541,2.30479,0.321699,44,32765
5.35302,2.2873,0.319864,40,32765
5.34228,2.26179,0.31695,40,32765
5.4143,2.27107,0.319304,44,32765
5.40349,2.24537,0.316585,44,32765
5.38329,2.21611,0.312906,40,32765
5.40915,2.20587,0.312655,43,32765
5.47197,2.21063,0.314332,45,32765
5.42371,2.17025,0.309703,41,32765
5.45871,2.16356,0.309655,45,32765
5.52167,2.16749,0.311016,42,32765
5.53801,2.1532,0.310866,42,32765
5.54516,2.13489,0.309794,43,32765
5.54286,2.11325,0.307362,44,32765
5.48432,2.07063,0.302792,43,32765
5.57533,2.08422,0.305543,43,32765
5.58208,2.06618,0.304843,41,32765
5.57018,2.04082,0.302845,41,32765
5.56762,2.0189,0.300954,42,32765
5.61176,2.01431,0.302664,42,32765
5.61838,1.99594,0.301513,43,32765
5.66245,1.99124,0.302793,46,32765
5.64054,1.96328,0.300309,41,32765
5.66586,1.95125,0.301167,44,32765
5.66271,1.92975,0.299874,40,32765
5.67837,1.91473,0.299806,41,32765
5.66546,1.89049,0.298407,40,32765
5.69987,1.88199,0.299517,43,32765
5.72484,1.86991,0.300811,42,32765
5.72129,1.84859,0.299953,44,32765
5.71763,1.82724,0.299958,33,32765
0,0,0,0,32765
5.81473,1.81805,0.305884,15,32765
4.48298,3.29935,0.391827,42,32765
4.46155,3.2612,0.388178,42,32765
4.50464,3.26996,0.389768,42,32765
4.49124,3.2376,0.38625,41,32765
4.51835,3.23417,0.386751,43,32765
4.52107,3.21336,0.384513,40,32765
4.55622,3.2157,0.384963,42,32765
4.55859,3.19521,0.382498,42,32765
4.57736,3.18591,0.381857,43,32765
4.596,3.17676,0.380778,41,32765
4.59851,3.15572,0.378472,42,32765
4.59265,3.12915,0.375387,41,32765
4.60314,3.11396,0.373188,41,32765
4.64661,3.12109,0.374066,42,32765
4.63211,3.08917,0.370053,41,32765
4.70902,3.11788,0.373525,43,32765
4.65285,3.05832,0.366128,42,32765
4.67982,3.05379,0.365606,41,32765
4.69841,3.04372,0.364381,42,32765
4.69174,3.01751,0.36103,40,32765
4.71014,3.00757,0.359351,41,32765
4.77063,3.02422,0.361596,44,32765
4.71306,2.96612,0.354432,41,32765
4.79065,2.99296,0.356953,43,32765
4.7498,2.94548,0.351424,41,32765
4.8107,2.96113,0.352775,43,32765
4.78675,2.92414,0.347656,43,32765
4.85637,2.94437,0.349995,46,32765
4.84085,2.91244,0.345669,44,32765
4.89351,2.92184,0.347095,47,32765
4.87767,2.89022,0.342545,45,32765
4.88743,2.87396,0.340195,43,32765
4.89718,2.85757,0.338164,43,32765
4.92414,2.85112,0.337554,46,32765
4.92503,2.82982,0.335096,44,32765
4.92596,2.8084,0.33196,43,32765
4.94418,2.79684,0.329885,44,32765
4.96234,2.78525,0.32804,44,32765
4.98048,2.77349,0.326547,45,32765
4.99837,2.76207,0.325034,46,32765
4.99892,2.74062,0.322281,45,32765
5.01697,2.72873,0.32009,44,32765
5.03513,2.71652,0.317658,45,32765
5.05314,2.70431,0.316394,46,32765
5.0534,2.68279,0.314071,45,32765
5.08014,2.67516,0.313266,45,32765
5.07153,2.6489,0.309587,38,32765
4.93863,2.55848,0.298348,19,32765
4.96523,2.55072,0.297318,18,32765
5.00931,2.55248,0.297642,28,32765
5.09807,2.57643,0.300143,44,32765
5.12464,2.56837,0.298515,47,32765
5.14221,2.55585,0.296332,45,32765
5.15096,2.53845,0.293964,44,32765
5.18647,2.53431,0.293688,45,32765
5.20418,2.52104,0.291488,47,32765
5.2037,2.49927,0.289131,46,32765
5.23006,2.4907,0.287869,45,32765
5.27455,2.49043,0.287188,48,32765
5.26472,2.46458,0.28452,48,32765
5.30025,2.45951,0.28402,46,32765
5.27242,2.42477,0.279604,46,32765
5.28959,2.4115,0.278035,46,32765
5.32505,2.40612,0.277349,46,32765
5.3148,2.38044,0.274283,47,32765
5.32272,2.36291,0.272357,46,32765
5.33067,2.34513,0.270645,45,32765
5.37509,2.34351,0.270797,45,32765
5.40131,2.33349,0.269678,47,32765
5.4182,2.31972,0.268276,48,32765
5.41676,2.29783,0.265976,45,32765
5.43366,2.28366,0.264954,48,32765
5.45978,2.2732,0.264199,48,32765
5.46737,2.25513,0.262105,46,32765
5.47487,2.23702,0.260762,48,32765
5.50075,2.22658,0.260102,47,32765
5.51745,2.21204,0.259075,48,32765
5.49688,2.18291,0.256118,47,32765
5.52272,2.1721,0.255181,47,32765
5.52978,2.15414,0.254505,47,32765
5.53694,2.13582,0.253431,47,32765
5.5533,2.12129,0.25194,48,32765
5.58822,2.11389,0.252242,47,32765
5.62325,2.10614,0.251597,48,32765
5.63945,2.09139,0.251306,48,32765
5.63702,2.06922,0.249898,46,32765
5.66272,2.05727,0.249323,49,32765
5.6788,2.04221,0.24941,51,32765
5.66669,2.01688,0.24742,49,32765
5.70142,2.0087,0.247906,49,32765
5.7173,1.99372,0.247326,48,32765
5.71439,1.97163,0.246768,47,32765
5.74914,1.96284,0.247186,50,32765
5.76492,1.94751,0.247013,50,32765
5.78054,1.93244,0.247009,50,32765
5.76767,1.90787,0.245804,49,32765
5.78325,1.89244,0.246506,48,32765
5.80829,1.88011,0.246949,51,32765
5.86185,1.87672,0.249483,49,32765
5.7725,1.82799,0.245451,27,32765
5.82583,1.82478,0.248891,18,32765
4.45512,3.26718,0.411131,36,32765
4.45006,3.24087,0.405131,36,32765
4.42903,3.20247,0.397808,36,32765
4.47254,3.21084,0.396614,39,32765
4.46707,3.18467,0.391306,38,32765
4.48579,3.17605,0.387942,37,32765
4.52091,3.17864,0.386361,38,32765
4.5316,3.16383,0.382591,37,32765
4.48497,3.109,0.374247,37,32765
4.53661,3.12248,0.373798,38,32765
4.53886,3.10197,0.369619,37,32765
4.5741,3.10372,0.368918,39,32765
4.59294,3.09411,0.365894,36,32765
4.59513,3.07331,0.362113,38,32765
4.54736,3.01943,0.354216,37,32765
4.63251,3.05391,0.3565,40,32765
4.63432,3.03333,0.352841,38,32765
4.66127,3.02889,0.351157,38,32765
4.69651,3.02992,0.349842,38,32765
4.66476,2.98738,0.343662,39,32765
4.74211,3.01496,0.345401,41,32765
4.69309,2.96212,0.338127,40,32765
4.71138,2.95206,0.336403,40,32765
4.75499,2.95797,0.335551,38,32765
4.77345,2.94745,0.33334,38,32765
4.8004,2.94208,0.331573,39,32765
4.81037,2.92607,0.328694,42,32765
4.76897,2.87915,0.322248,42,32765
4.79573,2.87368,0.320802,38,32765
4.7796,2.84256,0.316513,39,32765
4.84925,2.8624,0.317894,39,32765
4.83301,2.83118,0.313878,39,32765
4.87717,2.83507,0.313208,39,32765
4.88674,2.81879,0.311037,39,32765
4.91359,2.81241,0.309577,41,32765
4.92306,2.79613,0.306621,40,32765
4.91494,2.77013,0.303658,41,32765
4.9331,2.75847,0.30156,40,32765
4.93377,2.73702,0.298546,39,32765
4.92567,2.71069,0.294745,40,32765
4.94352,2.69913,0.293148,40,32765
5.0139,2.7163,0.294285,42,32765
4.95256,2.66192,0.288517,41,32765
5.00558,2.66902,0.288023,42,32765
5.03223,2.66162,0.287083,44,32765
5.03248,2.63998,0.284198,38,32765
5.0413,2.62321,0.283107,27,32765
5.14775,2.65694,0.285241,16,32765
0,0,0,0,32765
5.04979,2.56377,0.274966,30,32765
5.08527,2.56023,0.27425,41,32765
5.12074,2.55661,0.273304,43,32765
5.12036,2.53511,0.271199,43,32765
5.17382,2.53988,0.271181,43,32765
5.16451,2.51367,0.267939,44,32765
5.1281,2.47455,0.263057,39,32765
5.16346,2.47037,0.262398,44,32765
5.16273,2.44884,0.260329,40,32765
5.2162,2.45285,0.260219,43,32765
5.19722,2.42293,0.256614,42,32765
5.20534,2.40563,0.254822,42,32765
5.23153,2.39669,0.254148,42,32765
5.24863,2.38352,0.252326,44,32765
5.23845,2.35778,0.249074,40,32765
5.32851,2.37697,0.250301,42,32765
5.30896,2.3473,0.247424,41,32765
5.3352,2.33756,0.245612,41,32765
5.2972,2.2999,0.241838,42,32765
5.37849,2.31354,0.242793,47,32765
5.36802,2.28749,0.239592,45,32765
5.37577,2.26939,0.237788,42,32765
5.37419,2.24766,0.234588,43,32765
5.42784,2.24899,0.234544,43,32765
5.41679,2.22357,0.231707,42,32765
5.42422,2.20565,0.229197,45,32765
5.44083,2.1915,0.22712,42,32765
5.43883,2.16987,0.224632,43,32765
5.46468,2.15914,0.223084,44,32765
5.53696,2.1667,0.223593,45,32765
5.55344,2.15217,0.221635,44,32765
5.5419,2.12679,0.218349,41,32765
5.54893,2.10863,0.215918,44,32765
5.60271,2.10792,0.215429,44,32765
5.55349,2.06868,0.210358,42,32765
5.57903,2.05754,0.208528,42,32765
5.60449,2.04639,0.206966,43,32765
5.61115,2.02832,0.204428,45,32765
5.6084,2.00668,0.20171,41,32765
5.65281,2.00146,0.199817,44,32765
5.63122,1.97277,0.196062,43,32765
5.63762,1.95465,0.193561,42,32765
5.68166,1.94983,0.192463,41,32765
5.71624,1.94167,0.189982,46,32765
5.70354,1.91707,0.18661,44,32765
5.70986,1.89848,0.183622,45,32765
5.75401,1.89258,0.181875,46,32765
5.75044,1.87163,0.178871,47,32765
5.77539,1.85975,0.1764,48,32765
5.78129,1.8417,0.172515,47,32765
5.69206,1.79275,0.165317,24,32765
0,0,0,0,32765
4.47842,3.29213,0.361324,43,32765
4.47341,3.26569,0.355482,41,32765
4.48478,3.25054,0.351033,41,32765
4.51223,3.24708,0.348158,43,32765
4.50686,3.22072,0.342996,43,32765
4.54196,3.22349,0.340719,42,32765
4.52826,3.1914,0.335182,40,32765
4.54716,3.18225,0.331997,42,32765
4.59076,3.1899,0.330788,44,32765
4.60978,3.18038,0.32744,42,32765
4.60398,3.15394,0.322715,42,32765
4.59811,3.1274,0.318828,41,32765
4.60874,3.11209,0.315119,43,32765
4.65245,3.11899,0.314216,42,32765
4.64639,3.09245,0.309697,43,32765
4.66511,3.08264,0.306676,43,32765
4.69206,3.07833,0.30471,43,32765
4.68568,3.05189,0.30065,43,32765
4.67067,3.0203,0.295846,41,32765
4.69771,3.01551,0.293824,43,32765
4.74145,3.02158,0.292708,44,32765
4.75153,3.00599,0.289686,44,32765
4.76996,2.99571,0.287834,45,32765
4.80522,2.99615,0.286059,44,32765
4.76435,2.94865,0.280222,42,32765
4.78278,2.93806,0.277774,43,32765
4.82685,2.94287,0.276857,43,32765
4.85386,2.93716,0.274829,43,32765
4.81231,2.89025,0.269311,43,32765
4.89061,2.91526,0.270509,44,32765
4.88312,2.889,0.266941,45,32765
4.91004,2.88288,0.265514,46,32765
4.92846,2.87144,0.263036,47,32765
4.91221,2.83994,0.259466,43,32765
4.91314,2.81855,0.256444,45,32765
4.94866,2.81706,0.254825,46,32765
4.95801,2.80074,0.252923,46,32765
4.96756,2.78402,0.250264,46,32765
4.98577,2.77212,0.248191,46,32765
5.00402,2.76002,0.245833,48,32765
5.00451,2.73858,0.243252,45,32765
5.02233,2.72698,0.241168,46,32765
5.0226,2.70562,0.239075,45,32765
5.0405,2.69366,0.23641,46,32765
5.04076,2.67209,0.234035,45,32765
5.05872,2.65967,0.232047,46,32765
5.06762,2.64278,0.230946,42,32765
5.04099,2.60762,0.226057,30,32765
5.08535,2.60898,0.225377,18,32765
4.99614,2.54215,0.219423,20,32765
5.10292,2.57479,0.221542,42,32765
5.1563,2.58004,0.221068,45,32765
5.14705,2.55393,0.218661,46,32765
5.18263,2.54979,0.217406,48,32765
5.19132,2.53226,0.215088,47,32765
5.19995,2.51471,0.212495,47,32765
