x, y, z, intensity, ring
0,-0,0,0,32765
0,-0,0,0,32765
0,-0,0,0,32765
0,-0,0,0,32765
0,-0,0,0,32765
0,-0,0,0,32765
0,-0,0,0,32765
0,-0,0,0,32765
0,-0,0,0,32765
0,-0,0,0,32765
0,-0,0,0,32765
0,-0,0,0,32765
0,-0,0,0,32765
0,-0,0,0,32765
1.28088,-0.23106,0.148519,13,32765
1.24103,-0.228072,0.14395,17,32765
1.27933,-0.239428,0.148587,17,32765
1.26878,-0.241753,0.147501,17,32765
1.28748,-0.249717,0.14983,17,32765
1.30614,-0.257832,0.152093,17,32765
1.27604,-0.256279,0.148826,16,32765
1.27516,-0.260577,0.148894,16,32765
1.28399,-0.266888,0.150146,16,32765
1.2928,-0.273205,0.151453,16,32765
1.28219,-0.275328,0.150268,16,32765
1.29098,-0.281611,0.151539,16,32765
1.29003,-0.285872,0.151671,16,32765
1.25028,-0.281457,0.147279,16,32765
1.29774,-0.296704,0.153085,15,32765
1.28704,-0.298795,0.15219,16,32765
1.28604,-0.302987,0.152319,15,32765
1.25605,-0.300234,0.148999,15,32765
1.27435,-0.308974,0.151558,16,32765
1.28297,-0.3155,0.152836,16,32765
1.253,-0.312441,0.14954,16,32765
1.28084,-0.3238,0.153273,16,32765
1.28939,-0.330433,0.154596,16,32765
1.26904,-0.329639,0.152603,16,32765
1.28716,-0.338774,0.155113,16,32765
1.28601,-0.342981,0.155348,15,32765
1.27527,-0.344543,0.154517,16,32765
1.27411,-0.348693,0.154752,16,32765
1.28249,-0.35553,0.156263,16,32765
1.31955,-0.370409,0.161186,16,32765
1.2992,-0.369261,0.159114,16,32765
1.29795,-0.373443,0.159577,16,32765
1.28714,-0.374881,0.158874,16,32765
1.29541,-0.381862,0.160324,16,32765
1.31315,-0.391711,0.163103,16,32765
1.29283,-0.390168,0.161142,16,32765
1.31053,-0.400052,0.163929,15,32765
1.32815,-0.410085,0.166893,15,32765
1.30783,-0.408398,0.164894,15,32765
1.32542,-0.418516,0.167687,16,32765
1.32402,-0.42263,0.168381,15,32765
1.37933,-0.445003,0.176167,15,32765
1.44387,-0.470909,0.185414,15,32765
1.37625,-0.45385,0.177615,16,32765
0,0,0,0,32765
0,0,0,0,32765
0,0,0,0,32765
0,-0,0,0,32765
0,-0,0,0,32765
0,-0,0,0,32765
0,-0,0,0,32765
0,-0,0,0,32765
0,-0,0,0,32765
0,-0,0,0,32765
0,-0,0,0,32765
0,-0,0,0,32765
0,-0,0,0,32765
0,-0,0,0,32765
0,-0,0,0,32765
0,-0,0,0,32765
0,-0,0,0,32765
0,-0,0,0,32765
0,-0,0,0,32765
0,-0,0,0,32765
0,-0,0,0,32765
0,-0,0,0,32765
0,-0,0,0,32765
0,-0,0,0,32765
0,-0,0,0,32765
0,-0,0,0,32765
0,-0,0,0,32765
0,-0,0,0,32765
0,-0,0,0,32765
0,-0,0,0,32765
0,-0,0,0,32765
0,-0,0,0,32765
0,-0,0,0,32765
0,-0,0,0,32765
0,-0,0,0,32765
0,-0,0,0,32765
0,-0,0,0,32765
0,-0,0,0,32765
0,-0,0,0,32765
0,-0,0,0,32765
0,-0,0,0,32765
0,-0,0,0,32765
0,-0,0,0,32765
0,-0,0,0,32765
0,-0,0,0,32765
0,-0,0,0,32765
0,-0,0,0,32765
0,-0,0,0,32765
0,-0,0,0,32765
0,-0,0,0,32765
0,-0,0,0,32765
0,-0,0,0,32765
0,-0,0,0,32765
0,-0,0,0,32765
0,-0,0,0,32765
0,-0,0,0,32765
1.23345,-0.218456,0.135963,12,32765
1.19357,-0.215465,0.131782,16,32765
1.27105,-0.233826,0.140523,16,32765
1.2605,-0.236211,0.139482,16,32765
1.24993,-0.238518,0.138544,16,32765
1.24914,-0.24263,0.13845,16,32765
1.23857,-0.244834,0.137513,15,32765
1.27673,-0.256751,0.141881,16,32765
1.28562,-0.262994,0.142885,15,32765
1.25553,-0.261172,0.139778,15,32765
1.27409,-0.269494,0.141994,15,32765
1.24402,-0.267457,0.138872,15,32765
1.28198,-0.280057,0.143189,16,32765
1.25191,-0.277865,0.14005,16,32765
1.24128,-0.279844,0.138922,16,32765
1.2694,-0.290642,0.142278,15,32765
1.24907,-0.290367,0.140009,16,32765
1.23842,-0.292173,0.139081,15,32765
1.26647,-0.303149,0.142327,15,32765
1.22684,-0.297883,0.137934,16,32765
1.24515,-0.306609,0.140288,16,32765
1.25379,-0.313079,0.141409,16,32765
1.22385,-0.309844,0.138167,15,32765
1.25174,-0.321223,0.141329,16,32765
1.24106,-0.322797,0.140249,15,32765
1.22078,-0.321755,0.138118,15,32765
1.28697,-0.343646,0.145699,15,32765
1.23787,-0.334831,0.140276,15,32765
1.26553,-0.346773,0.143498,16,32765
1.24523,-0.345631,0.141252,16,32765
1.23452,-0.347022,0.140101,15,32765
1.22385,-0.348254,0.138948,16,32765
1.26093,-0.363228,0.143294,16,32765
1.25978,-0.367245,0.143115,15,32765
1.2586,-0.371276,0.143144,15,32765
1.24789,-0.372449,0.141968,15,32765
1.25625,-0.379243,0.14289,15,32765
1.23607,-0.3773,0.140606,15,32765
1.31089,-0.404632,0.149158,15,32765
1.32857,-0.414745,0.15125,15,32765
1.25142,-0.395101,0.142318,15,32765
1.31649,-0.420207,0.149639,15,32765
1.32472,-0.427202,0.150427,15,32765
1.24783,-0.406546,0.141568,15,32765
1.36939,-0.450805,0.15511,15,32765
0,0,0,0,32765
0,0,0,0,32765
0,0,0,0,32765
0,-0,0,0,32765
0,-0,0,0,32765
0,-0,0,0,32765
0,-0,0,0,32765
0,-0,0,0,32765
0,-0,0,0,32765
0,-0,0,0,32765
0,-0,0,0,32765
0,-0,0,0,32765
0,-0,0,0,32765
0,-0,0,0,32765
0,-0,0,0,32765
0,-0,0,0,32765
0,-0,0,0,32765
0,-0,0,0,32765
0,-0,0,0,32765
0,-0,0,0,32765
0,-0,0,0,32765
0,-0,0,0,32765
0,-0,0,0,32765
0,-0,0,0,32765
0,-0,0,0,32765
0,-0,0,0,32765
0,-0,0,0,32765
0,-0,0,0,32765
0,-0,0,0,32765
0,-0,0,0,32765
0,-0,0,0,32765
0,-0,0,0,32765
0,-0,0,0,32765
0,-0,0,0,32765
0,-0,0,0,32765
0,-0,0,0,32765
0,-0,0,0,32765
0,-0,0,0,32765
0,-0,0,0,32765
0,-0,0,0,32765
0,-0,0,0,32765
0,-0,0,0,32765
0,-0,0,0,32765
0,-0,0,0,32765
0,-0,0,0,32765
0,-0,0,0,32765
1.23143,-0.176154,0.122673,12,32765
1.22099,-0.178854,0.121628,15,32765
1.23021,-0.184451,0.122774,15,32765
1.25908,-0.193106,0.125768,16,32765
1.25843,-0.197324,0.12578,15,32765
1.24792,-0.20001,0.124852,15,32765
1.28652,-0.210573,0.128927,15,32765
1.26617,-0.211564,0.127093,15,32765
1.28507,-0.219111,0.129123,16,32765
1.24514,-0.216522,0.125127,15,32765
1.2542,-0.222447,0.126115,16,32765
1.23386,-0.223056,0.124284,15,32765
1.24288,-0.228973,0.125368,16,32765
1.26167,-0.236773,0.127383,16,32765
1.24132,-0.23722,0.12555,16,32765
1.221,-0.237511,0.123481,16,32765
1.23971,-0.245422,0.125602,15,32765
1.21938,-0.245582,0.12366,15,32765
1.24781,-0.25564,0.126551,16,32765
1.21772,-0.253686,0.123721,16,32765
1.21685,-0.257775,0.123768,15,32765
1.21598,-0.261823,0.123896,16,32765
1.25399,-0.274358,0.127838,16,32765
1.19477,-0.265587,0.122002,16,32765
1.23271,-0.278337,0.125928,16,32765
1.22206,-0.280234,0.125033,16,32765
1.20175,-0.279798,0.122955,16,32765
1.22986,-0.290604,0.126087,16,32765
1.25793,-0.301576,0.129052,17,32765
1.22794,-0.298619,0.126027,16,32765
1.20763,-0.297836,0.124219,16,32765
1.20664,-0.301783,0.124251,16,32765
1.21529,-0.308167,0.125267,17,32765
1.23357,-0.317066,0.127155,17,32765
1.21327,-0.316074,0.125176,17,32765
1.2411,-0.327636,0.128201,16,32765
1.21119,-0.323936,0.125189,16,32765
1.18132,-0.320055,0.122222,16,32765
1.19946,-0.329204,0.124172,15,32765
1.22713,-0.341165,0.127081,16,32765
1.21643,-0.342498,0.126025,16,32765
1.21534,-0.346399,0.125959,16,32765
1.23333,-0.355864,0.127947,16,32765
1.2322,-0.3598,0.127772,16,32765
1.25012,-0.36939,0.129782,16,32765
1.25848,-0.376237,0.130681,15,32765
1.2573,-0.380198,0.13052,16,32765
1.24662,-0.38116,0.129411,15,32765
1.29296,-0.399774,0.134251,15,32765
1.26319,-0.395002,0.131224,15,32765
1.24296,-0.393098,0.128964,15,32765
1.27965,-0.409146,0.132683,15,32765
1.30685,-0.422164,0.135347,15,32765
1.28668,-0.419925,0.133115,15,32765
1.28542,-0.423893,0.132739,15,32765
0,0,0,0,32765
0,0,0,0,32765
0,0,0,0,32765
0,0,0,0,32765
0,-0,0,0,32765
0,-0,0,0,32765
0,-0,0,0,32765
0,-0,0,0,32765
0,-0,0,0,32765
0,-0,0,0,32765
0,-0,0,0,32765
0,-0,0,0,32765
0,-0,0,0,32765
0,-0,0,0,32765
0,-0,0,0,32765
0,-0,0,0,32765
0,-0,0,0,32765
0,-0,0,0,32765
0,-0,0,0,32765
0,-0,0,0,32765
0,-0,0,0,32765
0,-0,0,0,32765
0,-0,0,0,32765
0,-0,0,0,32765
0,-0,0,0,32765
0,-0,0,0,32765
0,-0,0,0,32765
0,-0,0,0,32765
0,-0,0,0,32765
0,-0,0,0,32765
0,-0,0,0,32765
0,-0,0,0,32765
0,-0,0,0,32765
0,-0,0,0,32765
0,-0,0,0,32765
0,-0,0,0,32765
0,-0,0,0,32765
0,-0,0,0,32765
0,-0,0,0,32765
0,-0,0,0,32765
0,-0,0,0,32765
0,-0,0,0,32765
0,-0,0,0,32765
0,-0,0,0,32765
0,-0,0,0,32765
0,-0,0,0,32765
1.39997,-0.198127,0.131223,12,32765
1.23177,-0.178532,0.115586,15,32765
1.27057,-0.188514,0.119199,16,32765
1.25023,-0.189752,0.117516,15,32765
1.2299,-0.19092,0.115704,15,32765
1.24891,-0.198165,0.117664,15,32765
1.2286,-0.199136,0.115743,15,32765
1.2574,-0.208103,0.118498,15,32765
1.2469,-0.210537,0.117587,15,32765
1.24617,-0.214751,0.117627,15,32765
1.24543,-0.218968,0.117672,15,32765
1.20549,-0.216081,0.114055,15,32765
1.19496,-0.218288,0.113196,15,32765
1.22361,-0.227604,0.116055,16,32765
1.24242,-0.235343,0.117927,16,32765
1.21229,-0.233792,0.115252,16,32765
1.2506,-0.245439,0.119009,16,32765
1.23023,-0.245719,0.117236,15,32765
1.20014,-0.243806,0.11455,16,32765
1.2188,-0.251845,0.116573,16,32765
1.21796,-0.255924,0.116557,16,32765
1.22682,-0.262029,0.117666,16,32765
1.22594,-0.26607,0.117797,16,32765
1.20561,-0.265775,0.11606,16,32765
1.20472,-0.269767,0.11613,15,32765
1.22322,-0.278167,0.118119,16,32765
1.22229,-0.282133,0.118385,16,32765
1.23104,-0.288419,0.119435,16,32765
1.2107,-0.287802,0.117792,16,32765
1.1807,-0.284791,0.11505,16,32765
1.17007,-0.286308,0.114281,16,32765
1.20777,-0.299705,0.118221,16,32765
1.24538,-0.313377,0.122203,16,32765
1.19609,-0.305107,0.117775,16,32765
1.22397,-0.316503,0.120907,16,32765
1.22291,-0.320525,0.121065,16,32765
1.22182,-0.324521,0.121424,16,32765
1.1919,-0.320728,0.118778,15,32765
1.23887,-0.337615,0.123784,16,32765
1.22813,-0.338981,0.12324,16,32765
1.22701,-0.342949,0.123412,15,32765
1.21627,-0.344193,0.122916,16,32765
1.20553,-0.345455,0.122266,16,32765
1.20438,-0.349308,0.122666,16,32765
1.25096,-0.367215,0.127858,16,32765
1.2211,-0.362798,0.125282,16,32765
1.22942,-0.369572,0.126623,16,32765
1.24723,-0.379275,0.129101,15,32765
1.26501,-0.389033,0.131589,15,32765
1.23521,-0.384206,0.128979,15,32765
1.25291,-0.394122,0.131508,15,32765
1.28004,-0.407124,0.135049,15,32765
1.25976,-0.405031,0.133641,15,32765
1.29628,-0.421212,0.138339,15,32765
1.28542,-0.42215,0.138157,15,32765
0,0,0,0,32765
0,0,0,0,32765
0,0,0,0,32765
0,0,0,0,32765
0,-0,0,0,32765
0,-0,0,0,32765
0,-0,0,0,32765
0,-0,0,0,32765
0,-0,0,0,32765
0,-0,0,0,32765
0,-0,0,0,32765
0,-0,0,0,32765
0,-0,0,0,32765
0,-0,0,0,32765
0,-0,0,0,32765
0,-0,0,0,32765
0,-0,0,0,32765
0,-0,0,0,32765
0,-0,0,0,32765
0,-0,0,0,32765
0,-0,0,0,32765
0,-0,0,0,32765
0,-0,0,0,32765
0,-0,0,0,32765
0,-0,0,0,32765
0,-0,0,0,32765
0,-0,0,0,32765
0,-0,0,0,32765
0,-0,0,0,32765
0,-0,0,0,32765
0,-0,0,0,32765
0,-0,0,0,32765
0,-0,0,0,32765
0,-0,0,0,32765
0,-0,0,0,32765
0,-0,0,0,32765
0,-0,0,0,32765
0,-0,0,0,32765
0,-0,0,11,32765
1.25687,-0.148494,0.105511,12,32765
1.29594,-0.157453,0.108814,13,32765
1.27565,-0.159261,0.107013,13,32765
1.18616,-0.152036,0.0995214,14,32765
1.22517,-0.161168,0.102831,14,32765
1.28388,-0.173232,0.107853,14,32765
1.21419,-0.167961,0.10211,15,32765
1.23336,-0.174802,0.10377,16,32765
1.25248,-0.1818,0.105504,16,32765
1.20259,-0.178691,0.10127,15,32765
1.23153,-0.187191,0.103922,15,32765
1.18165,-0.183704,0.0998023,15,32765
1.2007,-0.190802,0.10157,15,32765
1.19022,-0.19321,0.100672,15,32765
1.2289,-0.203698,0.103979,16,32765
1.15945,-0.196073,0.0981693,15,32765
1.20787,-0.208473,0.102369,15,32765
1.21697,-0.214297,0.103245,15,32765
1.15739,-0.207784,0.0983348,15,32765
1.17629,-0.215216,0.100069,16,32765
1.16579,-0.217191,0.099307,15,32765
1.16506,-0.221041,0.0993219,15,32765
1.15453,-0.223007,0.0985929,15,32765
1.16357,-0.228725,0.0994644,15,32765
1.20187,-0.240441,0.102894,16,32765
1.18154,-0.240415,0.101324,16,32765
1.1612,-0.240331,0.0998019,15,32765
1.15064,-0.242172,0.0989483,16,32765
1.14981,-0.245982,0.099114,15,32765
1.20741,-0.262478,0.104283,16,32765
1.15788,-0.255673,0.100206,15,32765
1.16674,-0.261696,0.101116,15,32765
1.18529,-0.269989,0.102914,15,32765
1.16497,-0.26935,0.101481,15,32765
1.16407,-0.273184,0.101586,15,32765
1.13407,-0.270038,0.0992688,15,32765
1.18159,-0.285485,0.103597,16,32765
1.1516,-0.282263,0.101221,15,32765
1.17,-0.290823,0.10308,15,32765
1.14004,-0.287356,0.100707,15,32765
1.15838,-0.295988,0.102712,15,32765
1.15738,-0.299792,0.10298,15,32765
1.19491,-0.313723,0.106568,15,32765
1.19385,-0.317634,0.106918,15,32765
1.17355,-0.316333,0.105413,15,32765
1.20135,-0.327953,0.108215,16,32765
1.18104,-0.326544,0.106884,16,32765
1.16077,-0.324996,0.105309,16,32765
1.18843,-0.336894,0.108378,16,32765
1.20643,-0.346311,0.110445,16,32765
1.17658,-0.341837,0.108206,16,32765
1.21366,-0.356887,0.11204,16,32765
1.23155,-0.366542,0.11416,16,32765
1.2208,-0.36762,0.113636,16,32765
1.24815,-0.380221,0.116814,17,32765
1.23739,-0.381207,0.116428,16,32765
1.21711,-0.379241,0.11499,16,32765
1.23484,-0.389121,0.117324,16,32765
1.21457,-0.386981,0.116044,15,32765
1.29861,-0.418259,0.124814,15,32765
1.26884,-0.413023,0.122746,16,32765
1.32421,-0.435658,0.129095,15,32765
0,0,0,0,32765
0,0,0,0,32765
0,0,0,0,32765
0,0,0,0,32765
0,-0,0,0,32765
0,-0,0,0,32765
0,-0,0,0,32765
0,-0,0,0,32765
0,-0,0,0,32765
0,-0,0,0,32765
0,-0,0,0,32765
0,-0,0,0,32765
0,-0,0,0,32765
0,-0,0,0,32765
0,-0,0,0,32765
0,-0,0,0,32765
0,-0,0,0,32765
0,-0,0,0,32765
0,-0,0,0,32765
0,-0,0,0,32765
0,-0,0,0,32765
0,-0,0,0,32765
0,-0,0,0,32765
0,-0,0,11,32765
0,-0,0,0,32765
0,-0,0,11,32765
0,-0,0,11,32765
0,-0,0,11,32765
0,-0,0,0,32765
0,-0,0,0,32765
0,-0,0,0,32765
1.18154,-0.107857,0.0917508,12,32765
1.23081,-0.116522,0.0956085,12,32765
1.23042,-0.12059,0.0955442,13,32765
1.23001,-0.124707,0.0954927,13,32765
1.20976,-0.126707,0.0939363,13,32765
1.23907,-0.133934,0.096262,14,32765
1.18907,-0.132562,0.0924713,14,32765
1.22824,-0.141026,0.095564,15,32765
1.22777,-0.145105,0.0955235,14,32765
1.22728,-0.149182,0.0955894,15,32765
1.23667,-0.154461,0.0964039,15,32765
1.20648,-0.154808,0.0940676,15,32765
1.17631,-0.154867,0.0917632,14,32765
1.19554,-0.161463,0.0933414,15,32765
1.21475,-0.168143,0.094894,15,32765
1.17471,-0.166542,0.0917184,15,32765
1.15441,-0.167601,0.0902333,15,32765
1.23273,-0.183123,0.096616,15,32765
1.20253,-0.182762,0.0944254,16,32765
1.18221,-0.18374,0.0928086,15,32765
1.18157,-0.187763,0.0929536,16,32765
1.21043,-0.196621,0.0954028,15,32765
1.18025,-0.195771,0.0932294,15,32765
1.19924,-0.203058,0.0948109,15,32765
1.17891,-0.203642,0.0932831,15,32765
1.16841,-0.205786,0.0926179,15,32765
1.1677,-0.209693,0.0928055,15,32765
1.16701,-0.213517,0.0927836,15,32765
1.17608,-0.219245,0.0936231,15,32765
1.17533,-0.22314,0.0938229,15,32765
1.17458,-0.227036,0.0938393,15,32765
1.16403,-0.229051,0.0931071,15,32765
1.15349,-0.230913,0.0924282,15,32765
1.14294,-0.232796,0.0916633,15,32765
1.19096,-0.246702,0.095637,15,32765
1.16085,-0.244536,0.0933839,15,32765
1.18926,-0.254732,0.095776,16,32765
1.19814,-0.260803,0.0966488,16,32765
1.23619,-0.27344,0.0998506,16,32765
1.15748,-0.259983,0.0935806,15,32765
1.19549,-0.272625,0.0968798,16,32765
1.15574,-0.267564,0.0936445,15,32765
1.16455,-0.273607,0.0946078,16,32765
1.16365,-0.277446,0.0945734,15,32765
1.14336,-0.276549,0.0930114,15,32765
1.13275,-0.277952,0.0923204,15,32765
1.15117,-0.286532,0.093893,15,32765
1.16954,-0.295196,0.095555,15,32765
1.17823,-0.301497,0.0962538,16,32765
1.16759,-0.302851,0.0954652,16,32765
1.16661,-0.30661,0.0955076,16,32765
1.12707,-0.300159,0.0923259,15,32765
1.15497,-0.311539,0.0947933,15,32765
1.14434,-0.312676,0.093942,15,32765
1.16253,-0.32171,0.0955348,15,32765
1.18068,-0.330868,0.0970629,15,32765
1.19878,-0.34018,0.0984897,16,32765
1.14019,-0.327508,0.0938751,15,32765
1.19656,-0.347889,0.0985263,15,32765
1.1859,-0.348851,0.0977438,16,32765
1.18479,-0.352606,0.0976297,16,32765
1.17413,-0.35352,0.0967155,16,32765
1.21116,-0.368849,0.0997634,16,32765
1.20997,-0.372705,0.099763,16,32765
1.18978,-0.370589,0.0979607,16,32765
1.16961,-0.36831,0.0962839,15,32765
1.25396,-0.3992,0.103069,16,32765
1.22427,-0.393911,0.100501,15,32765
1.20407,-0.391633,0.0986955,16,32765
1.24078,-0.407763,0.101516,16,32765
0,0,0,0,32765
0,0,0,0,32765
0,0,0,0,32765
0,0,0,0,32765
0,-0,0,0,32765
0,-0,0,0,32765
0,-0,0,0,32765
0,-0,0,0,32765
0,-0,0,0,32765
0,-0,0,0,32765
0,-0,0,0,32765
0,-0,0,0,32765
0,-0,0,0,32765
0,-0,0,0,32765
0,-0,0,0,32765
0,-0,0,0,32765
0,-0,0,0,32765
0,-0,0,0,32765
0,-0,0,0,32765
0,-0,0,0,32765
0,-0,0,0,32765
0,-0,0,0,32765
0,-0,0,12,32765
1.20465,-0.0780185,0.0826781,15,32765
1.15463,-0.0785984,0.0791064,15,32765
1.19418,-0.0852169,0.0816612,15,32765
1.16404,-0.0869572,0.0796534,15,32765
1.25327,-0.0978279,0.0857293,15,32765
1.22312,-0.0995226,0.0835394,15,32765
1.19296,-0.101072,0.0814097,15,32765
1.18269,-0.104138,0.0806306,15,32765
1.21215,-0.110804,0.0825863,15,32765
1.1919,-0.112997,0.081235,15,32765
1.1816,-0.11597,0.0804964,15,32765
1.19113,-0.120939,0.0811231,15,32765
1.19072,-0.124895,0.0811073,15,32765
1.17046,-0.126705,0.0797705,15,32765
1.16011,-0.129527,0.0791529,15,32765
1.16959,-0.134494,0.0798394,14,32765
1.15923,-0.137213,0.0791248,15,32765
1.19838,-0.145893,0.0818944,15,32765
1.21769,-0.152326,0.0832911,15,32765
1.12811,-0.144978,0.0771756,15,32765
1.12762,-0.148691,0.0771842,15,32765
1.18644,-0.160488,0.0812823,15,32765
1.15625,-0.160301,0.0792598,15,32765
1.1656,-0.165515,0.0798484,14,32765
1.13542,-0.16511,0.077874,15,32765
1.15459,-0.171793,0.079428,14,32765
1.14413,-0.174171,0.0788713,14,32765
1.16326,-0.181092,0.0801636,14,32765
1.14292,-0.181922,0.0789453,15,32765
1.16198,-0.189063,0.080427,15,32765
1.15148,-0.191318,0.0798954,15,32765
1.16067,-0.196856,0.0806053,15,32765
1.12068,-0.19391,0.0778983,15,32765
1.14951,-0.202799,0.0800588,15,32765
1.14881,-0.20665,0.0802436,15,32765
1.09906,-0.201428,0.076794,15,32765
1.11799,-0.208772,0.0782224,15,32765
1.10747,-0.210617,0.0777248,15,32765
1.12636,-0.218088,0.0791164,16,32765
1.14519,-0.225733,0.0805416,16,32765
1.13465,-0.227536,0.0799553,15,32765
1.09478,-0.223375,0.0772161,15,32765
1.12333,-0.233098,0.079338,15,32765
1.11277,-0.234818,0.0787429,15,32765
1.13147,-0.242781,0.0801607,15,32765
1.15015,-0.250798,0.0816272,16,32765
1.13955,-0.252511,0.08099,16,32765
1.17765,-0.264984,0.0837793,16,32765
1.15732,-0.264391,0.0825436,15,32765
1.11757,-0.259191,0.0796874,15,32765
1.13613,-0.267407,0.0812456,15,32765
1.11584,-0.266525,0.0798242,15,32765
1.12466,-0.272516,0.0805326,15,32765
1.10436,-0.271477,0.0792392,16,32765
1.11313,-0.277568,0.0799293,16,32765
1.12188,-0.283681,0.0807052,15,32765
1.13061,-0.289839,0.081314,15,32765
1.10069,-0.28602,0.0792298,15,32765
1.09011,-0.287031,0.0785748,16,32765
1.11808,-0.298314,0.080637,16,32765
1.13638,-0.307089,0.0821261,16,32765
1.11613,-0.305533,0.0806746,15,32765
1.12474,-0.31183,0.081384,15,32765
1.13333,-0.318189,0.082031,15,32765
1.15148,-0.327367,0.0832763,15,32765
1.16,-0.333823,0.0840855,15,32765
1.1206,-0.326417,0.0812294,15,32765
1.14827,-0.33842,0.0833182,16,32765
1.16632,-0.347764,0.0845949,16,32765
1.19386,-0.360144,0.0865465,16,32765
1.17364,-0.358103,0.085068,16,32765
1.20109,-0.370673,0.0871428,15,32765
1.17136,-0.365549,0.0848408,15,32765
1.20827,-0.381216,0.0874873,15,32765
1.20708,-0.385016,0.0872374,15,32765
1.22489,-0.394873,0.0883861,16,32765
1.21416,-0.395681,0.0874519,16,32765
1.23192,-0.405639,0.0885329,16,32765
0,0,0,0,32765
0,0,0,0,32765
0,0,0,0,32765
0,0,0,0,32765
0,-0,0,0,32765
0,-0,0,0,32765
0,-0,0,0,32765
0,-0,0,0,32765
0,-0,0,0,32765
0,-0,0,11,32765
0,-0,0,0,32765
0,-0,0,0,32765
0,-0,0,12,32765
0,-0,0,11,32765
0,-0,0,12,32765
0,-0,0,0,32765
0,-0,0,0,32765
0,-0,0,0,32765
0,-0,0,0,32765
0,-0,0,0,32765
1.1761,-0.0625503,0.0726644,12,32765
1.18584,-0.0669677,0.0734488,13,32765
1.19558,-0.0714417,0.0741192,14,32765
1.21526,-0.0766249,0.0752931,15,32765
1.24487,-0.0826535,0.0772906,15,32765
1.23463,-0.0860906,0.0766529,15,32765
1.21443,-0.0887928,0.0753497,15,32765
1.21412,-0.0928538,0.0754419,15,32765
1.2138,-0.0969803,0.0754211,15,32765
1.18362,-0.0985561,0.0737446,14,32765
1.22306,-0.10596,0.0761353,15,32765
1.20282,-0.108251,0.0749001,15,32765
1.22232,-0.114142,0.0762231,16,32765
1.17225,-0.113444,0.0732624,15,32765
1.19172,-0.119319,0.0746207,16,32765
1.18139,-0.122278,0.0739573,15,32765
1.1909,-0.127289,0.0745115,15,32765
1.16071,-0.127976,0.0726368,15,32765
1.14044,-0.129605,0.0714675,15,32765
1.17966,-0.137961,0.0740112,15,32765
1.21882,-0.146658,0.0765457,15,32765
1.18862,-0.147041,0.0745913,15,32765
1.14852,-0.146018,0.0719757,15,32765
1.16781,-0.152458,0.0733539,15,32765
1.16729,-0.156343,0.073496,14,32765
1.15686,-0.158891,0.0729891,15,32765
1.17609,-0.165544,0.0741939,14,32765
1.19529,-0.17231,0.0753764,15,32765
1.16507,-0.172017,0.0735769,15,32765
1.10528,-0.16691,0.0699514,15,32765
1.13431,-0.17513,0.0718511,15,32765
1.19288,-0.188243,0.0755356,15,32765
1.10357,-0.177889,0.0698497,15,32765
1.13251,-0.186479,0.0717371,15,32765
1.13187,-0.190271,0.071875,15,32765
1.18041,-0.202545,0.0749458,16,32765
1.15022,-0.201329,0.0732019,15,32765
1.12007,-0.199851,0.0713555,15,32765
1.09977,-0.199981,0.0700546,15,32765
1.13835,-0.210865,0.0727162,15,32765
1.12783,-0.212825,0.0721987,15,32765
1.1173,-0.214769,0.071574,15,32765
1.14596,-0.224194,0.0735392,15,32765
1.07669,-0.214376,0.0692111,15,32765
1.13466,-0.229789,0.073051,16,32765
1.13389,-0.233518,0.0731592,15,32765
1.14287,-0.239336,0.0739527,15,32765
1.1323,-0.241015,0.0734795,15,32765
1.07297,-0.232116,0.0697677,15,32765
1.10144,-0.242045,0.0717913,15,32765
1.1201,-0.250032,0.0731938,15,32765
1.12898,-0.255952,0.0740451,15,32765
1.11839,-0.257465,0.073584,15,32765
1.10781,-0.258879,0.0730235,15,32765
1.09723,-0.260226,0.0726169,15,32765
1.14487,-0.275475,0.0760267,16,32765
1.11486,-0.272155,0.0743086,15,32765
1.11395,-0.275786,0.0744758,15,32765
1.15175,-0.28916,0.0772115,15,32765
1.14111,-0.290422,0.0769401,15,32765
1.13047,-0.291689,0.0765875,15,32765
1.09089,-0.285263,0.0740788,15,32765
1.10923,-0.29389,0.0756958,16,32765
1.12754,-0.302667,0.0771314,15,32765
1.10728,-0.301064,0.0761726,16,32765
1.14473,-0.315315,0.0791466,16,32765
1.11483,-0.31106,0.077384,15,32765
1.13299,-0.32009,0.0791686,15,32765
1.10315,-0.315551,0.0774272,16,32765
1.18837,-0.344027,0.0838578,16,32765
1.18724,-0.34781,0.084177,16,32765
1.13824,-0.337511,0.081278,15,32765
1.1849,-0.3555,0.0850565,16,32765
1.19327,-0.362188,0.086156,16,32765
1.18256,-0.363006,0.0859035,16,32765
1.18138,-0.366721,0.086343,16,32765
1.20871,-0.379451,0.0890429,15,32765
1.19796,-0.380266,0.0887987,15,32765
1.22519,-0.393221,0.0915775,15,32765
1.20493,-0.390914,0.0906966,16,32765
1.20364,-0.394668,0.0915368,15,32765
0,0,0,0,32765
0,0,0,0,32765
0,0,0,0,32765
0,0,0,0,32765
0,-0,0,0,32765
0,-0,0,0,32765
0,-0,0,0,32765
0,-0,0,0,32765
0,-0,0,12,32765
1.21822,-0.0202573,0.0626456,12,32765
1.25808,-0.0251592,0.0648838,12,32765
1.21804,-0.0284435,0.0629711,12,32765
1.21794,-0.0324924,0.0629949,13,32765
1.2278,-0.0368133,0.063636,14,32765
1.19773,-0.039881,0.0621522,14,32765
1.21754,-0.044603,0.0633131,15,32765
1.24732,-0.0498823,0.0649219,14,32765
1.19725,-0.0518773,0.0624429,15,32765
1.19707,-0.0558583,0.0625498,15,32765
1.22679,-0.0612976,0.0641719,15,32765
1.17673,-0.0626616,0.0615512,14,32765
1.18648,-0.0670898,0.0622416,15,32765
1.18625,-0.0709783,0.0622944,15,32765
1.18601,-0.0748827,0.0622345,14,32765
1.20567,-0.0801632,0.063422,14,32765
1.14563,-0.0799988,0.0602592,15,32765
1.17524,-0.0860525,0.0617666,14,32765
1.17494,-0.0899904,0.0618558,15,32765
1.15472,-0.0923987,0.0607878,14,32765
1.1942,-0.0995889,0.0630638,14,32765
1.17396,-0.101864,0.0619282,14,32765
1.14378,-0.103098,0.0603565,14,32765
1.12353,-0.105084,0.0593851,14,32765
1.13311,-0.109831,0.0600439,14,32765
1.11286,-0.111603,0.0590995,15,32765
1.16214,-0.120482,0.0616971,15,32765
1.13195,-0.121186,0.0600513,15,32765
1.11169,-0.122774,0.0589865,15,32765
1.11126,-0.126501,0.0590571,15,32765
1.1406,-0.133617,0.0606951,15,32765
1.12031,-0.135032,0.0596827,15,32765
1.10995,-0.137543,0.0590731,15,32765
1.10949,-0.141297,0.0589484,16,32765
1.1189,-0.146324,0.0596064,16,32765
1.1184,-0.150054,0.0597427,16,32765
1.12778,-0.155166,0.0603846,16,32765
1.12725,-0.158947,0.0603437,15,32765
1.11683,-0.161282,0.0597543,15,32765
1.11627,-0.165103,0.059821,16,32765
1.09597,-0.165797,0.0588772,16,32765
1.10528,-0.170952,0.0594332,15,32765
1.10471,-0.17464,0.0593739,15,32765
1.09427,-0.176705,0.058777,15,32765
1.10351,-0.182032,0.0593227,16,32765
1.07335,-0.18076,0.0578648,15,32765
1.08257,-0.186096,0.0583461,15,32765
1.11144,-0.194896,0.060063,15,32765
1.10096,-0.196801,0.0595618,16,32765
1.08066,-0.196866,0.0584502,15,32765
1.10945,-0.20589,0.0602002,16,32765
1.11856,-0.211467,0.0608416,16,32765
1.08842,-0.209605,0.0592439,16,32765
1.10732,-0.217036,0.0603905,16,32765
1.09679,-0.218785,0.0599295,16,32765
1.0667,-0.216429,0.0583853,16,32765
1.07576,-0.221959,0.0590239,16,32765
1.06523,-0.223496,0.0586394,16,32765
1.08401,-0.231169,0.0598678,16,32765
1.10275,-0.239009,0.0610381,16,32765
1.08245,-0.238322,0.0600768,16,32765
1.06216,-0.237547,0.0591197,16,32765
1.11004,-0.252134,0.0620432,16,32765
1.07999,-0.249098,0.0605819,16,32765
1.05971,-0.248111,0.0595666,16,32765
1.0783,-0.256227,0.0608899,16,32765
1.10657,-0.266769,0.0627259,16,32765
1.07657,-0.263313,0.061283,16,32765
1.10477,-0.274039,0.0631055,16,32765
1.09417,-0.275235,0.0626903,16,32765
1.09326,-0.278779,0.0630523,16,32765
1.09231,-0.282389,0.063342,16,32765
1.08172,-0.283414,0.0628907,16,32765
1.09043,-0.28947,0.0637532,16,32765
1.09912,-0.295612,0.0644339,16,32765
1.0885,-0.296537,0.0642227,16,32765
1.10675,-0.305447,0.0656736,16,32765
1.08648,-0.303742,0.0647586,16,32765
1.11429,-0.315421,0.0669213,16,32765
1.14202,-0.327311,0.0689333,16,32765
1.16972,-0.339292,0.0710369,16,32765
1.13987,-0.334589,0.069597,15,32765
1.15788,-0.34401,0.0712709,16,32765
1.15674,-0.347736,0.0716263,16,32765
1.12694,-0.34273,0.0702414,15,32765
1.15446,-0.355079,0.072454,16,32765
1.14377,-0.355748,0.0722812,16,32765
1.15212,-0.362399,0.0734664,16,32765
1.18898,-0.378161,0.0763492,15,32765
1.20673,-0.388062,0.0782258,15,32765
1.23394,-0.401119,0.0806261,16,32765
1.21366,-0.398741,0.0802334,16,32765
0,0,0,12,32765
0,0,0,12,32765
0,0,0,0,32765
0,0,0,0,32765
0,-0,0,12,32765
0,-0,0,11,32765
0,-0,0,0,32765
0,-0,0,0,32765
0,-0,0,12,32765
1.18836,-0.02031,0.0591047,14,32765
1.1883,-0.0242303,0.0588062,13,32765
1.08837,-0.0258257,0.0537816,13,32765
1.2081,-0.0327052,0.0593667,14,32765
1.22796,-0.0373446,0.0601511,15,32765
1.15796,-0.0390828,0.0564839,15,32765
1.22771,-0.0454991,0.059586,15,32765
1.17766,-0.0475137,0.0569938,15,32765
1.20744,-0.0527311,0.0582945,15,32765
1.20728,-0.0566885,0.0580806,14,32765
1.19711,-0.0602221,0.0574307,14,32765
1.19692,-0.0641549,0.0572235,14,32765
1.20668,-0.0686648,0.0575422,15,32765
1.14662,-0.0690292,0.0546921,14,32765
1.18628,-0.07527,0.0563665,14,32765
1.17606,-0.0785509,0.0557943,14,32765
1.19573,-0.0838574,0.0566071,15,32765
1.18548,-0.0871272,0.0560262,14,32765
1.13539,-0.0872483,0.0535418,14,32765
1.12514,-0.0902085,0.0530223,14,32765
1.16466,-0.0972547,0.0548513,15,32765
1.10463,-0.0959042,0.0519922,15,32765
1.13415,-0.10227,0.0534155,15,32765
1.14375,-0.107006,0.0537768,15,32765
1.09367,-0.106016,0.0514975,15,32765
1.17282,-0.117648,0.0552155,15,32765
1.17243,-0.121544,0.0550919,15,32765
1.15215,-0.123283,0.0542793,15,32765
1.1418,-0.126072,0.0537724,15,32765
1.12152,-0.127662,0.0528327,14,32765
1.13101,-0.132629,0.0532376,15,32765
1.09089,-0.131602,0.051436,15,32765
1.11028,-0.137626,0.0523523,15,32765
1.13954,-0.14508,0.0539294,15,32765
1.07963,-0.141091,0.0509829,15,32765
1.09894,-0.147361,0.0520312,15,32765
1.06875,-0.146993,0.0506486,15,32765
1.07813,-0.151951,0.0514102,15,32765
1.12706,-0.162651,0.0535819,15,32765
1.08698,-0.160581,0.0517479,15,32765
1.09631,-0.165697,0.0523968,15,32765
1.05626,-0.163288,0.050576,16,32765
1.10504,-0.174617,0.0529612,15,32765
1.07486,-0.173524,0.0517218,16,32765
1.12354,-0.185269,0.0541244,15,32765
1.09336,-0.184085,0.0527473,16,32765
1.08289,-0.186079,0.0522609,16,32765
1.05274,-0.184517,0.0509271,16,32765
1.09144,-0.195061,0.0530182,15,32765
1.10061,-0.200493,0.0535221,15,32765
1.0803,-0.200486,0.0526127,16,32765
1.08943,-0.205934,0.0532392,15,32765
1.06911,-0.205768,0.0524725,15,32765
1.05862,-0.207379,0.0520365,15,32765
1.07752,-0.214816,0.0530266,16,32765
1.0768,-0.218399,0.0529985,15,32765
1.04672,-0.215886,0.0517352,15,32765
1.06554,-0.223482,0.0526777,15,32765
1.04525,-0.222858,0.0518817,16,32765
1.05425,-0.228508,0.0524066,16,32765
1.07298,-0.236368,0.0534202,16,32765
1.08191,-0.242159,0.0540646,16,32765
1.05189,-0.239105,0.052551,15,32765
1.09002,-0.251563,0.0545984,16,32765
1.06001,-0.248301,0.0532325,16,32765
1.10777,-0.263349,0.05568,15,32765
1.07776,-0.259965,0.054228,15,32765
1.0672,-0.261132,0.0538261,15,32765
1.06633,-0.264666,0.0538755,16,32765
1.03639,-0.260841,0.0524861,16,32765
1.07424,-0.274103,0.0544936,16,32765
1.11202,-0.287618,0.0564599,16,32765
1.0531,-0.276053,0.0535384,16,32765
1.07149,-0.284643,0.0545781,16,32765
1.0995,-0.295918,0.0559773,16,32765
1.07926,-0.294226,0.0549961,16,32765
1.06868,-0.295036,0.0545588,16,32765
1.07735,-0.301157,0.0550493,16,32765
1.07636,-0.304651,0.0550855,16,32765
1.09456,-0.3137,0.0559409,16,32765
1.1127,-0.322885,0.0568928,15,32765
1.06375,-0.312378,0.054447,16,32765
1.09148,-0.324254,0.0559406,15,32765
1.1383,-0.342029,0.0581966,16,32765
1.13721,-0.34564,0.0581534,15,32765
1.13609,-0.34933,0.0580711,16,32765
1.15404,-0.358902,0.0589658,16,32765
1.12434,-0.353478,0.0574591,16,32765
1.13276,-0.360004,0.0578333,16,32765
1.18871,-0.381855,0.0604512,16,32765
1.13998,-0.370294,0.0576593,16,32765
1.15781,-0.380073,0.0585252,16,32765
0,0,0,0,32765
1.26877,0.0120858,0.0545409,13,32765
1.19889,0.007332,0.0510124,14,32765
1.15897,0.00315271,0.048885,14,32765
1.20894,-0.000690199,0.0505837,15,32765
1.20895,-0.00461997,0.0501188,14,32765
1.20895,-0.00859718,0.0497646,15,32765
1.14898,-0.0119679,0.0469452,14,32765
1.14894,-0.0158137,0.0466538,14,32765
1.16888,-0.0199804,0.0470854,14,32765
1.1888,-0.0242522,0.0475916,14,32765
1.13877,-0.027041,0.0455052,14,32765
1.10872,-0.0300415,0.0439995,14,32765
1.15856,-0.03527,0.0457958,14,32765
1.10851,-0.037456,0.0435883,14,32765
1.15832,-0.0429798,0.0452627,14,32765
1.13821,-0.0459814,0.044318,14,32765
1.19795,-0.0523877,0.0465034,15,32765
1.13789,-0.0535062,0.0439767,15,32765
1.12773,-0.0568149,0.043431,15,32765
1.10759,-0.0594564,0.0424707,15,32765
1.12735,-0.0642493,0.0430882,15,32765
1.08723,-0.0655566,0.0415661,15,32765
1.09699,-0.0697163,0.0417367,15,32765
1.1167,-0.0747076,0.0424021,14,32765
1.13639,-0.0798274,0.0430331,14,32765
1.14608,-0.0843725,0.0433051,15,32765
1.08602,-0.0835955,0.0409212,15,32765
1.07578,-0.0863981,0.0404982,15,32765
1.07549,-0.0899635,0.0404541,14,32765
1.10505,-0.0961085,0.0415317,15,32765
1.09477,-0.0988926,0.0411751,15,32765
1.09444,-0.102574,0.0410726,15,32765
1.08414,-0.10528,0.0407577,15,32765
1.08378,-0.108912,0.0407326,15,32765
1.09336,-0.113551,0.0409912,15,32765
1.0731,-0.115032,0.0403589,16,32765
1.11243,-0.123054,0.0418158,16,32765
1.09215,-0.124548,0.0410649,16,32765
1.0818,-0.127094,0.0406318,16,32765
1.09129,-0.131895,0.0410712,16,32765
1.07102,-0.133007,0.0403064,15,32765
1.07057,-0.136554,0.0404708,16,32765
1.0503,-0.137516,0.0395923,16,32765
1.05973,-0.14237,0.0400748,16,32765
1.08894,-0.150053,0.0412228,16,32765
1.07852,-0.152295,0.0411409,16,32765
1.08791,-0.1573,0.0413386,16,32765
1.07749,-0.159483,0.0410086,15,32765
1.07694,-0.163082,0.0411842,16,32765
1.06651,-0.16519,0.0408746,16,32765
1.05608,-0.167203,0.0405172,16,32765
1.02591,-0.165943,0.0395525,15,32765
1.06478,-0.17592,0.0411024,16,32765
1.06418,-0.179521,0.0411487,16,32765
1.05372,-0.18142,0.040757,16,32765
1.08263,-0.190127,0.0419941,16,32765
1.06231,-0.190227,0.0414132,16,32765
1.09116,-0.199162,0.0425898,16,32765
1.05119,-0.195469,0.0411005,16,32765
1.04071,-0.197113,0.0408582,16,32765
1.07929,-0.208137,0.0425947,16,32765
1.04918,-0.205935,0.0414784,16,32765
1.05828,-0.2114,0.0418923,16,32765
1.02819,-0.208956,0.0407021,16,32765
1.06663,-0.220433,0.0424385,16,32765
1.07567,-0.226057,0.0428034,16,32765
1.05536,-0.225465,0.0421977,16,32765
1.04482,-0.22692,0.0418471,16,32765
1.0538,-0.232612,0.0422808,16,32765
1.04326,-0.233978,0.0420428,16,32765
1.06196,-0.241883,0.042776,16,32765
1.05142,-0.243147,0.0424814,16,32765
1.05061,-0.246599,0.0425775,16,32765
1.04979,-0.250073,0.0425832,16,32765
1.05867,-0.255879,0.0429909,16,32765
1.04811,-0.256985,0.042682,16,32765
1.04725,-0.260464,0.0427309,17,32765
1.06576,-0.268784,0.0436048,17,32765
1.06488,-0.272272,0.0436502,17,32765
1.08332,-0.280773,0.0444468,17,32765
1.06307,-0.27924,0.0436779,17,32765
1.06214,-0.282742,0.0437351,16,32765
1.07086,-0.288809,0.0440592,16,32765
1.06992,-0.292285,0.0440606,16,32765
1.0786,-0.298395,0.0445122,16,32765
1.08726,-0.304561,0.044909,17,32765
1.06703,-0.302642,0.0441505,16,32765
1.08524,-0.311681,0.0448193,16,32765
1.0842,-0.315276,0.044791,16,32765
1.08318,-0.318756,0.0447981,16,32765
1.09175,-0.325019,0.045217,16,32765
1.08117,-0.325549,0.0446333,16,32765
1.08969,-0.331899,0.0449874,16,32765
1.09815,-0.338384,0.0453029,16,32765
1.1066,-0.344883,0.0456194,16,32765
1.10553,-0.348307,0.0455759,15,32765
1.10445,-0.351756,0.0454665,16,32765
1.12238,-0.361322,0.0459695,15,32765
1.14971,-0.37426,0.0467616,16,32765
1.10108,-0.362233,0.0447395,15,32765
1.19939,0.0172374,0.0342541,14,32765
1.14945,0.01274,0.0331709,14,32765
1.17946,0.00916399,0.034399,14,32765
1.1395,0.00505619,0.0335452,14,32765
1.16949,0.00123617,0.0345374,15,32765
1.12949,-0.00255523,0.033739,14,32765
1.14947,-0.00636816,0.0344822,14,32765
1.17942,-0.0104397,0.0354767,14,32765
1.1294,-0.0137591,0.0340898,14,32765
1.14933,-0.0178818,0.034824,14,32765
1.13927,-0.0214939,0.0346417,14,32765
1.14918,-0.0255077,0.0351638,14,32765
1.13909,-0.0290628,0.0349578,14,32765
1.14898,-0.0331072,0.0353114,14,32765
1.09891,-0.0353277,0.0339447,15,32765
1.12875,-0.0400361,0.0349401,14,32765
1.1386,-0.0441431,0.0353697,14,32765
1.1684,-0.049173,0.0363933,14,32765
1.13827,-0.0517049,0.0355085,14,32765
1.15806,-0.0565232,0.0362072,14,32765
1.0281,-0.0536224,0.0321545,14,32765
1.10775,-0.0614996,0.0347328,15,32765
1.09756,-0.0645905,0.0344458,15,32765
1.10731,-0.0688854,0.0348502,15,32765
1.08712,-0.0712889,0.0343664,14,32765
1.05697,-0.0728223,0.0333932,15,32765
1.07666,-0.0777325,0.0340583,15,32765
1.08636,-0.0820904,0.0344306,15,32765
1.10601,-0.0872802,0.0350792,15,32765
1.11567,-0.0918353,0.035401,15,32765
1.08547,-0.0930282,0.034494,15,32765
1.11502,-0.099315,0.0354974,15,32765
1.07488,-0.0993305,0.034172,16,32765
1.11434,-0.10674,0.0355413,15,32765
1.09408,-0.108459,0.034873,16,32765
1.10366,-0.113115,0.0351476,15,32765
1.0834,-0.114675,0.0346029,15,32765
1.09294,-0.119401,0.0349001,16,32765
1.06274,-0.119719,0.0339668,16,32765
1.06232,-0.123345,0.0339582,16,32765
1.1016,-0.131661,0.0353068,15,32765
1.07139,-0.131682,0.0344277,16,32765
1.07094,-0.135257,0.034507,16,32765
1.05067,-0.136192,0.0338969,16,32765
1.05021,-0.139693,0.0339446,16,32765
1.05963,-0.144576,0.0342835,16,32765
1.04924,-0.146756,0.0339146,16,32765
1.02895,-0.147487,0.033217,16,32765
1.05812,-0.155289,0.0342775,16,32765
1.05759,-0.158841,0.0342165,16,32765
1.0768,-0.165428,0.0350315,16,32765
1.05649,-0.165954,0.034351,16,32765
1.03619,-0.166378,0.0336432,16,32765
1.06521,-0.174708,0.0347537,16,32765
1.05476,-0.176627,0.0344002,16,32765
1.05416,-0.18016,0.0345527,16,32765
1.04371,-0.181929,0.0342372,16,32765
1.05293,-0.187195,0.034493,16,32765
1.06213,-0.192497,0.0349951,16,32765
1.03199,-0.190635,0.0341302,16,32765
1.06081,-0.199624,0.0351322,16,32765
1.01106,-0.193721,0.0335223,16,32765
1.04966,-0.204709,0.0349032,16,32765
1.03916,-0.206265,0.0347337,16,32765
1.02867,-0.207727,0.0345357,16,32765
1.05734,-0.217148,0.0356226,16,32765
1.04683,-0.218603,0.0353824,16,32765
1.03632,-0.22,0.0351525,16,32765
1.04535,-0.22553,0.0356396,16,32765
1.04459,-0.229016,0.0357817,16,32765
1.03405,-0.230386,0.035662,16,32765
1.04301,-0.236046,0.0360995,16,32765
1.02274,-0.23505,0.0355263,16,32765
1.02195,-0.238415,0.0357534,16,32765
1.0406,-0.246387,0.0366183,16,32765
1.05924,-0.254393,0.0374705,16,32765
1.01955,-0.248379,0.0363013,16,32765
1.03814,-0.256499,0.0371547,16,32765
1.01789,-0.255042,0.0366812,16,32765
1.06547,-0.270708,0.0386926,16,32765
1.04522,-0.269184,0.0381789,16,32765
1.04431,-0.272638,0.0384469,16,32765
1.05306,-0.278616,0.0391101,16,32765
1.05213,-0.282085,0.0394596,16,32765
1.05118,-0.285555,0.039678,16,32765
1.05987,-0.291631,0.0402424,16,32765
1.03965,-0.289702,0.0398873,16,32765
1.07718,-0.303896,0.0416255,16,32765
1.06657,-0.304628,0.0416234,16,32765
1.09436,-0.316408,0.0430972,16,32765
1.04536,-0.305933,0.0414667,16,32765
1.0635,-0.315026,0.0426921,16,32765
1.10076,-0.329904,0.0447312,16,32765
1.09012,-0.330535,0.044673,16,32765
1.06038,-0.325236,0.043866,15,32765
1.11657,-0.34639,0.0467021,16,32765
1.12497,-0.352945,0.0476508,16,32765
1.15241,-0.365556,0.049263,16,32765
1.11317,-0.356943,0.0483203,15,32765
1.16904,-0.378947,0.0513367,16,32765
1.17733,-0.385663,0.0526111,16,32765
1.14967,0.0165783,0.0219815,14,32765
1.11972,0.0124568,0.0217432,14,32765
1.11975,0.00873854,0.0220876,15,32765
1.10977,0.00495469,0.0221945,15,32765
1.14977,0.00123853,0.0231018,14,32765
1.12976,-0.00254086,0.0230826,14,32765
1.12974,-0.00625179,0.0232261,15,32765
1.14971,-0.0101776,0.0237298,14,32765
1.10968,-0.0135276,0.0230187,14,32765
1.06964,-0.016658,0.0223109,15,32765
1.07957,-0.0203915,0.0226337,15,32765
1.09948,-0.0244367,0.0232617,15,32765
1.10939,-0.0283451,0.0235703,15,32765
1.11928,-0.0322999,0.0238284,15,32765
1.05921,-0.0341047,0.0227145,15,32765
1.13902,-0.0404658,0.0244991,15,32765
1.06894,-0.0415118,0.0231078,15,32765
1.05881,-0.0446367,0.022976,15,32765
1.08862,-0.0495352,0.0236726,15,32765
1.05848,-0.0517544,0.0230903,15,32765
1.08826,-0.0568615,0.0237492,16,32765
1.06809,-0.0594054,0.0233915,16,32765
1.08785,-0.0641363,0.0238545,16,32765
1.08763,-0.0677859,0.0239442,17,32765
1.08739,-0.0714393,0.0240884,16,32765
1.07717,-0.0743539,0.0238397,16,32765
1.05698,-0.076456,0.0234327,16,32765
1.05672,-0.0800025,0.0234882,16,32765
1.05644,-0.0835287,0.0235044,16,32765
1.04619,-0.0862823,0.0232882,16,32765
1.07577,-0.0923755,0.0239946,16,32765
1.05554,-0.0942002,0.0236015,16,32765
1.06518,-0.0986267,0.0237673,15,32765
1.04494,-0.100289,0.0234204,15,32765
1.03465,-0.102769,0.0231657,15,32765
1.05419,-0.108259,0.0235708,16,32765
1.04388,-0.110712,0.023434,16,32765
1.06338,-0.116403,0.0238608,16,32765
1.06298,-0.119986,0.0238794,16,32765
1.05264,-0.122465,0.0236479,16,32765
1.04229,-0.124823,0.0234999,16,32765
1.03194,-0.127089,0.0233487,16,32765
1.05135,-0.133051,0.0238758,16,32765
1.07073,-0.139075,0.024356,16,32765
1.07026,-0.14265,0.0244047,16,32765
1.04006,-0.142194,0.0237454,16,32765
1.02967,-0.144313,0.0234719,16,32765
1.03907,-0.149242,0.0236396,16,32765
1.02867,-0.151278,0.0235141,16,32765
1.03804,-0.156227,0.0236806,16,32765
1.04739,-0.161241,0.024077,15,32765
1.03696,-0.163223,0.0238131,16,32765
1.04627,-0.168345,0.0239737,16,32765
1.03583,-0.170243,0.023893,15,32765
1.04511,-0.175376,0.0240894,16,32765
1.05437,-0.180572,0.0244695,16,32765
1.04392,-0.182346,0.0242486,16,32765
1.00393,-0.178856,0.0232697,16,32765
1.02299,-0.185792,0.0238994,16,32765
1.02235,-0.189252,0.0240059,16,32765
1.03154,-0.194525,0.0242631,16,32765
1.02107,-0.196051,0.0240491,17,32765
1.02042,-0.199427,0.0241263,16,32765
1.02954,-0.204789,0.0245139,16,32765
1.04845,-0.212171,0.0251132,17,32765
1.02816,-0.211602,0.0247416,17,32765
1.01766,-0.212963,0.0245935,17,32765
1.02673,-0.218427,0.0249301,17,32765
1.01622,-0.219713,0.0248442,17,32765
1.02524,-0.225254,0.0252229,17,32765
1.02447,-0.228739,0.025436,17,32765
1.01394,-0.229958,0.0252924,17,32765
1.02291,-0.235593,0.0256375,17,32765
1.04159,-0.243518,0.0263577,17,32765
1.04077,-0.246957,0.026542,18,32765
1.03025,-0.247964,0.0264576,17,32765
1.03914,-0.253697,0.0269173,17,32765
1.0383,-0.257093,0.0270798,17,32765
1.03745,-0.260502,0.0273054,17,32765
1.05595,-0.268869,0.0280786,17,32765
1.0357,-0.26731,0.0277518,16,32765
1.04447,-0.273271,0.0282797,16,32765
1.0339,-0.274139,0.0283199,16,32765
1.05229,-0.28274,0.0291992,17,32765
1.03205,-0.280967,0.0288784,16,32765
1.06003,-0.292309,0.0298889,16,32765
1.06869,-0.298442,0.0305483,17,32765
1.04848,-0.296444,0.0302522,16,32765
1.06672,-0.305337,0.0311774,16,32765
1.04651,-0.303235,0.0309497,16,32765
1.0551,-0.309459,0.0314963,16,32765
1.04449,-0.310071,0.0316667,16,32765
1.06262,-0.319171,0.0327316,16,32765
1.09027,-0.331306,0.0339476,16,32765
1.07008,-0.328932,0.0337245,17,32765
1.09764,-0.341263,0.0350856,16,32765
1.08699,-0.341777,0.035312,16,32765
1.09541,-0.348242,0.0360032,16,32765
1.10381,-0.354719,0.0369969,15,32765
1.11217,-0.361306,0.0378286,15,32765
1.10153,-0.361627,0.0383078,15,32765
1.20958,0.0171053,0.0270043,15,32765
1.17965,0.0126894,0.0257748,15,32765
1.13971,0.00845285,0.0243968,15,32765
1.16973,0.0047819,0.0245096,15,32765
1.13976,0.0009097,0.0234575,14,32765
1.10977,-0.0027316,0.0224123,14,32765
1.14975,-0.00662095,0.0228831,14,32765
1.07975,-0.00978444,0.0212366,14,32765
1.1297,-0.0141376,0.0219126,14,32765
1.06967,-0.017039,0.0204135,14,32765
1.1096,-0.021391,0.0208319,14,32765
1.09953,-0.0248263,0.0204349,15,32765
1.12943,-0.0291524,0.0208225,14,32765
1.08936,-0.0316865,0.0198112,15,32765
1.05927,-0.0343378,0.0190723,15,32765
1.06915,-0.0382394,0.0190685,15,32765
1.04903,-0.0410578,0.0185463,15,32765
1.05888,-0.0449545,0.0185321,15,32765
1.04874,-0.0480132,0.0181587,16,32765
1.0386,-0.0509774,0.0178715,16,32765
1.06838,-0.055944,0.0182221,16,32765
1.05821,-0.058954,0.0180204,16,32765
1.08795,-0.0641998,0.0183062,16,32765
1.06778,-0.0665673,0.0178606,15,32765
1.05758,-0.0694573,0.0176208,16,32765
1.07729,-0.0743257,0.017907,16,32765
1.06707,-0.0771901,0.0176056,16,32765
1.03689,-0.0784993,0.0171102,15,32765
1.04659,-0.0827699,0.0171863,16,32765
1.04631,-0.0862555,0.0171332,16,32765
1.04602,-0.0897244,0.0171222,15,32765
1.03576,-0.0923283,0.0168831,16,32765
1.03544,-0.0957514,0.0168939,15,32765
1.06498,-0.102058,0.0173568,16,32765
1.06463,-0.105673,0.0174227,16,32765
1.03443,-0.106177,0.0168509,15,32765
1.0639,-0.11281,0.0173391,16,32765
1.02376,-0.112011,0.0166174,16,32765
1.05318,-0.118815,0.0171712,16,32765
1.03292,-0.11999,0.0168518,16,32765
1.06229,-0.127046,0.0174496,16,32765
1.04202,-0.128117,0.0170197,16,32765
1.01181,-0.127882,0.0166811,16,32765
1.0213,-0.132547,0.016951,16,32765
1.03076,-0.137257,0.0172054,16,32765
1.03029,-0.140742,0.0171645,16,32765
1.00011,-0.140068,0.0164257,16,32765
1.01943,-0.146196,0.0167814,16,32765
1.00904,-0.148206,0.016766,16,32765
1.03819,-0.156083,0.0172336,16,32765
1.008,-0.155062,0.0168425,16,32765
1.01735,-0.160025,0.0171299,16,32765
1.00694,-0.161826,0.0171104,16,32765
1.04585,-0.171672,0.0178679,17,32765
1.04527,-0.175163,0.0179919,16,32765
0.995396,-0.170268,0.017174,16,32765
1.01451,-0.177076,0.0178264,17,32765
1.00405,-0.178794,0.0180078,17,32765
1.03296,-0.187518,0.0184346,17,32765
1.03232,-0.190979,0.0185506,17,32765
1.02185,-0.192569,0.0183982,17,32765
1.0212,-0.195956,0.0185929,17,32765
1.04017,-0.203188,0.018968,18,32765
1.02968,-0.204721,0.0188828,18,32765
1.01918,-0.206191,0.0188849,18,32765
0.998894,-0.205579,0.0186563,18,32765
1.02755,-0.215091,0.0192295,18,32765
1.03661,-0.220609,0.0195043,18,32765
1.00654,-0.21773,0.0190166,18,32765
1.02534,-0.225366,0.0194759,19,32765
1.03434,-0.230966,0.0197726,19,32765
1.01407,-0.229954,0.019438,18,32765
1.03279,-0.237824,0.0198307,18,32765
1.01252,-0.236709,0.0195137,18,32765
1.02145,-0.242363,0.0198168,19,32765
1.04981,-0.252744,0.0204207,18,32765
1.02953,-0.25151,0.0200953,18,32765
1.019,-0.252469,0.0198518,18,32765
1.02785,-0.258316,0.0201046,17,32765
1.04637,-0.266615,0.0206088,17,32765
1.01645,-0.262557,0.0200893,17,32765
1.0059,-0.26338,0.0199307,17,32765
1.0437,-0.276863,0.0206692,18,32765
1.0428,-0.280244,0.0207395,18,32765
1.02261,-0.278311,0.0204394,17,32765
1.02171,-0.281601,0.0204067,18,32765
1.02078,-0.284938,0.0204329,17,32765
1.01985,-0.288265,0.0204216,17,32765
1.05733,-0.302672,0.0211621,18,32765
1.05633,-0.306126,0.0212677,17,32765
1.02656,-0.301101,0.0205468,17,32765
1.03516,-0.307269,0.0208059,17,32765
1.04375,-0.313444,0.0209443,17,32765
1.04274,-0.31678,0.0208806,16,32765
1.03218,-0.317134,0.0205951,16,32765
1.05026,-0.326371,0.0209153,17,32765
1.05877,-0.332677,0.0209426,16,32765
1.05771,-0.336023,0.0208173,16,32765
1.14233,-0.366864,0.0223105,14,32765
0,-0,0,0,32765
0,-0,0,0,32765
1.0798,0.0153172,0.0139166,15,32765
1.09985,0.0118705,0.0136521,15,32765
1.07989,0.00803977,0.0129261,15,32765
1.08992,0.00447814,0.0125526,15,32765
1.08993,0.000884298,0.0121474,15,32765
1.06993,-0.00262741,0.0115121,15,32765
1.08992,-0.0062783,0.0114079,15,32765
1.0799,-0.00979574,0.0110496,15,32765
1.09986,-0.0137828,0.0109552,15,32765
1.04982,-0.0167488,0.0101279,15,32765
1.04976,-0.0202715,0.00980175,15,32765
1.05968,-0.0239689,0.00969343,16,32765
1.0596,-0.0274,0.00953415,16,32765
1.05951,-0.0308762,0.00926756,15,32765
1.08939,-0.0353817,0.00933071,16,32765
1.04929,-0.0376024,0.00880805,16,32765
1.03917,-0.040752,0.00856005,15,32765
1.03903,-0.0441997,0.00837285,15,32765
1.04886,-0.0481158,0.00825477,15,32765
1.01874,-0.0501046,0.007907,15,32765
1.05851,-0.0555411,0.00805369,15,32765
1.01839,-0.0568526,0.00771967,15,32765
1.02818,-0.0607983,0.00758355,16,32765
1.04793,-0.0654662,0.00762323,15,32765
1.01777,-0.0669833,0.00733546,15,32765
0.987617,-0.0682822,0.00707735,15,32765
1.01731,-0.0737459,0.00716265,15,32765
1.02702,-0.0779169,0.0072313,15,32765
1.02676,-0.0813739,0.00714467,16,32765
1.01651,-0.0839777,0.00702386,16,32765
1.03615,-0.0890682,0.0071508,16,32765
1.03585,-0.0925347,0.00707493,16,32765
1.02558,-0.095043,0.00701771,16,32765
1.01531,-0.0975074,0.0069265,16,32765
1.01497,-0.100961,0.00698952,16,32765
1.01462,-0.104369,0.00690796,16,32765
1.00432,-0.106724,0.00684236,16,32765
1.04372,-0.114443,0.00703865,16,32765
1.01352,-0.114589,0.00690491,16,32765
1.01313,-0.117948,0.00690963,16,32765
0.99287,-0.119002,0.00687874,17,32765
1.03217,-0.127183,0.00705127,17,32765
1.03173,-0.130685,0.00720209,17,32765
1.01146,-0.131557,0.00716916,17,32765
1.03083,-0.137567,0.00739981,18,32765
1.01055,-0.138348,0.00721758,18,32765
0.990269,-0.138996,0.00683507,17,32765
0.999704,-0.143682,0.00693351,18,32765
1.01899,-0.149998,0.00722005,18,32765
0.998702,-0.150478,0.00705556,18,32765
1.00806,-0.155414,0.00722701,19,32765
1.01741,-0.160389,0.00742041,19,32765
1.01687,-0.163784,0.00756893,19,32765
0.98671,-0.162323,0.00743042,18,32765
1.01574,-0.170592,0.00777405,18,32765
1.01516,-0.174034,0.00780583,19,32765
1.01456,-0.177479,0.00811844,18,32765
1.03363,-0.184471,0.00864133,19,32765
1.00349,-0.182575,0.0082948,18,32765
0.993041,-0.184122,0.00832542,18,32765
1.03172,-0.194864,0.00867996,19,32765
1.03107,-0.198291,0.00887691,18,32765
1.0304,-0.20173,0.00889463,18,32765
1.02972,-0.205188,0.00898877,18,32765
1.02902,-0.208648,0.00917277,18,32765
1.0381,-0.214128,0.00940039,18,32765
1.02759,-0.215582,0.00933654,17,32765
1.0073,-0.214855,0.00924815,17,32765
1.01635,-0.220345,0.00940332,17,32765
1.01561,-0.223729,0.00949289,17,32765
1.02461,-0.229309,0.00969475,17,32765
1.0336,-0.234911,0.00982668,17,32765
1.0328,-0.238367,0.009846,18,32765
1.032,-0.241812,0.00990466,18,32765
1.06038,-0.252171,0.0103053,18,32765
1.05954,-0.255667,0.0103438,18,32765
1.05868,-0.259219,0.0103985,18,32765
1.05782,-0.262685,0.010343,18,32765
1.02784,-0.258906,0.0101226,17,32765
1.02699,-0.262275,0.0102456,17,32765
1.04548,-0.270675,0.0104938,17,32765
1.04458,-0.274134,0.0105282,17,32765
1.05335,-0.280064,0.0105979,18,32765
1.0814,-0.291287,0.010963,18,32765
1.06117,-0.289472,0.0108549,18,32765
1.0506,-0.290232,0.0107231,18,32765
1.07853,-0.301754,0.0110464,18,32765
1.05829,-0.299825,0.010838,18,32765
1.04767,-0.300604,0.0107101,18,32765
1.05629,-0.306825,0.0109145,18,32765
1.05529,-0.310249,0.0107702,18,32765
1.0351,-0.30797,0.010642,18,32765
1.06284,-0.319923,0.010883,18,32765
1.04268,-0.317502,0.0106237,17,32765
1.06078,-0.326685,0.0107227,18,32765
1.05973,-0.330088,0.0106615,18,32765
1.04915,-0.330431,0.0104046,17,32765
1.02904,-0.327685,0.0100941,16,32765
1.13271,-0.364634,0.0109298,12,32765
1.11255,-0.361959,0.0106224,12,32765
1.20643,-0.396618,0.0112534,12,32765
1.04987,0.016447,-0.00236473,14,32765
1.09991,0.0135626,-0.00213486,15,32765
1.07995,0.00970457,-0.0018434,15,32765
1.03998,0.00588233,-0.00148727,15,32765
1.07,0.00240004,-0.0012902,15,32765
1.04,-0.00112536,-0.00104809,14,32765
1.10999,-0.00482583,-0.000992428,15,32765
1.03997,-0.00794972,-0.000736515,15,32765
1.01994,-0.0111844,-0.000471671,15,32765
