x, y, z, intensity, ring
5.97026,3.1286,0.73233,23,32765
6.00737,3.12246,0.733384,24,32765
6.00923,3.09775,0.73012,23,32765
6.02873,3.0821,0.728797,24,32765
6.05712,3.07081,0.728228,24,32765
6.08544,3.05952,0.727557,24,32765
6.11363,3.04828,0.726948,24,32765
6.14169,3.03691,0.727301,24,32765
6.15205,3.01645,0.724896,24,32765
6.14452,2.98718,0.720122,24,32765
6.19062,2.98375,0.722195,25,32765
6.20081,2.96315,0.719591,24,32765
6.21079,2.94282,0.716977,25,32765
6.22958,2.92678,0.716073,25,32765
6.25741,2.91477,0.715921,24,32765
6.30336,2.9108,0.717849,25,32765
6.31327,2.88988,0.715312,24,32765
6.33206,2.87309,0.714504,23,32765
6.35103,2.8558,0.713304,25,32765
6.36992,2.83845,0.712332,20,32765
6.43412,2.84137,0.716708,18,32765
6.68061,2.9241,0.740242,15,32765
6.91849,3.00133,0.763511,14,32765
6.95602,2.99023,0.764496,14,32765
6.9845,2.97471,0.764658,14,32765
7.013,2.95906,0.764399,14,32765
7.02303,2.93555,0.762932,14,32765
7.06957,2.92784,0.764889,14,32765
7.04246,2.88971,0.758836,14,32765
7.06114,2.87063,0.758566,15,32765
7.10762,2.8624,0.760492,16,32765
6.99691,2.7914,0.745807,13,32765
6.99681,2.76501,0.743641,14,32765
6.98745,2.73492,0.739895,14,32765
6.97789,2.70487,0.736926,14,32765
7.00533,2.68949,0.737283,14,32765
7.19102,2.7337,0.754375,14,32765
7.28376,2.74194,0.762206,14,32765
7.29283,2.71814,0.76072,14,32765
7.3392,2.70786,0.763701,14,32765
7.36678,2.69088,0.764253,14,32765
7.35693,2.6601,0.76096,14,32765
7.36551,2.63631,0.760705,14,32765
7.39286,2.61892,0.762426,14,32765
7.40148,2.59484,0.761131,14,32765
7.35347,2.5513,0.754836,15,32765
7.16398,2.45981,0.734037,17,32765
7.13411,2.42424,0.729725,17,32765
7.14179,2.40139,0.730093,16,32765
7.06451,2.35023,0.720791,17,32765
7.05309,2.32152,0.718322,17,32765
7.00342,2.28101,0.71351,17,32765
6.9536,2.24096,0.70797,17,32765
6.93212,2.20977,0.706189,17,32765
6.90128,2.17509,0.702978,17,32765
5.6211,4.12811,0.884764,14,32765
5.63589,4.10916,0.878922,14,32765
5.66662,4.10174,0.876169,13,32765
5.70488,4.10058,0.875175,14,32765
5.70254,4.07071,0.868275,14,32765
5.71641,4.05238,0.862826,13,32765
5.69782,4.01079,0.853701,13,32765
5.72777,4.00354,0.85202,13,32765
5.80653,4.03023,0.857822,13,32765
5.77946,3.98312,0.847084,13,32765
5.79293,3.96418,0.843892,13,32765
5.84756,3.97315,0.845313,13,32765
5.80357,3.91501,0.832952,13,32765
5.87482,3.93448,0.837096,13,32765
5.9132,3.93141,0.837042,13,32765
5.89358,3.88986,0.828718,13,32765
5.94009,3.89208,0.830365,13,32765
5.91996,3.85112,0.821603,13,32765
5.96623,3.8535,0.822919,13,32765
5.94567,3.81292,0.814109,13,32765
6.03374,3.84175,0.821532,13,32765
6.01306,3.80091,0.813534,13,32765
6.01747,3.77605,0.808724,13,32765
6.10605,3.80377,0.815489,13,32765
6.0429,3.73666,0.802021,12,32765
6.14025,3.76858,0.810972,13,32765
6.11916,3.72753,0.803391,13,32765
6.15738,3.72278,0.803233,13,32765
6.17841,3.7077,0.801712,13,32765
6.19102,3.68726,0.798722,13,32765
6.19506,3.6618,0.793729,13,32765
6.18179,3.62625,0.787291,13,32765
6.25431,3.64075,0.791748,13,32765
6.25781,3.61543,0.788261,13,32765
6.27007,3.59479,0.785223,13,32765
6.29945,3.58406,0.784582,13,32765
6.3116,3.56334,0.781319,13,32765
6.35845,3.56186,0.782439,13,32765
6.34428,3.52644,0.777438,12,32765
6.39109,3.52481,0.777988,13,32765
6.35921,3.47997,0.770914,13,32765
6.44947,3.50193,0.777976,13,32765
6.41753,3.45703,0.770154,13,32765
6.27137,3.35146,0.748469,12,32765
6.1246,3.24664,0.727702,11,32765
5.9596,3.13374,0.704105,13,32765
5.96141,3.10924,0.701265,19,32765
5.98097,3.0938,0.699448,20,32765
6.00041,3.0782,0.698728,19,32765
5.98435,3.04456,0.693326,19,32765
6.06582,3.0604,0.699037,20,32765
6.0586,3.031,0.694672,20,32765
6.08661,3.0198,0.694851,20,32765
6.07002,2.98645,0.68991,19,32765
6.10695,2.97942,0.690695,19,32765
6.13494,2.96801,0.689925,20,32765
6.16309,2.95601,0.689364,19,32765
6.15506,2.92709,0.685501,19,32765
6.183,2.91507,0.68541,20,32765
6.20191,2.89876,0.684034,19,32765
6.23876,2.89076,0.685148,18,32765
6.25762,2.87436,0.683112,17,32765
6.31259,2.87425,0.686174,14,32765
6.33135,2.85753,0.684751,17,32765
6.35933,2.84454,0.683702,13,32765
6.78745,3.00902,0.726587,12,32765
6.8798,3.02225,0.732754,13,32765
6.89003,2.99935,0.730627,12,32765
6.9368,2.99229,0.731543,12,32765
6.96528,2.97696,0.731229,12,32765
6.97549,2.95372,0.728133,12,32765
6.96721,2.92268,0.723885,13,32765
6.99566,2.90706,0.722396,12,32765
7.03298,2.89546,0.723278,12,32765
7.06112,2.88001,0.722271,13,32765
7.05232,2.84953,0.717303,14,32765
7.03399,2.81553,0.712686,12,32765
7.03417,2.78884,0.709111,11,32765
6.99717,2.74765,0.701772,12,32765
6.92288,2.69241,0.690116,12,32765
6.89474,2.65547,0.683705,12,32765
7.02454,2.67915,0.693135,12,32765
7.19184,2.71621,0.70573,13,32765
7.26618,2.71727,0.709336,13,32765
7.33143,2.71409,0.711638,13,32765
7.25654,2.65895,0.700153,12,32765
7.31238,2.65205,0.701374,12,32765
7.32117,2.62853,0.698131,12,32765
7.31119,2.59802,0.693476,13,32765
7.3762,2.59445,0.694954,12,32765
7.4412,2.59039,0.697528,13,32765
7.27084,2.50488,0.67744,13,32765
7.18476,2.44977,0.665038,14,32765
7.09821,2.39572,0.653001,15,32765
7.05877,2.35757,0.645451,15,32765
0,0,0,0,32765
7.00824,2.29023,0.632041,17,32765
0,0,0,0,32765
2.7902,0.892683,0.247995,12,32765
2.84052,0.899285,0.250609,14,32765
2.73885,0.85773,0.239609,13,32765
5.62408,4.13757,0.819193,16,32765
5.64688,4.12442,0.8145,16,32765
5.66961,4.11112,0.810395,16,32765
5.69983,4.10415,0.807972,15,32765
5.7298,4.09734,0.805804,16,32765
5.74372,4.07888,0.800325,16,32765
5.76579,4.06573,0.797161,16,32765
5.77149,4.04115,0.79189,15,32765
5.81776,4.04506,0.792465,15,32765
5.83159,4.02604,0.787704,15,32765
5.8452,4.00689,0.784479,15,32765
5.87532,3.99893,0.782107,15,32765
5.85608,3.95726,0.77364,15,32765
5.88622,3.94891,0.771677,15,32765
5.88327,3.91824,0.765945,15,32765
5.93822,3.92605,0.767658,15,32765
5.95161,3.90631,0.764633,15,32765
6.0148,3.9195,0.766854,15,32765
5.99451,3.87837,0.759279,15,32765
6.04093,3.88061,0.759231,15,32765
6.07057,3.87176,0.758431,14,32765
6.03315,3.82007,0.748696,15,32765
6.09655,3.83214,0.751226,15,32765
6.05878,3.78068,0.741608,15,32765
6.13925,3.80262,0.746484,15,32765
6.15213,3.7822,0.744209,14,32765
6.14805,3.75139,0.739034,15,32765
6.16082,3.73107,0.735527,15,32765
6.1563,3.70057,0.73087,14,32765
6.22014,3.71074,0.733936,15,32765
6.24993,3.70034,0.732023,14,32765
6.24535,3.66957,0.726832,15,32765
6.25787,3.64881,0.72364,15,32765
6.28723,3.63837,0.723213,15,32765
6.29955,3.6176,0.720157,15,32765
6.31171,3.5969,0.717346,15,32765
6.33256,3.58099,0.715052,15,32765
6.34477,3.55995,0.711887,15,32765
6.37405,3.54871,0.712025,15,32765
6.36868,3.51811,0.706381,15,32765
6.39785,3.50674,0.706525,14,32765
6.42703,3.49533,0.706003,15,32765
6.43884,3.47404,0.70344,15,32765
6.43306,3.44333,0.698678,15,32765
6.26013,3.32374,0.676691,13,32765
6.13051,3.22871,0.658687,13,32765
5.99146,3.12983,0.640786,16,32765
6.00225,3.10968,0.637919,24,32765
6.01289,3.08943,0.636159,25,32765
6.05895,3.08732,0.637564,25,32765
6.10506,3.08498,0.638773,24,32765
6.10681,3.05984,0.635503,25,32765
6.13493,3.04847,0.635477,23,32765
6.18094,3.0457,0.637246,26,32765
6.24493,3.0514,0.640458,18,32765
6.24627,3.02649,0.636695,19,32765
6.23873,2.99684,0.632257,27,32765
6.31174,3.00615,0.636719,17,32765
6.32195,2.98508,0.634577,24,32765
6.59366,3.0865,0.658265,15,32765
6.45951,2.99753,0.64192,15,32765
6.34299,2.91793,0.626279,25,32765
6.36188,2.90101,0.625281,19,32765
6.36259,2.87589,0.621968,17,32765
6.39972,2.86685,0.621598,22,32765
6.64609,2.9507,0.642549,13,32765
6.89329,3.03263,0.662828,14,32765
6.94009,3.02557,0.66419,14,32765
6.93208,2.99462,0.659487,14,32765
6.96974,2.9832,0.659851,14,32765
6.97995,2.9599,0.65675,14,32765
7.00842,2.94422,0.656125,14,32765
7.00014,2.91312,0.651004,14,32765
7.02829,2.89769,0.650748,14,32765
7.07489,2.88976,0.65125,15,32765
7.0661,2.85917,0.646462,15,32765
7.08477,2.83988,0.645491,16,32765
7.12207,2.82768,0.645345,14,32765
7.0017,2.7533,0.630918,13,32765
6.94592,2.70518,0.621765,14,32765
7.02937,2.71112,0.625649,14,32765
7.01046,2.67752,0.62062,13,32765
7.11259,2.69002,0.625881,13,32765
7.26154,2.71931,0.635392,14,32765
7.30813,2.70921,0.635505,14,32765
7.33608,2.69181,0.633766,14,32765
7.32646,2.66081,0.62885,14,32765
7.37279,2.6507,0.628798,14,32765
7.40042,2.63333,0.627494,15,32765
7.40915,2.6096,0.623612,14,32765
7.41774,2.58573,0.62088,14,32765
7.42629,2.5619,0.617473,14,32765
7.30258,2.49331,0.602815,15,32765
7.16886,2.42283,0.587788,17,32765
2.70428,0.904421,0.220255,14,32765
2.77353,0.917642,0.22443,14,32765
2.6724,0.874487,0.214366,15,32765
2.67528,0.866002,0.212906,15,32765
2.79196,0.894437,0.220372,12,32765
2.75675,0.873926,0.215817,12,32765
2.7691,0.86836,0.21476,12,32765
5.63331,4.13968,0.741513,14,32765
5.6874,4.15013,0.745854,14,32765
5.63677,4.08476,0.735957,13,32765
5.68272,4.08932,0.738753,13,32765
5.68007,4.05905,0.73569,13,32765
5.72619,4.06318,0.738204,13,32765
5.74782,4.05021,0.737075,13,32765
5.72021,4.00334,0.729994,13,32765
5.78248,4.0187,0.734412,13,32765
5.82042,4.01669,0.735562,13,32765
5.80934,3.98039,0.731031,13,32765
5.85576,3.98349,0.7323,13,32765
5.82779,3.93643,0.725468,13,32765
5.84101,3.91722,0.723137,13,32765
5.85392,3.89839,0.720479,13,32765
5.90829,3.90665,0.724279,13,32765
5.95467,3.90909,0.725605,13,32765
5.92631,3.86207,0.717867,13,32765
5.93951,3.84216,0.715577,13,32765
5.98611,3.84382,0.716944,13,32765
5.96542,3.8027,0.710888,12,32765
5.97814,3.78318,0.708182,13,32765
6.02432,3.78508,0.709415,13,32765
6.12121,3.81829,0.716877,13,32765
6.09152,3.77238,0.708962,13,32765
6.13823,3.77282,0.711011,12,32765
6.07456,3.70567,0.700154,13,32765
6.20627,3.75774,0.711117,13,32765
6.12521,3.68064,0.697978,13,32765
6.19744,3.69613,0.702066,13,32765
6.24413,3.69605,0.702977,13,32765
6.23957,3.66518,0.697913,13,32765
6.23454,3.63471,0.694227,14,32765
6.28132,3.63406,0.69485,13,32765
6.2848,3.60846,0.691849,13,32765
6.29712,3.58747,0.689035,12,32765
6.32678,3.57616,0.687679,12,32765
6.34782,3.55973,0.685297,13,32765
6.38608,3.55299,0.68543,13,32765
6.37192,3.51738,0.680268,13,32765
6.37503,3.49163,0.676446,13,32765
6.39559,3.47541,0.673873,13,32765
6.4072,3.45453,0.670958,13,32765
6.41887,3.43334,0.668106,13,32765
6.14017,3.25805,0.635475,12,32765
6.02784,3.17266,0.6204,12,32765
5.97681,3.12038,0.611426,17,32765
6.00513,3.10955,0.610943,20,32765
6.0247,3.09393,0.608777,18,32765
6.09725,3.10555,0.613181,16,32765
6.08128,3.07148,0.608,18,32765
6.11847,3.06447,0.60851,17,32765
6.16461,3.06182,0.609031,19,32765
6.29121,3.09851,0.617642,14,32765
6.56109,3.20483,0.640374,13,32765
6.1866,2.99594,0.600282,18,32765
6.17898,2.96637,0.596039,19,32765
6.32396,3.01004,0.606763,15,32765
6.3071,2.9763,0.601814,17,32765
6.73199,3.15019,0.638954,13,32765
6.38107,2.96025,0.602048,14,32765
6.28239,2.88919,0.589692,21,32765
6.33741,2.88921,0.591444,14,32765
6.36541,2.8762,0.590832,19,32765
6.36592,2.85123,0.587842,13,32765
6.84011,3.0361,0.628606,13,32765
6.887,3.02922,0.628899,12,32765
6.89717,3.00641,0.626937,12,32765
6.94385,2.99944,0.628046,13,32765
6.97211,2.98463,0.627537,12,32765
7.00055,2.96927,0.626609,12,32765
7.01056,2.94606,0.624287,12,32765
7.00182,2.9156,0.621226,12,32765
7.03922,2.90394,0.621338,12,32765
7.04875,2.88108,0.619763,13,32765
7.07693,2.86524,0.618909,13,32765
7.068,2.83448,0.615345,13,32765
7.11444,2.82613,0.616547,12,32765
6.96615,2.74071,0.601074,12,32765
6.95654,2.71084,0.598342,12,32765
6.93763,2.67719,0.594604,12,32765
6.90934,2.64007,0.5894,12,32765
7.1418,2.70207,0.607525,12,32765
7.24406,2.71376,0.613777,12,32765
7.25285,2.69057,0.612074,12,32765
7.3084,2.68415,0.6154,12,32765
7.39219,2.68768,0.619683,13,32765
7.27893,2.61987,0.609201,12,32765
7.40973,2.63928,0.618203,12,32765
7.38061,2.60223,0.614445,13,32765
7.44559,2.59797,0.617963,13,32765
7.40703,2.55726,0.613055,13,32765
0,0,0,0,32765
7.14003,2.41391,0.588754,15,32765
2.79853,0.936324,0.230507,12,32765
2.88673,0.955534,0.237158,12,32765
2.58659,0.846985,0.212312,12,32765
2.63668,0.854134,0.216241,13,32765
2.83871,0.909745,0.232734,12,32765
2.5849,0.819586,0.212007,12,32765
2.53034,0.793576,0.207887,12,32765
5.64269,4.15494,0.676835,16,32765
5.66473,4.14189,0.676862,16,32765
5.71072,4.14662,0.679208,15,32765
5.74076,4.1393,0.679695,16,32765
5.7221,4.09719,0.674895,16,32765
5.75214,4.08964,0.675113,16,32765
5.77387,4.07656,0.673875,16,32765
5.77894,4.05236,0.671034,15,32765
5.79238,4.03344,0.669205,15,32765
5.80582,4.01439,0.667242,15,32765
5.85219,4.01751,0.669564,16,32765
5.83293,3.97561,0.662953,15,32765
5.87914,3.97875,0.664983,15,32765
5.8925,3.95932,0.662627,15,32765
5.90555,3.94028,0.659941,15,32765
5.94349,3.93739,0.66141,15,32765
5.9567,3.91784,0.658661,15,32765
5.97005,3.89792,0.655966,15,32765
5.98338,3.87783,0.653653,15,32765
6.04686,3.89012,0.656441,15,32765
6.05989,3.87014,0.654358,14,32765
6.02236,3.81828,0.64619,15,32765
6.10238,3.84126,0.650619,15,32765
6.11503,3.82151,0.648157,15,32765
6.11071,3.79126,0.643381,14,32765
6.14055,3.7812,0.643268,14,32765
6.17037,3.77103,0.64299,14,32765
6.18311,3.75057,0.64025,14,32765
6.17879,3.71962,0.636052,15,32765
6.20842,3.70942,0.635083,14,32765
6.22089,3.68898,0.632127,15,32765
6.25064,3.67833,0.630723,15,32765
6.28866,3.67287,0.631537,14,32765
6.29247,3.64706,0.627456,14,32765
6.29601,3.62138,0.62454,14,32765
6.32567,3.61018,0.623422,14,32765
6.3554,3.59875,0.62186,14,32765
6.36783,3.5773,0.618521,15,32765
6.36264,3.54623,0.61416,15,32765
6.3746,3.52509,0.611794,15,32765
6.42141,3.52324,0.612225,15,32765
6.43331,3.50207,0.608701,15,32765
6.445,3.48102,0.605765,15,32765
6.47433,3.46908,0.604532,15,32765
6.46844,3.43824,0.600286,15,32765
6.46247,3.40735,0.596151,14,32765
6.19139,3.23802,0.567403,17,32765
6.21127,3.22186,0.565841,24,32765
6.26667,3.22376,0.566678,18,32765
6.56167,3.34785,0.590318,15,32765
6.34193,3.20864,0.566935,15,32765
6.15685,3.08898,0.547268,24,32765
6.21201,3.09064,0.548179,22,32765
6.24935,3.08315,0.547711,23,32765
6.376,3.11972,0.55526,17,32765
6.53028,3.16774,0.565068,15,32765
6.22673,2.99435,0.535375,23,32765
6.29086,2.99934,0.537748,22,32765
6.33705,2.99546,0.538451,19,32765
6.37397,2.98766,0.538466,20,32765
6.45637,3.0002,0.541887,16,32765
6.33967,2.92039,0.529117,19,32765
6.36759,2.9078,0.528117,24,32765
6.38658,2.89055,0.526554,20,32765
6.39622,2.86954,0.524393,23,32765
6.54265,2.90885,0.533604,14,32765
6.91766,3.0477,0.56026,15,32765
6.92789,3.02475,0.558285,14,32765
6.95633,3.00975,0.557539,14,32765
6.9663,2.987,0.555374,15,32765
7.00394,2.97553,0.554984,14,32765
7.05073,2.96773,0.555555,14,32765
7.04206,2.93709,0.552671,14,32765
7.05189,2.91384,0.550327,14,32765
7.1353,2.92112,0.554484,14,32765
7.10815,2.88248,0.549124,14,32765
7.06225,2.83668,0.54289,15,32765
7.09018,2.82096,0.542298,14,32765
7.09028,2.79396,0.539728,12,32765
6.99721,2.73097,0.530816,13,32765
7.01557,2.71151,0.530162,14,32765
7.02464,2.68832,0.52811,14,32765
7.00552,2.65463,0.525084,14,32765
7.21975,2.70884,0.538791,14,32765
7.33139,2.7239,0.544734,14,32765
7.359,2.70688,0.545498,14,32765
7.3679,2.68295,0.543482,14,32765
7.39535,2.66582,0.544586,14,32765
7.40423,2.64131,0.54338,14,32765
7.41273,2.61749,0.542751,13,32765
7.43071,2.59666,0.542261,12,32765
0,0,0,0,32765
2.74683,0.939844,0.199295,15,32765
2.71203,0.918239,0.196537,16,32765
2.78113,0.931867,0.201319,17,32765
2.69891,0.894666,0.194822,16,32765
2.70177,0.885982,0.194858,15,32765
2.74253,0.8897,0.197635,12,32765
0,0,0,0,32765
0,0,0,0,32765
2.45563,0.771228,0.177384,11,32765
5.63992,4.13718,0.704196,14,32765
5.66249,4.12415,0.699456,13,32765
5.66065,4.09375,0.69183,13,32765
5.71488,4.10438,0.692178,13,32765
5.72085,4.0799,0.685446,14,32765
5.73488,4.06089,0.681092,14,32765
5.78952,4.07062,0.680899,13,32765
5.77074,4.02875,0.672736,13,32765
5.78425,4.01013,0.667985,13,32765
5.78148,3.97983,0.661827,13,32765
5.81147,3.97204,0.659273,13,32765
5.80854,3.94159,0.653629,13,32765
5.87976,3.9614,0.655876,13,32765
5.85168,3.9146,0.647081,13,32765
5.9312,3.93962,0.650198,13,32765
5.91109,3.89848,0.642609,13,32765
5.92431,3.87899,0.638795,13,32765
5.93751,3.85943,0.63467,13,32765
5.98402,3.86148,0.634829,13,32765
6.00567,3.84687,0.631767,13,32765
6.01014,3.82193,0.627328,13,32765
6.02294,3.80227,0.624047,13,32765
6.13707,3.84601,0.630406,13,32765
6.13286,3.81569,0.625373,13,32765
6.06939,3.74849,0.613957,13,32765
6.15836,3.77561,0.617927,13,32765
6.13702,3.73453,0.611836,13,32765
6.17527,3.72962,0.611237,13,32765
6.13651,3.67867,0.602584,13,32765
6.14899,3.65832,0.599235,13,32765
6.22136,3.67357,0.601669,13,32765
6.22522,3.6479,0.597546,13,32765
6.28074,3.65211,0.598747,13,32765
6.29304,3.6314,0.595518,13,32765
6.27948,3.59553,0.58988,13,32765
6.33493,3.59938,0.590942,13,32765
6.36443,3.5882,0.589714,13,32765
6.32443,3.53772,0.582277,13,32765
6.33627,3.51693,0.579448,13,32765
6.3831,3.51516,0.579499,13,32765
6.41244,3.50356,0.578497,13,32765
6.43292,3.48721,0.576599,13,32765
6.40095,3.44202,0.569596,13,32765
6.45643,3.44448,0.570641,13,32765
6.46812,3.42294,0.567876,13,32765
6.46196,3.39235,0.563462,12,32765
6.16384,3.20991,0.533278,15,32765
6.20131,3.20306,0.533048,19,32765
6.31845,3.23721,0.540438,14,32765
6.51613,3.31088,0.554097,13,32765
6.26924,3.15887,0.528948,14,32765
6.12847,3.06177,0.514091,20,32765
6.15701,3.04955,0.513352,16,32765
6.18523,3.03776,0.512842,18,32765
6.30319,3.06941,0.519035,15,32765
6.27763,3.03114,0.513409,15,32765
6.19778,2.96744,0.503905,19,32765
6.21683,2.95097,0.502823,17,32765
6.344,2.98581,0.509385,14,32765
6.32704,2.95193,0.504685,16,32765
6.56324,3.03563,0.52089,13,32765
6.32869,2.90161,0.498766,16,32765
6.32951,2.87622,0.495474,18,32765
6.36638,2.86772,0.495373,17,32765
6.36709,2.84224,0.491909,18,32765
6.66862,2.95021,0.511782,13,32765
6.91623,3.03191,0.527462,13,32765
6.96329,3.02433,0.527323,12,32765
6.95518,2.99326,0.523358,13,32765
6.96543,2.96984,0.52057,13,32765
6.9569,2.93937,0.516308,12,32765
6.98503,2.92432,0.51552,12,32765
7.03176,2.91657,0.514669,13,32765
7.06907,2.90499,0.514681,13,32765
7.09735,2.88915,0.512725,12,32765
7.10696,2.86596,0.509748,13,32765
7.09806,2.835,0.505909,13,32765
7.16336,2.83335,0.506695,13,32765
7.08923,2.77696,0.498202,12,32765
6.98692,2.71036,0.48683,13,32765
0,0,0,0,32765
0,0,0,0,32765
0,0,0,0,32765
0,0,0,0,32765
0,0,0,0,32765
2.69964,0.986903,0.179959,14,32765
2.59969,0.940734,0.171868,15,32765
2.54648,0.911985,0.166743,14,32765
2.54005,0.900454,0.165299,14,32765
2.57129,0.902126,0.165879,14,32765
2.68736,0.93327,0.17207,15,32765
2.69984,0.927966,0.171306,15,32765
2.66509,0.906434,0.16752,16,32765
2.76265,0.929808,0.172106,12,32765
0,0,0,0,32765
0,0,0,0,32765
0,0,0,0,32765
2.48949,0.80285,0.149159,12,32765
0,0,0,0,32765
0,0,0,0,32765
2.70686,0.844946,0.156798,11,32765
5.66497,4.1642,0.641269,17,32765
5.6876,4.15104,0.636403,16,32765
5.68582,4.12049,0.628933,15,32765
5.73204,4.12524,0.627903,16,32765
5.78667,4.1354,0.626505,16,32765
5.7765,4.09882,0.619482,15,32765
5.77424,4.06827,0.612729,15,32765
5.82074,4.07204,0.611811,15,32765
5.80164,4.03047,0.603607,15,32765
5.84813,4.03399,0.602689,15,32765
5.86185,4.0147,0.598213,15,32765
5.85905,3.98401,0.592719,15,32765
5.88911,3.97581,0.59013,15,32765
5.88588,3.94552,0.584256,16,32765
5.91572,3.93735,0.5817,15,32765
5.95379,3.93463,0.580162,15,32765
5.98379,3.9259,0.577925,15,32765
5.98043,3.89521,0.572155,16,32765
6.01031,3.8863,0.57032,15,32765
5.99848,3.85002,0.563987,14,32765
6.07021,3.86791,0.565911,15,32765
6.0326,3.81603,0.557917,15,32765
6.11301,3.83863,0.560047,15,32765
6.12568,3.81886,0.556747,15,32765
6.12154,3.78826,0.55152,14,32765
6.18517,3.79961,0.552334,14,32765
6.14687,3.74797,0.545091,15,32765
6.19369,3.74817,0.544951,14,32765
6.22335,3.73813,0.542809,15,32765
6.23603,3.71744,0.539408,14,32765
6.24853,3.6969,0.53598,15,32765
6.24385,3.66603,0.531199,15,32765
6.29082,3.66516,0.531191,15,32765
6.26862,3.6244,0.525059,14,32765
6.29827,3.61335,0.523303,15,32765
6.35379,3.61715,0.523883,14,32765
6.33993,3.58135,0.518901,15,32765
6.3782,3.57473,0.518396,15,32765
6.39016,3.55372,0.515539,14,32765
6.40218,3.53249,0.512388,15,32765
6.39658,3.50163,0.508404,15,32765
6.44336,3.49959,0.508489,15,32765
6.45532,3.47792,0.505384,15,32765
6.46694,3.45669,0.502512,15,32765
6.47866,3.43507,0.499739,15,32765
6.52551,3.43224,0.499559,15,32765
6.48396,3.38305,0.492088,15,32765
6.19415,3.20544,0.466736,17,32765
6.21368,3.18956,0.465681,21,32765
6.2423,3.17773,0.464821,18,32765
6.28883,3.17471,0.464229,17,32765
6.2373,3.12199,0.457501,18,32765
6.17667,3.06502,0.450018,24,32765
6.24076,3.07076,0.451904,20,32765
6.26021,3.05415,0.449853,22,32765
6.43222,3.11156,0.458711,15,32765
6.41559,3.07742,0.454551,16,32765
6.2818,2.98733,0.442514,24,32765
6.3008,2.97095,0.440253,22,32765
6.36514,2.97518,0.441493,14,32765
6.80977,3.15544,0.469703,14,32765
6.66624,3.06197,0.456211,14,32765
6.386,2.90719,0.433744,23,32765
6.39568,2.88617,0.431496,23,32765
6.41466,2.86869,0.42933,21,32765
6.42435,2.84731,0.426776,22,32765
6.71738,2.95007,0.443115,14,32765
6.93808,3.01882,0.454062,14,32765
6.99411,3.01544,0.45446,14,32765
7.00441,2.99184,0.451653,14,32765
6.99594,2.96117,0.447559,14,32765
7.02416,2.94597,0.446567,14,32765
7.01564,2.91509,0.441833,14,32765
7.06218,2.90734,0.442143,14,32765
7.10895,2.89902,0.441146,14,32765
7.10007,2.86827,0.437021,14,32765
7.12824,2.8521,0.435635,15,32765
7.15648,2.83564,0.43359,15,32765
7.14738,2.80469,0.429855,15,32765
7.04511,2.73775,0.419578,13,32765
2.77697,1.06861,0.163972,12,32765
2.43525,0.928058,0.142665,13,32765
2.47572,0.934156,0.143734,15,32765
2.57229,0.961171,0.148292,16,32765
2.50057,0.925019,0.142777,16,32765
2.51301,0.920282,0.142267,16,32765
2.44097,0.884837,0.136876,16,32765
2.47215,0.886903,0.137093,16,32765
2.4468,0.868904,0.13473,16,32765
2.44968,0.86095,0.133531,17,32765
2.42416,0.843323,0.130998,17,32765
2.32302,0.799831,0.124213,17,32765
2.36347,0.805236,0.124999,17,32765
2.29036,0.772184,0.119875,18,32765
2.2455,0.749036,0.11646,16,32765
2.29536,0.757562,0.117547,17,32765
2.28829,0.747251,0.115923,17,32765
2.20517,0.712379,0.110255,17,32765
2.28355,0.729847,0.112736,19,32765
2.24785,0.710496,0.109485,18,32765
2.21195,0.69165,0.10626,17,32765
5.64856,4.1475,0.559318,14,32765
5.67015,4.13502,0.559051,13,32765
5.65961,4.09887,0.555152,13,32765
5.68941,4.09189,0.554942,13,32765
5.7356,4.09605,0.556974,13,32765
5.75746,4.08278,0.555803,13,32765
5.75475,4.05235,0.552187,13,32765
5.73534,4.01089,0.54683,13,32765
5.77318,4.00913,0.5475,13,32765
5.80271,4.0018,0.546835,13,32765
5.85737,4.01057,0.548638,13,32765
5.81315,3.95185,0.541058,13,32765
5.88424,3.97172,0.543627,14,32765
5.83945,3.91357,0.536023,13,32765
5.9023,3.92752,0.538027,13,32765
5.92378,3.91349,0.536483,13,32765
5.92867,3.8883,0.533038,13,32765
5.9417,3.86868,0.530715,13,32765
5.99652,3.87612,0.532057,13,32765
6.001,3.85111,0.528695,13,32765
6.02216,3.83693,0.526468,13,32765
6.02638,3.81194,0.52371,13,32765
6.03898,3.79231,0.521086,13,32765
6.09394,3.79894,0.521479,13,32765
6.06427,3.75249,0.515635,13,32765
6.16189,3.78464,0.51976,13,32765
6.19186,3.77435,0.517803,13,32765
6.18753,3.74339,0.513847,13,32765
6.14056,3.68648,0.505744,13,32765
6.15297,3.666,0.503704,13,32765
6.22554,3.68103,0.505141,13,32765
6.20356,3.64013,0.499376,13,32765
6.28487,3.65953,0.502317,13,32765
6.28,3.62847,0.498646,13,32765
6.26618,3.59282,0.494222,13,32765
6.32174,3.59657,0.494371,13,32765
6.33396,3.57548,0.49097,13,32765
6.36345,3.56417,0.489213,13,32765
6.35807,3.53322,0.485238,13,32765
6.3872,3.52216,0.48391,13,32765
6.39907,3.50093,0.481119,13,32765
6.39339,3.47013,0.476297,13,32765
6.4229,3.45804,0.473792,13,32765
6.45222,3.4459,0.472772,14,32765
6.44615,3.41512,0.469227,13,32765
6.47537,3.40285,0.468092,13,32765
6.40729,3.33969,0.459078,12,32765
6.12604,3.1671,0.43494,15,32765
6.21692,3.18718,0.437979,16,32765
6.36986,3.23911,0.445701,13,32765
6.53221,3.29448,0.453396,13,32765
6.23986,3.12092,0.42911,14,32765
6.16093,3.05595,0.419737,20,32765
6.24305,3.07039,0.421745,15,32765
6.24447,3.04511,0.418965,16,32765
6.70431,3.24118,0.44558,13,32765
6.31019,3.02459,0.416458,14,32765
6.23913,2.96527,0.408416,20,32765
6.29425,2.96591,0.40819,15,32765
6.60257,3.08466,0.425408,12,32765
6.87573,3.18419,0.439762,13,32765
6.54191,3.00258,0.414679,13,32765
6.36109,2.8942,0.400139,19,32765
6.37088,2.87294,0.397608,16,32765
6.38042,2.85204,0.39507,17,32765
6.38991,2.83104,0.392761,17,32765
6.49999,2.85389,0.39685,13,32765
6.87569,2.99184,0.416999,12,32765
6.92244,2.98476,0.416608,12,32765
6.9323,2.96211,0.414232,13,32765
6.99738,2.96251,0.415145,13,32765
0,0,0,0,32765
7.08171,2.94273,0.414909,13,32765
6.93457,2.85472,0.403074,13,32765
0,0,0,0,32765
0,0,0,0,32765
0,0,0,0,32765
2.62724,1.04131,0.149035,12,32765
2.55633,1.00347,0.143989,11,32765
2.49443,0.969846,0.14002,12,32765
2.52561,0.972361,0.141099,13,32765
2.41684,0.921434,0.134018,14,32765
2.44785,0.924198,0.135147,14,32765
2.46025,0.919713,0.134828,15,32765
2.43513,0.901353,0.132985,15,32765
2.40062,0.879544,0.130519,15,32765
2.27211,0.8239,0.122818,15,32765
2.45338,0.880626,0.13232,14,32765
2.3904,0.849192,0.128282,15,32765
2.28006,0.801799,0.121923,15,32765
2.33922,0.814204,0.124543,16,32765
2.23801,0.770744,0.118961,15,32765
2.26886,0.773187,0.12015,15,32765
2.27135,0.765892,0.119922,16,32765
2.31166,0.77137,0.121758,16,32765
2.26667,0.748412,0.119109,16,32765
2.26905,0.741143,0.119227,16,32765
2.29042,0.740049,0.120081,17,32765
2.23568,0.714478,0.117288,16,32765
2.28554,0.722463,0.119791,17,32765
2.23057,0.697415,0.117339,17,32765
5.66399,4.16854,0.49505,16,32765
5.6615,4.13832,0.492579,16,32765
5.69135,4.13141,0.492449,16,32765
5.73746,4.13596,0.493426,15,32765
5.75136,4.11675,0.492292,15,32765
5.76517,4.09761,0.490324,16,32765
5.77882,4.07859,0.488263,15,32765
5.79218,4.05986,0.486005,15,32765
5.82201,4.05221,0.485689,15,32765
5.81886,4.02201,0.482092,15,32765
5.83246,4.00251,0.48003,15,32765
5.87892,4.00554,0.480522,15,32765
5.87582,3.97491,0.476368,15,32765
5.90558,3.96673,0.475417,15,32765
5.94371,3.96389,0.474835,15,32765
5.957,3.94418,0.472515,15,32765
5.94531,3.90785,0.467831,15,32765
5.98348,3.90449,0.467454,15,32765
5.99655,3.88467,0.465057,15,32765
6.02624,3.87579,0.46372,15,32765
6.03907,3.85613,0.460739,15,32765
6.05179,3.83638,0.458703,15,32765
6.09826,3.83788,0.458603,15,32765
6.11104,3.81788,0.455336,15,32765
6.14082,3.80809,0.454341,15,32765
6.17062,3.7982,0.452499,14,32765
6.16656,3.76704,0.44787,15,32765
6.21342,3.76714,0.447796,15,32765
6.19218,3.72545,0.442163,15,32765
6.22187,3.71499,0.441315,15,32765
6.25166,3.70437,0.439037,15,32765
6.26418,3.68353,0.436024,15,32765
6.27666,3.66252,0.433422,15,32765
6.28908,3.64143,0.431121,15,32765
6.30127,3.62058,0.428735,15,32765
6.33958,3.61433,0.427223,15,32765
6.34315,3.58821,0.423227,15,32765
6.38139,3.58173,0.421848,15,32765
6.37606,3.55065,0.418049,15,32765
6.38778,3.52985,0.415384,15,32765
6.4522,3.53737,0.415974,14,32765
6.44663,3.50632,0.411305,15,32765
6.47625,3.49402,0.408576,15,32765
6.5057,3.48168,0.407344,15,32765
6.51739,3.46001,0.405059,15,32765
6.51142,3.42886,0.401525,15,32765
6.54077,3.41629,0.399275,14,32765
6.39273,3.31179,0.386192,14,32765
6.23541,3.20323,0.373377,19,32765
6.26386,3.19173,0.372184,21,32765
6.51519,3.29261,0.383574,15,32765
6.59775,3.30666,0.384325,15,32765
6.2422,3.10257,0.359722,18,32765
6.20802,3.05938,0.35429,26,32765
6.24529,3.05169,0.353645,16,32765
6.63331,3.21335,0.371534,14,32765
6.77021,3.25165,0.37617,14,32765
6.40231,3.04897,0.352391,16,32765
6.30417,2.97658,0.343249,25,32765
6.34119,2.9685,0.342695,18,32765
6.83143,3.17003,0.366071,14,32765
6.84235,3.14677,0.362859,15,32765
6.51656,2.97087,0.342528,16,32765
6.41737,2.89969,0.334241,27,32765
6.40876,2.87042,0.330739,18,32765
6.50961,2.88981,0.333088,19,32765
6.45532,2.8399,0.327745,20,32765
6.50138,2.83457,0.32754,19,32765
6.7035,2.89607,0.334694,15,32765
6.94265,2.97238,0.343756,14,32765
6.98937,2.96495,0.343195,14,32765
6.79668,2.85651,0.331417,14,32765
6.88006,2.86454,0.332926,15,32765
6.88962,2.84176,0.330288,14,32765
2.56172,1.04671,0.122012,16,32765
2.54664,1.03082,0.120417,16,32765
2.55008,1.02237,0.11974,15,32765
2.51631,0.999272,0.117243,15,32765
2.39876,0.943436,0.110836,15,32765
2.44837,0.953771,0.112685,17,32765
2.36765,0.913295,0.10837,17,32765
2.40799,0.91982,0.109245,18,32765
2.39228,0.904943,0.107983,16,32765
2.42333,0.907639,0.108425,17,32765
2.31386,0.858093,0.10311,17,32765
2.35423,0.864184,0.104367,18,32765
2.29138,0.832459,0.100887,17,32765
2.34109,0.841905,0.10282,17,32765
2.27797,0.810772,0.0994613,18,32765
2.24287,0.790201,0.0975232,17,32765
2.28315,0.796171,0.0987673,19,32765
2.26687,0.782134,0.0978914,18,32765
2.20321,0.752205,0.0947276,18,32765
2.19616,0.741907,0.0941001,17,32765
2.20798,0.73813,0.0943493,17,32765
2.18185,0.721728,0.0929851,18,32765
2.20314,0.72093,0.0939071,18,32765
2.20544,0.71389,0.0937679,17,32765
2.1411,0.685492,0.0911262,17,32765
2.26709,0.717923,0.0963982,19,32765
2.1835,0.68392,0.0932832,17,32765
5.63726,4.1341,0.520221,14,32765
5.65931,4.12155,0.515221,13,32765
5.70602,4.12581,0.512504,13,32765
5.6879,4.08335,0.504389,13,32765
5.70973,4.07059,0.50016,13,32765
5.74767,4.0695,0.497073,14,32765
5.72866,4.0278,0.489576,13,32765
5.79129,4.0433,0.488942,13,32765
5.78045,4.00703,0.482348,13,32765
5.7776,3.97663,0.47605,13,32765
5.89805,4.03088,0.480304,13,32765
5.87863,3.9889,0.474133,13,32765
5.89221,3.96938,0.469399,13,32765
5.87248,3.92763,0.462773,13,32765
5.8858,3.90814,0.458473,13,32765
5.95727,3.92724,0.458448,13,32765
5.93694,3.88594,0.452017,13,32765
5.91655,3.84457,0.445724,13,32765
5.97128,3.85232,0.444799,13,32765
5.94231,3.80554,0.437782,13,32765
6.02239,3.82895,0.438653,13,32765
6.04362,3.81453,0.435429,13,32765
6.05628,3.79475,0.432432,13,32765
6.06028,3.76996,0.427664,13,32765
6.08147,3.75512,0.424682,13,32765
6.05157,3.7089,0.417993,13,32765
6.1409,3.73541,0.419609,13,32765
6.14496,3.70987,0.415227,13,32765
6.20876,3.72039,0.415325,13,32765
6.16972,3.6693,0.408569,13,32765
6.19053,3.65413,0.405822,13,32765
6.21141,3.63864,0.403398,13,32765
6.29284,3.658,0.404121,13,32765
6.32248,3.64696,0.402421,13,32765
6.28281,3.59612,0.395844,13,32765
6.36438,3.61475,0.39639,13,32765
6.34158,3.57421,0.3918,13,32765
6.31891,3.53337,0.386274,13,32765
6.36587,3.53148,0.385203,13,32765
6.378,3.50993,0.38165,13,32765
6.40729,3.49834,0.379948,13,32765
6.41885,3.47743,0.376747,13,32765
6.40402,3.44206,0.373074,13,32765
6.45966,3.44435,0.371691,13,32765
6.55073,3.46478,0.373711,13,32765
6.46527,3.39161,0.365112,13,32765
6.52091,3.39312,0.366198,13,32765
6.47019,3.3395,0.358518,13,32765
6.22363,3.18589,0.341481,16,32765
6.23431,3.16515,0.339465,17,32765
6.46811,3.25643,0.348827,14,32765
6.51487,3.25264,0.347711,13,32765
6.23932,3.08911,0.330464,15,32765
6.17809,3.03288,0.323819,20,32765
6.31418,3.07323,0.327585,13,32765
6.67553,3.22125,0.342435,12,32765
6.68636,3.19898,0.339789,13,32765
6.34511,3.00968,0.319949,14,32765
6.31006,2.96723,0.314789,20,32765
6.32902,2.95058,0.312497,14,32765
6.81048,3.14743,0.3334,13,32765
6.8573,3.14149,0.333129,13,32765
6.47664,2.94119,0.311362,14,32765
6.38635,2.87444,0.303654,23,32765
6.44165,2.87353,0.30259,18,32765
6.56995,2.90483,0.306192,19,32765
0,0,0,0,32765
6.52528,2.8331,0.297904,22,32765
6.50743,2.79914,0.293755,16,32765
2.56451,1.09282,0.114463,16,32765
2.49458,1.05309,0.110344,15,32765
2.44281,1.02167,0.106631,14,32765
2.45545,1.0174,0.106103,15,32765
2.42184,0.994156,0.103596,15,32765
2.40665,0.978616,0.101692,15,32765
2.40991,0.97068,0.100598,15,32765
2.40385,0.959037,0.0992828,15,32765
2.36059,0.93269,0.0963664,15,32765
2.29854,0.899452,0.0928193,15,32765
2.32946,0.902754,0.0929678,16,32765
2.24848,0.862891,0.0885894,14,32765
2.21397,0.841324,0.0861491,15,32765
2.17935,0.819943,0.0837978,15,32765
2.25698,0.840729,0.085491,15,32765
2.25974,0.833389,0.0844626,16,32765
2.21551,0.808959,0.0818157,16,32765
2.18055,0.788224,0.0794427,17,32765
2.21137,0.791223,0.0795333,16,32765
2.1198,0.750547,0.0749314,15,32765
2.10345,0.736899,0.0732359,15,32765
2.14362,0.743227,0.0735987,15,32765
2.10817,0.723481,0.071413,15,32765
2.09154,0.710446,0.0695132,17,32765
2.13172,0.716515,0.0697463,17,32765
2.0582,0.684334,0.0661892,15,32765
2.05094,0.674582,0.0648266,16,32765
2.04354,0.665123,0.0635656,17,32765
2.11225,0.680174,0.0645154,18,32765
2.00012,0.637161,0.0596838,16,32765
1.9927,0.627614,0.0578749,17,32765
2.0424,0.636243,0.0582109,17,32765
5.67641,4.17279,0.457979,16,32765
5.70662,4.16596,0.453479,16,32765
5.69688,4.12907,0.445907,15,32765
5.72737,4.12152,0.441917,15,32765
5.75742,4.1144,0.43817,15,32765
5.75478,4.08425,0.431699,15,32765
5.81739,4.09994,0.430603,15,32765
5.79845,4.05794,0.423356,15,32765
5.81223,4.03864,0.418801,15,32765
5.82591,4.01941,0.413823,15,32765
5.87234,4.02282,0.411621,15,32765
5.88591,4.00329,0.408122,15,32765
5.89952,3.98369,0.403375,15,32765
5.913,3.96406,0.399352,15,32765
5.94306,3.95546,0.396124,15,32765
5.96468,3.94138,0.392107,15,32765
5.99448,3.93281,0.389292,15,32765
5.96587,3.88571,0.382792,15,32765
5.97879,3.8662,0.378704,15,32765
6.0171,3.86244,0.376348,15,32765
6.04682,3.85345,0.373293,15,32765
6.09343,3.85493,0.371498,15,32765
6.10622,3.83493,0.368469,15,32765
6.11882,3.8152,0.364258,15,32765
6.18261,3.82641,0.363639,14,32765
6.17847,3.79544,0.358832,15,32765
6.19133,3.77478,0.355121,14,32765
6.20406,3.75418,0.351278,14,32765
6.21662,3.73367,0.3479,15,32765
6.2291,3.71312,0.344543,15,32765
6.24145,3.69263,0.341195,15,32765
6.2883,3.69211,0.340044,14,32765
6.30084,3.67102,0.33628,15,32765
6.29593,3.63993,0.332556,15,32765
6.33422,3.63379,0.330619,15,32765
6.32039,3.59793,0.325461,15,32765
6.37583,3.60166,0.32525,15,32765
6.3881,3.58015,0.321831,15,32765
6.38283,3.54889,0.317736,15,32765
6.4125,3.53688,0.315028,15,32765
6.40682,3.50596,0.311414,15,32765
6.45352,3.50407,0.309893,15,32765
6.44758,3.47324,0.306903,15,32765
6.47687,3.46126,0.303779,15,32765
6.52386,3.45827,0.302893,15,32765
6.51797,3.42689,0.298984,15,32765
6.54716,3.41436,0.298373,15,32765
6.55861,3.39266,0.294113,15,32765
6.47227,3.32052,0.286844,14,32765
6.25186,3.18108,0.274572,19,32765
6.28944,3.17347,0.273054,21,32765
6.56825,3.28653,0.281603,15,32765
6.61508,3.28236,0.281027,14,32765
6.25861,3.07916,0.262542,19,32765
6.24216,3.04485,0.258626,26,32765
6.40547,3.09771,0.261759,16,32765
6.77633,3.24911,0.273777,15,32765
6.75115,3.20926,0.270209,14,32765
6.38229,3.00773,0.252114,17,32765
6.32895,2.95696,0.246867,26,32765
6.36606,2.94844,0.24573,18,32765
6.74827,3.09824,0.258062,14,32765
6.84048,3.11313,0.258233,15,32765
6.47745,2.92175,0.24121,16,32765
6.43253,2.87565,0.235944,23,32765
2.45803,1.08913,0.0892885,14,32765
2.46171,1.08089,0.0880577,15,32765
2.39201,1.04078,0.0846843,16,32765
2.38639,1.0287,0.083297,16,32765
2.42667,1.0363,0.0835043,16,32765
2.39336,1.01252,0.0814344,17,32765
2.29536,0.962047,0.0767947,17,32765
2.36318,0.981261,0.0780567,18,32765
2.29248,0.943057,0.074753,17,32765
2.31414,0.943,0.0742838,18,32765
2.27093,0.916645,0.0717664,17,32765
2.209,0.88317,0.0688612,16,32765
2.23054,0.883175,0.0684938,17,32765
2.20554,0.864889,0.0667811,17,32765
2.21771,0.861266,0.0661296,18,32765
2.18324,0.839624,0.0640153,17,32765
2.22338,0.846685,0.0641342,17,32765
2.17007,0.818174,0.0616227,18,32765
2.18213,0.814562,0.0607423,18,32765
2.11916,0.783192,0.0579519,17,32765
2.11232,0.772904,0.0568414,17,32765
2.09603,0.759268,0.0553869,18,32765
2.0797,0.745678,0.0540082,19,32765
2.08219,0.738781,0.0528111,18,32765
2.07523,0.72854,0.0515555,19,32765
2.0587,0.715286,0.0501725,17,32765
2.09879,0.721776,0.0502072,19,32765
2.02536,0.689413,0.0471775,18,32765
2.03705,0.686132,0.0464174,18,32765
1.98239,0.660513,0.0440835,18,32765
2.03201,0.669763,0.0440893,19,32765
1.99608,0.651042,0.0423257,18,32765
2.01717,0.650921,0.0416586,18,32765
1.98112,0.63244,0.0395401,18,32765
1.99275,0.628954,0.0382046,19,32765
1.99473,0.622704,0.0371796,19,32765
5.65783,4.15542,0.377305,14,32765
5.6795,4.14284,0.376574,14,32765
5.68508,4.11829,0.374802,14,32765
5.72308,4.11697,0.374941,13,32765
5.75327,4.10936,0.373401,13,32765
5.75869,4.08462,0.37182,13,32765
5.7721,4.06587,0.369523,13,32765
5.79378,4.0526,0.367432,13,32765
5.7991,4.02773,0.364422,13,32765
5.81271,4.00828,0.361956,13,32765
5.81775,3.98353,0.358996,13,32765
5.9136,4.02043,0.362098,13,32765
5.86074,3.95623,0.355479,13,32765
5.90703,3.95925,0.354629,13,32765
5.91191,3.93415,0.351938,13,32765
5.92501,3.91464,0.349193,13,32765
5.97135,3.91713,0.348691,13,32765
5.98436,3.89746,0.346047,13,32765
5.92191,3.82881,0.338833,13,32765
6.01895,3.86286,0.340833,13,32765
6.03192,3.84285,0.337692,13,32765
6.04484,3.82273,0.334965,13,32765
6.04914,3.79744,0.331493,13,32765
6.0619,3.77727,0.32883,13,32765
6.11707,3.7833,0.328759,13,32765
6.17223,3.78929,0.327694,13,32765
6.17621,3.7639,0.32429,13,32765
6.23161,3.76914,0.32362,13,32765
6.15001,3.6919,0.315654,13,32765
6.25696,3.72745,0.317249,13,32765
6.25237,3.69629,0.313367,13,32765
6.24755,3.66535,0.309589,13,32765
6.29432,3.66482,0.307738,13,32765
6.27203,3.62382,0.30341,13,32765
6.31879,3.62298,0.30167,13,32765
6.34829,3.61191,0.29901,13,32765
6.36034,3.59088,0.2963,13,32765
6.37249,3.56956,0.292903,13,32765
6.38456,3.54817,0.289734,13,32765
6.37925,3.51678,0.285568,14,32765
6.4525,3.52893,0.285471,13,32765
6.39408,3.4693,0.279572,12,32765
6.44971,3.47167,0.278702,13,32765
6.46114,3.45059,0.275672,13,32765
6.49919,3.44312,0.273816,13,32765
6.51085,3.42129,0.270618,13,32765
6.50472,3.39017,0.266275,13,32765
6.5341,3.37725,0.263282,13,32765
6.35871,3.25963,0.253171,12,32765
6.23611,3.17036,0.244348,17,32765
6.26464,3.15843,0.242901,16,32765
6.63294,3.31609,0.25315,13,32765
6.54581,3.24471,0.245645,13,32765
6.2159,3.05521,0.230615,18,32765
6.19028,3.01686,0.225996,20,32765
6.4434,3.11353,0.232549,13,32765
6.68813,3.2045,0.23774,13,32765
0,0,0,0,32765
0,0,0,0,32765
6.35812,2.96779,0.2167,19,32765
0,0,0,0,32765
0,0,0,0,32765
2.53866,1.15433,0.0826779,13,32765
2.39672,1.08014,0.0771072,14,32765
2.49158,1.11296,0.0791267,14,32765
2.43128,1.07641,0.0761398,14,32765
2.4074,1.0563,0.0743075,15,32765
2.30092,1.00047,0.0700101,14,32765
2.29506,0.988904,0.0689483,15,32765
2.29838,0.981234,0.0681255,15,32765
2.2833,0.965635,0.0669043,15,32765
2.28655,0.957989,0.0659988,16,32765
2.26206,0.938844,0.0643118,16,32765
2.20045,0.90477,0.0618883,15,32765
2.22196,0.905043,0.0617182,15,32765
2.17852,0.879189,0.0597452,16,32765
2.16283,0.864654,0.0586311,15,32765
2.18425,0.86494,0.058425,16,32765
2.20571,0.865061,0.0583315,16,32765
2.14335,0.832418,0.0560919,15,32765
2.09941,0.807489,0.0542485,16,32765
2.20486,0.839662,0.0563869,17,32765
2.0673,0.779503,0.0524,16,32765
2.0886,0.77966,0.0525434,16,32765
2.07243,0.765813,0.0514957,16,32765
2.05616,0.752165,0.0504336,16,32765
2.12441,0.769299,0.0517873,17,32765
2.04219,0.73208,0.049251,17,32765
2.11051,0.748862,0.0505563,16,32765
2.03748,0.715497,0.0484204,17,32765
2.08703,0.725248,0.0490593,17,32765
2.03268,0.698889,0.0476179,17,32765
2.04438,0.695574,0.0477849,18,32765
2.01819,0.679413,0.0467751,17,32765
2.01089,0.669757,0.0462968,17,32765
2.02253,0.666422,0.0463888,18,32765
1.94861,0.635144,0.0446592,17,32765
1.96965,0.6351,0.0448564,16,32765
1.93353,0.616776,0.0442566,17,32765
2.04036,0.643714,0.0466237,17,32765
1.9469,0.607598,0.0449275,16,32765
5.65517,4.16447,0.311663,16,32765
5.66882,4.14597,0.310389,16,32765
5.73102,4.16249,0.311783,15,32765
5.72865,4.13179,0.309434,15,32765
5.71016,4.08924,0.305093,15,32765
5.75626,4.09352,0.305768,15,32765
5.75337,4.0632,0.302606,15,32765
5.79959,4.06717,0.301698,15,32765
5.81316,4.04793,0.299193,16,32765
5.82685,4.02838,0.296713,15,32765
5.87316,4.03179,0.295908,15,32765
5.9031,4.02356,0.294751,15,32765
5.89993,3.99285,0.291329,15,32765
5.91315,3.97346,0.288459,15,32765
5.96796,3.98155,0.288261,15,32765
5.95623,3.94525,0.28429,15,32765
5.97762,3.93116,0.28221,15,32765
5.99068,3.91142,0.279556,15,32765
6.02054,3.90238,0.277425,15,32765
6.01696,3.87128,0.273846,15,32765
6.0468,3.86198,0.271455,15,32765
6.09355,3.86316,0.27021,14,32765
6.10644,3.84297,0.267171,15,32765
6.13631,3.83315,0.265207,15,32765
6.1322,3.80207,0.262091,14,32765
6.1789,3.80278,0.260185,15,32765
6.17439,3.77209,0.256509,14,32765
6.22126,3.77217,0.255015,14,32765
6.23389,3.75147,0.251883,15,32765
6.22947,3.72019,0.247957,14,32765
6.25925,3.70943,0.245618,14,32765
6.25447,3.6784,0.242018,15,32765
6.28401,3.66776,0.239124,15,32765
6.29633,3.64673,0.236468,15,32765
6.30849,3.62588,0.233052,15,32765
6.33799,3.61481,0.230204,15,32765
6.35875,3.59869,0.227804,15,32765
6.37091,3.57732,0.224401,15,32765
6.40047,3.56562,0.221832,15,32765
6.41271,3.54377,0.218434,15,32765
6.42469,3.52219,0.215601,15,32765
6.52432,3.54848,0.215682,14,32765
6.50103,3.5077,0.211702,14,32765
6.51257,3.4864,0.208642,14,32765
6.54191,3.47405,0.206196,15,32765
6.53597,3.4427,0.202423,15,32765
6.60079,3.44846,0.200399,14,32765
6.5771,3.40758,0.195574,14,32765
6.60636,3.39464,0.193395,15,32765
6.37735,3.24987,0.182771,15,32765
6.28123,3.1743,0.177551,20,32765
6.33669,3.17549,0.175375,19,32765
6.61615,3.28734,0.178997,15,32765
6.62723,3.26508,0.176581,14,32765
6.27893,3.0673,0.163683,22,32765
6.26226,3.03313,0.160737,27,32765
6.47061,3.10759,0.162664,15,32765
2.38304,1.13458,0.0584603,12,32765
2.4411,1.1522,0.0589793,15,32765
2.39973,1.12275,0.0569261,14,32765
2.35815,1.09368,0.0547393,16,32765
2.31636,1.06499,0.0525876,15,32765
2.26531,1.03244,0.0504081,15,32765
2.22321,1.00428,0.0486248,16,32765
2.33605,1.04592,0.050159,17,32765
2.26641,1.00575,0.0476967,17,32765
2.2606,0.994195,0.0465884,18,32765
2.22725,0.970685,0.0449543,18,32765
2.25801,0.975192,0.0447374,18,32765
2.2337,0.955828,0.0433905,18,32765
2.16331,0.917001,0.0413197,17,32765
2.19404,0.921354,0.0409766,17,32765
2.16944,0.902476,0.0396063,18,32765
2.17242,0.895302,0.0390262,18,32765
2.16613,0.88433,0.0381857,17,32765
2.14117,0.866097,0.0370193,18,32765
2.13472,0.855371,0.0362598,18,32765
2.10035,0.833617,0.0349456,18,32765
2.1124,0.830355,0.0345331,17,32765
2.07788,0.808832,0.0334223,18,32765
2.05253,0.791255,0.0323612,19,32765
2.06449,0.787997,0.0320259,18,32765
2.07644,0.784726,0.0317647,19,32765
2.02284,0.756822,0.0305845,19,32765
2.02535,0.750107,0.0300198,18,32765
2.00903,0.736583,0.0291582,18,32765
2.03022,0.73685,0.0291826,19,32765
1.99496,0.716759,0.028178,19,32765
2.06323,0.73373,0.02883,19,32765
1.97129,0.693807,0.0271928,19,32765
1.94523,0.677484,0.0263522,18,32765
1.99472,0.687369,0.0268832,19,32765
2.01585,0.687394,0.027083,19,32765
2.01807,0.68088,0.0267359,19,32765
1.97283,0.658538,0.0258534,19,32765
2.02242,0.66786,0.0263474,21,32765
1.94851,0.636514,0.0253694,19,32765
1.96956,0.636469,0.0253774,19,32765
1.95249,0.624194,0.0254008,19,32765
1.93541,0.611941,0.0251225,19,32765
1.96592,0.614875,0.0259799,19,32765
5.64496,4.14243,0.33873,13,32765
5.69954,4.15289,0.335072,14,32765
5.68932,4.11644,0.327828,13,32765
5.67887,4.08015,0.320578,13,32765
5.71684,4.07902,0.316592,14,32765
5.7303,4.06051,0.311172,13,32765
5.78466,4.0705,0.308448,14,32765
5.77364,4.03435,0.302567,13,32765
5.77127,4.00316,0.296777,13,32765
5.8262,4.01192,0.293698,13,32765
5.83976,3.99253,0.288585,13,32765
5.87782,3.99022,0.285455,13,32765
5.89907,3.97693,0.281806,13,32765
5.9454,3.97996,0.278644,13,32765
5.92544,3.93818,0.272738,13,32765
5.89699,3.89094,0.266549,13,32765
5.9436,3.89309,0.26382,13,32765
5.92305,3.85172,0.258038,13,32765
6.03667,3.8972,0.257977,13,32765
5.99067,3.83966,0.251582,13,32765
6.03703,3.84161,0.248832,13,32765
5.96539,3.76818,0.241953,15,32765
5.96939,3.74334,0.237173,16,32765
6.03278,3.7553,0.235323,13,32765
6.0793,3.75637,0.232966,12,32765
6.11731,3.75205,0.230425,13,32765
6.12985,3.73176,0.22635,13,32765
6.19371,3.74232,0.224905,13,32765
6.2149,3.72673,0.221337,13,32765
6.15005,3.6601,0.214996,13,32765
6.17942,3.64994,0.21226,13,32765
6.2089,3.63949,0.209084,13,32765
6.25551,3.63913,0.207021,13,32765
6.32826,3.65336,0.205529,13,32765
6.28863,3.60212,0.200851,13,32765
6.30074,3.58111,0.196993,13,32765
6.3302,3.56984,0.194188,13,32765
6.3945,3.57805,0.191955,13,32765
6.37158,3.53719,0.187955,13,32765
6.37455,3.51134,0.184405,12,32765
6.45662,3.52817,0.183681,13,32765
6.44196,3.49257,0.178941,13,32765
6.49781,3.49447,0.177665,13,32765
6.50949,3.47281,0.174943,13,32765
6.52103,3.45123,0.172128,13,32765
6.48847,3.40597,0.167277,13,32765
6.57988,3.42558,0.164252,13,32765
6.59117,3.40396,0.16107,13,32765
6.60274,3.38159,0.158543,13,32765
0,0,0,0,32765
0,0,0,0,32765
6.49387,3.24282,0.146148,15,32765
0,0,0,0,32765
0,0,0,0,32765
2.49001,1.21243,0.0527709,14,32765
2.48511,1.19966,0.0513612,12,32765
2.3629,1.13082,0.0482438,14,32765
2.2945,1.08845,0.0463646,13,32765
2.31626,1.08926,0.04531,14,32765
2.29273,1.06882,0.043855,13,32765
2.27815,1.05278,0.0423981,14,32765
2.21801,1.01607,0.0405069,16,32765
2.26692,1.02935,0.0402217,15,32765
2.17007,0.976616,0.0375297,14,32765
2.22814,0.993767,0.0377266,15,32765
2.20404,0.974155,0.0364277,15,32765
2.18901,0.958691,0.0350539,16,32765
2.09133,0.90757,0.0325582,15,32765
2.16785,0.932171,0.0327367,15,32765
2.08816,0.889682,0.0306151,15,32765
2.09114,0.8827,0.0297768,16,32765
2.1125,0.883505,0.0290627,15,32765
2.09698,0.868787,0.0277882,16,32765
2.05363,0.842808,0.0262558,16,32765
2.04715,0.832237,0.0253404,16,32765
2.03135,0.818014,0.0241736,16,32765
2.01551,0.803791,0.0230365,17,32765
2.02745,0.800861,0.0220414,16,32765
2.03944,0.797697,0.0212372,16,32765
2.03273,0.787393,0.0203741,17,32765
2.00732,0.769938,0.0192017,17,32765
1.95378,0.741987,0.0177584,17,32765
1.95616,0.735692,0.0167655,16,32765
1.97729,0.736311,0.016093,18,32765
1.92335,0.709237,0.0148696,16,32765
1.95381,0.713313,0.0140856,17,32765
1.8527,0.669521,0.0124801,16,32765
1.87371,0.670192,0.0116731,15,32765
1.89481,0.670591,0.010794,18,32765
1.90644,0.667677,0.010098,17,32765
1.89915,0.658208,0.00888196,17,32765
1.90129,0.652031,0.00807968,17,32765
1.93178,0.655583,0.00718557,18,32765
1.86752,0.627097,0.00593979,18,32765
1.84103,0.611715,0.00482369,18,32765
1.88099,0.618285,0.00392129,17,32765
1.85441,0.603049,0.00272023,19,32765
1.7992,0.578784,0.00158707,18,32765
1.83913,0.585225,0.000462058,18,32765
1.86002,0.585509,-0.000587437,19,32765
1.79499,0.558945,-0.00177894,18,32765
5.658,4.16327,0.274067,16,32765
5.68839,4.15601,0.268775,16,32765
5.71861,4.14884,0.263678,16,32765
5.71636,4.11821,0.257034,16,32765
5.74629,4.11112,0.252366,15,32765
5.75983,4.09247,0.24691,15,32765
5.78976,4.08509,0.242658,15,32765
5.78697,4.05457,0.237381,16,32765
5.80106,4.03467,0.232415,15,32765
5.83139,4.02629,0.227869,15,32765
5.87795,4.02944,0.223999,15,32765
5.89132,4.01011,0.219627,15,32765
5.90434,3.99114,0.215566,15,32765
5.93408,3.98302,0.211426,15,32765
5.9474,3.96334,0.207052,14,32765
5.94405,3.93246,0.202156,15,32765
5.98242,3.92896,0.198734,15,32765
5.99549,3.90921,0.194376,15,32765
6.01693,3.89478,0.190212,16,32765
5.97094,3.83717,0.184477,17,32765
5.95826,3.80154,0.179581,25,32765
5.97099,3.78169,0.176166,30,32765
5.99194,3.76742,0.171953,31,32765
5.99601,3.74227,0.167858,25,32765
6.13595,3.80136,0.167695,15,32765
6.1826,3.80208,0.165061,15,32765
6.16117,3.76069,0.160048,15,32765
6.19089,3.75043,0.157148,15,32765
6.22923,3.74512,0.153904,14,32765
6.25032,3.72951,0.150457,14,32765
6.27992,3.71899,0.147472,15,32765
6.29237,3.69804,0.143646,15,32765
6.30461,3.67725,0.140389,15,32765
6.32553,3.66128,0.137082,15,32765
6.35531,3.64977,0.134426,15,32765
6.3502,3.61858,0.130163,14,32765
6.35366,3.59235,0.126617,15,32765
6.39184,3.58581,0.123296,15,32765
6.38644,3.55459,0.119993,15,32765
6.43323,3.55279,0.11732,15,32765
6.42771,3.52141,0.114255,14,32765
6.4921,3.5288,0.111161,15,32765
6.48645,3.49731,0.108361,15,32765
6.49813,3.47563,0.105637,15,32765
6.52735,3.46341,0.103099,15,32765
6.57448,3.45994,0.0999162,15,32765
6.55078,3.41914,0.0943146,15,32765
6.5798,3.40676,0.0913867,14,32765
6.60917,3.39351,0.0890974,15,32765
2.39699,1.22048,0.0309339,13,32765
2.37438,1.19877,0.0295678,14,32765
2.38738,1.1952,0.0287101,15,32765
2.32866,1.15611,0.0270924,15,32765
2.31459,1.13947,0.0258749,16,32765
2.30941,1.12734,0.0248541,16,32765
2.27723,1.10208,0.0233478,16,32765
2.2449,1.07705,0.0224899,18,32765
2.18537,1.03928,0.0214688,17,32765
2.17077,1.02341,0.0199588,18,32765
