x, y, z, intensity, ring
6.01367,2.38135,0.160855,44,32765
6.10526,2.39443,0.161458,46,32765
6.08524,2.36334,0.159252,41,32765
6.12094,2.35428,0.158165,44,32765
6.13809,2.33753,0.156975,45,32765
6.15513,2.32087,0.156014,47,32765
6.19089,2.31101,0.155745,45,32765
6.19854,2.29051,0.154021,45,32765
6.1591,2.25306,0.151071,44,32765
6.19462,2.24322,0.151008,45,32765
6.23009,2.23335,0.15025,46,32765
6.22789,2.20981,0.149186,46,32765
6.25393,2.19618,0.148624,45,32765
6.25166,2.17246,0.146956,46,32765
6.26822,2.15518,0.14684,47,32765
6.30351,2.14468,0.147337,43,32765
6.29146,2.11798,0.145815,49,32765
6.32672,2.10721,0.14566,48,32765
6.30498,2.07748,0.144611,45,32765
6.34013,2.06654,0.145306,48,32765
6.36569,2.05257,0.144971,48,32765
6.40064,2.04174,0.146505,45,32765
6.3785,2.01236,0.145753,48,32765
6.38468,1.99256,0.147336,48,32765
5.01162,3.69057,0.276196,48,32765
4.99953,3.65647,0.273743,47,32765
5.01969,3.64585,0.273085,47,32765
5.03992,3.63504,0.272232,47,32765
5.06848,3.62971,0.270808,44,32765
5.07234,3.60716,0.269439,42,32765
5.05154,3.56755,0.265692,43,32765
5.12065,3.59104,0.26638,44,32765
5.14904,3.58547,0.265012,47,32765
5.15295,3.56247,0.262396,48,32765
5.15652,3.53984,0.259801,47,32765
5.18482,3.53398,0.258886,47,32765
5.17175,3.50005,0.255372,46,32765
5.18334,3.48304,0.252857,45,32765
5.21989,3.48247,0.252128,47,32765
5.23982,3.47071,0.250095,47,32765
5.23459,3.44251,0.247131,45,32765
5.24603,3.42523,0.244807,45,32765
5.25749,3.40779,0.242264,46,32765
5.26904,3.39007,0.239806,46,32765
5.30569,3.38865,0.238184,48,32765
5.31709,3.37091,0.235779,48,32765
5.31988,3.34796,0.232757,46,32765
5.36503,3.35136,0.231873,49,32765
5.34232,3.31233,0.228331,45,32765
5.36185,3.29993,0.22578,47,32765
5.3898,3.29277,0.223914,48,32765
5.40088,3.27474,0.221387,48,32765
5.41184,3.25677,0.218668,48,32765
5.40574,3.22826,0.215169,48,32765
5.44245,3.22537,0.213566,49,32765
5.44466,3.20213,0.210682,48,32765
5.42945,3.16899,0.206606,46,32765
5.4228,3.1408,0.203662,45,32765
5.4766,3.14774,0.20232,48,32765
5.5045,3.13944,0.199931,47,32765
5.50627,3.11624,0.197264,49,32765
5.53424,3.10752,0.194931,48,32765
5.52729,3.07917,0.191568,45,32765
5.5466,3.06514,0.188932,47,32765
5.55696,3.04648,0.186481,48,32765
5.5584,3.02313,0.18375,47,32765
5.57733,3.00931,0.181623,47,32765
5.6313,3.01463,0.180409,48,32765
5.65023,3.00053,0.178091,49,32765
5.64269,2.97218,0.174757,49,32765
5.66162,2.9578,0.171886,50,32765
5.66287,2.93392,0.168389,49,32765
5.70832,2.93319,0.167106,51,32765
5.69152,2.90037,0.163116,53,32765
5.68344,2.8722,0.160653,51,32765
5.71106,2.86197,0.15806,50,32765
5.75668,2.8603,0.155744,48,32765
5.75735,2.83651,0.153403,49,32765
5.74895,2.8084,0.149867,49,32765
5.77639,2.7978,0.148266,50,32765
5.80373,2.7873,0.145899,37,32765
5.72292,2.72472,0.140393,24,32765
5.71398,2.697,0.138055,24,32765
5.80462,2.71578,0.137697,36,32765
5.86816,2.72158,0.136217,51,32765
5.88628,2.70633,0.133634,51,32765
5.90436,2.69099,0.131385,50,32765
5.92248,2.67533,0.129533,49,32765
5.93138,2.65565,0.127357,49,32765
5.95845,2.64414,0.125396,48,32765
5.94894,2.6163,0.122601,49,32765
5.96683,2.60048,0.120433,50,32765
5.97546,2.58069,0.11839,51,32765
6.01168,2.57248,0.116779,51,32765
6.01123,2.54809,0.114816,50,32765
6.01979,2.52792,0.112428,50,32765
6.07443,2.52693,0.110898,51,32765
6.09202,2.51066,0.10944,52,32765
6.08182,2.48293,0.107214,50,32765
6.08982,2.46332,0.105289,50,32765
6.09787,2.44338,0.103577,50,32765
6.13376,2.43446,0.102054,53,32765
6.15107,2.41791,0.100557,54,32765
6.15909,2.39748,0.0990679,51,32765
6.14825,2.37017,0.0969366,50,32765
6.21216,2.37112,0.0963674,54,32765
6.18255,2.3365,0.0945785,50,32765
6.21836,2.32653,0.0940189,53,32765
6.24483,2.31283,0.0925611,52,32765
6.27117,2.29924,0.0910173,53,32765
6.25985,2.27195,0.0899795,51,32765
6.24836,2.24494,0.0882555,49,32765
6.29332,2.23804,0.0879382,53,32765
6.31002,2.22084,0.0870431,52,32765
6.29839,2.1936,0.0853247,53,32765
6.34339,2.1859,0.085491,52,32765
6.34094,2.16223,0.0851908,51,32765
6.35738,2.14493,0.0842244,53,32765
6.40221,2.13708,0.0838993,53,32765
6.39957,2.11332,0.0833715,51,32765
6.37782,2.08342,0.0830384,53,32765
6.40345,2.06929,0.0825073,53,32765
6.42895,2.05527,0.0836369,53,32765
6.46407,2.04382,0.0839067,54,32765
6.47991,2.0267,0.0856329,52,32765
4.96853,3.64605,0.298141,41,32765
4.99719,3.64113,0.293781,43,32765
5.04189,3.64799,0.290522,43,32765
4.98118,3.57888,0.281192,39,32765
5.05001,3.60323,0.279664,34,32765
4.98854,3.5349,0.270892,33,32765
5.04932,3.55306,0.269238,34,32765
5.07753,3.54794,0.266087,46,32765
5.08988,3.53053,0.261738,39,32765
5.10204,3.51326,0.257193,37,32765
5.09742,3.48501,0.251901,42,32765
5.15033,3.49635,0.250124,40,32765
5.17826,3.49098,0.247372,38,32765
5.18147,3.46857,0.242841,39,32765
5.17643,3.44037,0.238263,42,32765
5.18801,3.42315,0.234503,42,32765
5.19124,3.40029,0.230425,38,32765
5.21932,3.39409,0.22738,41,32765
5.25585,3.39311,0.224608,41,32765
5.24184,3.3597,0.220134,41,32765
5.29505,3.36946,0.218249,44,32765
5.28943,3.34119,0.214536,42,32765
5.30895,3.32919,0.210933,40,32765
5.31156,3.30635,0.20719,42,32765
5.29707,3.27303,0.20299,44,32765
5.33347,3.27128,0.2009,42,32765
5.33588,3.2484,0.197031,41,32765
5.2869,3.19441,0.191977,41,32765
5.38339,3.22812,0.191724,42,32765
5.39417,3.21025,0.188572,40,32765
5.39624,3.18734,0.185358,41,32765
5.43279,3.18455,0.182948,43,32765
5.40013,3.14152,0.178713,40,32765
5.43659,3.13859,0.17657,42,32765
5.48195,3.14006,0.175087,44,32765
5.46644,3.10692,0.170908,43,32765
5.44206,3.06898,0.166943,41,32765
5.48723,3.07039,0.16472,44,32765
5.52379,3.06653,0.162946,42,32765
5.51644,3.03866,0.159581,43,32765
5.55304,3.03441,0.157975,47,32765
5.5719,3.02086,0.154773,48,32765
5.57332,2.99729,0.152387,46,32765
5.58334,2.97871,0.150053,48,32765
5.61091,2.96955,0.148105,49,32765
5.61213,2.94596,0.144684,47,32765
5.64876,2.94083,0.141009,46,32765
5.65846,2.92227,0.138277,49,32765
5.65059,2.89395,0.135681,45,32765
5.66933,2.87934,0.13277,44,32765
5.67023,2.85553,0.130129,46,32765
5.6799,2.83635,0.127829,46,32765
5.68935,2.81745,0.125722,46,32765
5.74366,2.82045,0.124213,48,32765
5.74409,2.7969,0.121735,46,32765
5.72656,2.76444,0.118354,48,32765
5.69081,2.72346,0.11619,27,32765
5.77238,2.73827,0.116642,22,32765
5.69112,2.67635,0.111328,20,32765
5.85416,2.72909,0.111978,42,32765
5.79974,2.68019,0.107938,43,32765
5.84499,2.6776,0.106746,43,32765
5.81751,2.64159,0.10322,46,32765
5.88108,2.64671,0.101709,43,32765
5.88083,2.62289,0.0995735,45,32765
5.89878,2.60718,0.0974932,42,32765
5.88011,2.57523,0.0941615,41,32765
5.92543,2.57145,0.0922481,43,32765
5.95241,2.55952,0.0898871,47,32765
5.95173,2.53579,0.0872597,44,32765
5.93257,2.50422,0.084477,45,32765
5.99619,2.50777,0.0824925,46,32765
5.99534,2.48389,0.0794474,45,32765
5.99437,2.46009,0.0766385,43,32765
6.04883,2.45905,0.0748746,44,32765
6.06621,2.44284,0.0721896,47,32765
6.01867,2.40026,0.0687912,44,32765
6.08234,2.40258,0.0661242,43,32765
6.09039,2.38216,0.0634208,47,32765
6.13549,2.37663,0.0614962,43,32765
6.13399,2.35279,0.0586769,49,32765
6.14177,2.33247,0.0558243,45,32765
6.168,2.31972,0.0528635,44,32765
6.20364,2.31013,0.0504907,45,32765
6.16409,2.27302,0.0476551,45,32765
6.19021,2.25997,0.0446269,45,32765
6.17879,2.23287,0.0416215,44,32765
6.22375,2.22612,0.0387734,44,32765
6.21233,2.1986,0.0353892,44,32765
6.22896,2.18152,0.0329934,43,32765
6.23603,2.16128,0.0291647,47,32765
6.28087,2.15397,0.0266911,45,32765
6.25933,2.12422,0.0232826,47,32765
6.37041,2.13913,0.0202616,50,32765
6.35819,2.11263,0.0166591,46,32765
6.31745,2.07656,0.01317,48,32765
6.33351,2.05964,0.00929062,47,32765
6.38762,2.05484,0.00563451,50,32765
6.31785,2.01039,0.00158728,44,32765
6.39084,2.01175,-0.00201837,47,32765
6.38748,1.98901,-0.00633039,48,32765
5.04632,3.71319,0.244438,48,32765
5.0187,3.66672,0.237132,47,32765
5.00682,3.63244,0.230858,46,32765
5.03526,3.62753,0.226408,47,32765
5.07169,3.62849,0.222739,44,32765
5.0592,3.59466,0.216876,40,32765
5.07931,3.58381,0.212882,41,32765
5.09941,3.57284,0.209177,43,32765
5.12003,3.56101,0.20513,44,32765
5.09939,3.52088,0.199265,44,32765
5.15248,3.53212,0.196353,45,32765
5.18073,3.52643,0.193137,46,32765
5.19217,3.50974,0.189565,46,32765
5.18714,3.48166,0.184813,45,32765
5.19878,3.46446,0.180989,46,32765
5.23543,3.46366,0.178056,46,32765
5.26386,3.45705,0.174864,47,32765
5.25024,3.42329,0.170215,46,32765
5.27006,3.41132,0.166602,46,32765
5.28975,3.39941,0.163431,46,32765
5.29249,3.37676,0.159515,46,32765
5.33757,3.38052,0.157478,47,32765
5.33181,3.35236,0.153009,48,32765
5.34298,3.33469,0.149576,47,32765
5.36259,3.32224,0.146559,49,32765
5.39062,3.31503,0.143917,49,32765
5.38462,3.28669,0.139876,49,32765
5.39565,3.26868,0.136962,46,32765
5.41523,3.25573,0.133793,45,32765
5.44328,3.24795,0.13103,48,32765
5.43686,3.21973,0.127674,48,32765
5.4735,3.21678,0.124952,49,32765
5.47551,3.19366,0.121927,51,32765
5.49482,3.18046,0.119079,49,32765
5.47094,3.14189,0.11572,49,32765
5.51625,3.14336,0.113069,51,32765
5.51811,3.11993,0.109966,50,32765
5.54599,3.11129,0.10698,50,32765
5.54773,3.08778,0.104234,49,32765
5.55796,3.06942,0.101358,49,32765
5.57712,3.05541,0.0991354,50,32765
5.58724,3.03696,0.0956677,50,32765
5.61513,3.02752,0.0938051,51,32765
5.61643,3.00404,0.0913032,50,32765
5.63525,2.99006,0.089008,51,32765
5.63653,2.96633,0.0856616,50,32765
5.65547,2.95185,0.0814246,50,32765
5.69184,2.94701,0.0790538,50,32765
5.71964,2.93678,0.0771058,51,32765
5.70288,2.90375,0.0735974,49,32765
5.73956,2.89779,0.071474,48,32765
5.75832,2.88281,0.0692484,49,32765
5.74105,2.85025,0.0667933,50,32765
5.78649,2.84867,0.0646873,50,32765
5.78701,2.82492,0.0622802,49,32765
5.81458,2.81401,0.0596153,50,32765
5.83312,2.7986,0.0584376,50,32765
5.79754,2.75711,0.0569545,30,32765
5.75254,2.71203,0.0528908,22,32765
5.75258,2.68846,0.050484,26,32765
5.86136,2.71545,0.0484966,46,32765
5.93398,2.72517,0.0471205,53,32765
5.91576,2.69292,0.0439884,52,32765
5.9339,2.67715,0.0415483,50,32765
5.93376,2.6531,0.039484,48,32765
5.95181,2.63717,0.0372846,50,32765
5.92409,2.60094,0.0341506,49,32765
5.99699,2.60897,0.0319847,51,32765
6.00571,2.58886,0.0293093,51,32765
6.02352,2.57275,0.0268304,53,32765
6.0229,2.54866,0.0243702,52,32765
6.04054,2.53258,0.0216105,52,32765
6.03053,2.50466,0.0186044,50,32765
6.10361,2.51112,0.0160635,52,32765
6.08413,2.47953,0.0136167,50,32765
6.0923,2.45941,0.0108002,50,32765
6.14696,2.45748,0.00808317,54,32765
6.1364,2.42993,0.00472083,52,32765
6.14454,2.40928,0.00198872,52,32765
6.16175,2.39269,-0.000335162,51,32765
6.18829,2.37948,-0.00309075,54,32765
6.21485,2.36604,-0.00599112,52,32765
6.22245,2.34597,-0.00915388,54,32765
6.23942,2.32919,-0.0118005,53,32765
6.25621,2.31268,-0.0143135,53,32765
6.25426,2.28899,-0.0175024,52,32765
6.27114,2.27184,-0.0204458,53,32765
6.27855,2.25126,-0.0235789,52,32765
6.3049,2.23688,-0.0269695,52,32765
6.29334,2.20951,-0.0293678,53,32765
6.33826,2.20214,-0.0334395,53,32765
6.34539,2.18148,-0.0361212,52,32765
6.37127,2.16755,-0.0395795,55,32765
6.40662,2.15662,-0.0431878,54,32765
6.38495,2.12677,-0.046557,53,32765
6.39174,2.10619,-0.0499653,52,32765
6.43639,2.0983,-0.0542285,53,32765
6.42397,2.07167,-0.0578192,53,32765
6.44951,2.05739,-0.0620572,53,32765
6.45585,2.03728,-0.0657201,52,32765
6.48118,2.02323,-0.0702961,53,32765
5.00903,3.68357,0.171311,42,32765
5.02123,3.66699,0.170041,43,32765
4.97677,3.60923,0.166458,41,32765
5.04549,3.63367,0.166907,42,32765
5.06595,3.62239,0.165376,41,32765
5.05348,3.58829,0.162727,37,32765
5.04881,3.56038,0.159962,30,32765
5.07687,3.55532,0.15859,30,32765
5.05578,3.51573,0.155987,33,32765
5.1253,3.53841,0.154665,40,32765
5.13717,3.52124,0.152466,40,32765
5.15723,3.50968,0.150855,39,32765
5.18556,3.50362,0.148994,41,32765
5.18058,3.47532,0.145955,42,32765
5.15069,3.43019,0.142345,43,32765
5.18698,3.42985,0.140479,43,32765
5.22322,3.42944,0.13947,41,32765
5.25953,3.42882,0.137731,42,32765
5.23721,3.38988,0.133947,41,32765
5.23175,3.36154,0.131484,39,32765
5.25977,3.35497,0.128618,40,32765
5.29643,3.35329,0.127477,41,32765
5.30787,3.33525,0.124447,41,32765
5.32761,3.32268,0.121545,43,32765
5.33891,3.3046,0.11854,46,32765
5.36691,3.29739,0.116488,45,32765
5.36077,3.2692,0.113521,40,32765
5.36305,3.24629,0.110474,41,32765
5.39956,3.24393,0.108213,43,32765
5.39335,3.21545,0.105292,43,32765
5.42986,3.21279,0.103211,51,32765
5.41482,3.17934,0.0997273,45,32765
5.42549,3.16118,0.0971806,42,32765
5.48798,3.17311,0.0948172,48,32765
5.4554,3.1296,0.0913855,47,32765
5.49212,3.12587,0.0893243,44,32765
5.50229,3.10803,0.0860338,46,32765
5.51273,3.08954,0.0829851,46,32765
5.51417,3.0665,0.08102,45,32765
5.52451,3.04794,0.0774093,44,32765
5.5261,3.02436,0.0740768,42,32765
5.57145,3.02481,0.0715241,45,32765
5.59931,3.01539,0.068861,45,32765
5.58283,2.98271,0.0662185,45,32765
5.58384,2.95961,0.0621735,42,32765
5.58482,2.93638,0.0601355,43,32765
5.62123,2.93158,0.0568547,44,32765
5.6311,2.91267,0.0521495,42,32765
5.65863,2.90293,0.0501498,41,32765
5.69511,2.89751,0.0475976,46,32765
5.68688,2.86956,0.0437243,43,32765
5.71431,2.85955,0.0417164,45,32765
5.72399,2.84018,0.0386578,43,32765
5.71564,2.81195,0.0358241,46,32765
5.74319,2.80121,0.03307,43,32765
5.73475,2.77282,0.030727,43,32765
5.75298,2.75806,0.0275205,44,32765
5.75341,2.73395,0.0265627,25,32765
0,0,0,0,32765
5.73537,2.67843,0.0208885,19,32765
5.78978,2.68001,0.0186946,38,32765
5.87134,2.6942,0.0161477,47,32765
5.82589,2.6493,0.013313,44,32765
5.88931,2.65471,0.0106061,48,32765
5.91648,2.64304,0.00786617,48,32765
5.94348,2.63155,0.00538612,46,32765
5.93381,2.6039,0.0030377,47,32765
5.9333,2.58009,0.000758932,46,32765
5.94182,2.5604,-0.00112363,45,32765
5.97814,2.55183,-0.00407918,46,32765
5.93141,2.50837,-0.00619647,42,32765
5.96733,2.50035,-0.00815087,45,32765
6.00339,2.49182,-0.0106614,46,32765
6.07635,2.49854,-0.0129167,47,32765
6.04758,2.46322,-0.014762,45,32765
6.00923,2.42472,-0.0165512,43,32765
6.11929,2.44582,-0.018672,48,32765
6.08081,2.40726,-0.0201345,43,32765
6.11659,2.39829,-0.0219519,47,32765
6.0965,2.36721,-0.0245099,46,32765
6.16023,2.36872,-0.0265076,48,32765
6.14921,2.34155,-0.0275913,44,32765
6.16621,2.32489,-0.0292219,46,32765
6.19248,2.31177,-0.0309498,46,32765
6.19075,2.28769,-0.0332196,47,32765
6.21704,2.27412,-0.0340639,46,32765
6.19626,2.24348,-0.034753,45,32765
6.2036,2.2231,-0.0365838,44,32765
6.22029,2.20602,-0.0377958,43,32765
6.26521,2.19892,-0.0390103,45,32765
6.30058,2.18861,-0.0404265,50,32765
6.30752,2.1685,-0.0415265,44,32765
6.2671,2.13216,-0.0413527,43,32765
6.33077,2.13118,-0.0425841,46,32765
6.3377,2.11048,-0.0435401,49,32765
6.35397,2.09312,-0.0442808,47,32765
6.38924,2.08186,-0.0441114,46,32765
6.40539,2.06442,-0.0447384,47,32765
6.41189,2.04417,-0.0442974,48,32765
6.41841,2.02358,-0.0446801,48,32765
6.38652,1.99163,-0.0432138,43,32765
5.04511,3.72111,0.114225,46,32765
5.04132,3.69255,0.112577,45,32765
5.06169,3.68165,0.11105,46,32765
5.0901,3.67658,0.109938,47,32765
5.09446,3.65345,0.107945,46,32765
5.10656,3.63658,0.106065,46,32765
5.11023,3.6142,0.10362,40,32765
5.10573,3.58592,0.10138,37,32765
5.12579,3.57475,0.099933,38,32765
5.12147,3.546,0.0965126,38,32765
5.17458,3.55711,0.0950637,45,32765
5.19476,3.54539,0.0933373,48,32765
5.23149,3.5448,0.0914088,48,32765
5.21836,3.51069,0.0883857,46,32765
5.23851,3.49865,0.0860358,47,32765
5.25002,3.48143,0.083441,48,32765
5.26136,3.46431,0.0817346,47,32765
5.27266,3.44714,0.0793121,47,32765
5.30075,3.44073,0.0766144,48,32765
5.29548,3.4121,0.0743058,48,32765
5.28996,3.38375,0.0707544,47,32765
5.34358,3.39267,0.0695343,51,32765
5.3467,3.36909,0.0663645,48,32765
5.35807,3.35104,0.063239,50,32765
5.36946,3.33281,0.0602092,50,32765
5.36349,3.30449,0.057583,48,32765
5.40857,3.30755,0.0553209,48,32765
5.41953,3.28962,0.052417,50,32765
5.4219,3.26641,0.0495261,49,32765
5.45011,3.25831,0.0470706,49,32765
5.44376,3.22993,0.0443244,51,32765
5.48048,3.22679,0.0414976,49,32765
5.48267,3.20332,0.0388516,49,32765
5.47607,3.17495,0.0354373,49,32765
5.50419,3.16628,0.0328342,48,32765
5.52365,3.15245,0.0303673,51,32765
5.54259,3.1394,0.0270936,48,32765
5.55314,3.12073,0.0240156,50,32765
5.54596,3.09262,0.022089,49,32765
5.58262,3.08843,0.0185378,51,32765
5.58435,3.06459,0.0152581,48,32765
5.61224,3.05527,0.012254,50,32765
5.6314,3.04093,0.00936097,49,32765
5.63264,3.01751,0.00700144,48,32765
5.62493,2.9895,0.00300356,48,32765
5.67024,2.98939,0.00104651,50,32765
5.69794,2.97966,-0.00257213,50,32765
5.69907,2.95583,-0.00733673,49,32765
5.69117,2.92754,-0.00949705,49,32765
5.70099,2.90835,-0.0122952,49,32765
5.71064,2.88935,-0.0160413,50,32765
5.73813,2.87923,-0.0182519,49,32765
5.78367,2.87754,-0.0214625,49,32765
5.75753,2.8402,-0.0240685,49,32765
5.80312,2.83807,-0.0271214,52,32765
5.83082,2.82686,-0.0294887,52,32765
5.83118,2.80307,-0.0327483,48,32765
5.85887,2.79153,-0.0337872,49,32765
5.84107,2.75902,-0.036477,30,32765
5.77782,2.70549,-0.0387746,24,32765
5.84138,2.71112,-0.0415251,24,32765
5.8594,2.69591,-0.0443711,41,32765
5.90497,2.69244,-0.0473734,51,32765
5.93205,2.68111,-0.0503774,50,32765
5.94103,2.66109,-0.0531675,50,32765
5.96808,2.64949,-0.0558512,49,32765
5.96763,2.62572,-0.0581165,51,32765
5.9672,2.60174,-0.06032,51,32765
5.99415,2.58982,-0.0624101,52,32765
5.99378,2.5653,-0.0652782,51,32765
6.01156,2.54902,-0.0675679,50,32765
6.0937,2.56008,-0.0703675,53,32765
6.08378,2.53188,-0.072666,50,32765
6.07364,2.50404,-0.0745903,49,32765
6.10045,2.49133,-0.0767635,49,32765
6.11783,2.47507,-0.0788218,52,32765
6.11663,2.45122,-0.0805466,50,32765
6.12466,2.43102,-0.0821676,50,32765
6.1512,2.41822,-0.0841568,54,32765
6.15913,2.39784,-0.0868474,53,32765
6.18562,2.38476,-0.0888954,54,32765
6.2027,2.36813,-0.0902086,52,32765
6.20107,2.34419,-0.0916754,51,32765
6.21804,2.32741,-0.0934644,52,32765
6.22573,2.30666,-0.0957991,53,32765
6.2427,2.2895,-0.096695,51,32765
6.26899,2.27576,-0.097844,53,32765
6.26702,2.25171,-0.0995515,52,32765
6.26497,2.22768,-0.100572,51,32765
6.30995,2.22041,-0.102174,55,32765
6.32649,2.20335,-0.103576,53,32765
6.34294,2.18637,-0.104841,52,32765
6.32154,2.15628,-0.104516,51,32765
6.3758,2.15193,-0.106165,53,32765
6.39229,2.13419,-0.107292,55,32765
6.36117,2.10094,-0.107335,51,32765
6.41548,2.09583,-0.107771,53,32765
6.45072,2.08442,-0.10882,52,32765
6.44777,2.06092,-0.10822,53,32765
6.4925,2.05222,-0.109251,53,32765
6.48937,2.02891,-0.107875,54,32765
4.96283,3.64655,0.136348,40,32765
4.97495,3.63022,0.13049,42,32765
4.97887,3.60801,0.125193,41,32765
5.05587,3.63818,0.121487,43,32765
5.07607,3.6273,0.117215,43,32765
5.05566,3.58719,0.111108,36,32765
5.03496,3.54732,0.106337,30,32765
5.06317,3.54208,0.101812,34,32765
5.09964,3.54235,0.0976695,29,32765
5.10298,3.52005,0.0938062,40,32765
5.11447,3.50344,0.0896862,40,32765
5.1508,3.50353,0.0859133,41,32765
5.18716,3.50346,0.0817815,42,32765
5.17428,3.46896,0.0774673,43,32765
5.20257,3.46271,0.073601,40,32765
5.21427,3.44515,0.0698289,41,32765
5.19217,3.40605,0.0654315,41,32765
5.21162,3.39464,0.0619131,40,32765
5.24805,3.39368,0.058619,46,32765
5.21707,3.34951,0.0546313,45,32765
5.31267,3.38569,0.0516971,48,32765
5.29017,3.34655,0.0475193,48,32765
5.30981,3.3342,0.0443086,47,32765
5.32089,3.31652,0.040922,43,32765
5.34876,3.3096,0.0373033,44,32765
5.35972,3.29187,0.0338512,44,32765
5.34498,3.2585,0.0304888,45,32765
5.37291,3.25107,0.0271709,43,32765
5.41813,3.25357,0.0240182,45,32765
5.39465,3.21492,0.0203572,41,32765
5.43128,3.212,0.0172109,44,32765
5.47659,3.21392,0.0142507,40,32765
5.444,3.1706,0.01087,42,32765
5.42848,3.13758,0.00749362,40,32765
5.49956,3.15444,0.00429851,45,32765
5.47534,3.11619,0.00152406,42,32765
5.49452,3.10263,-0.00178735,43,32765
5.5225,3.09368,-0.00421671,46,32765
5.51545,3.06527,-0.00726906,43,32765
5.58684,3.08082,-0.0101776,44,32765
5.5445,3.03328,-0.0129932,41,32765
5.59847,3.03872,-0.015858,47,32765
5.56455,2.99631,-0.0186419,45,32765
5.63633,3.01055,-0.0220009,46,32765
5.59332,2.96364,-0.0238811,42,32765
5.59435,2.94022,-0.0268504,44,32765
5.63948,2.94021,-0.0315288,44,32765
5.67587,2.9352,-0.0340545,46,32765
5.62344,2.88409,-0.0365618,44,32765
5.71334,2.9059,-0.040506,45,32765
5.68755,2.86824,-0.0430474,46,32765
5.75994,2.88002,-0.0461526,44,32765
5.6801,2.81599,-0.0477471,42,32765
5.74344,2.82317,-0.0512588,45,32765
5.75274,2.8041,-0.0548387,48,32765
5.81608,2.81093,-0.0588598,45,32765
5.75329,2.75688,-0.0603137,44,32765
5.76263,2.73726,-0.0623806,41,32765
5.74482,2.70478,-0.061131,23,32765
5.781,2.6982,-0.0646885,18,32765
5.85359,2.70802,-0.0676944,20,32765
5.86268,2.68822,-0.0702421,46,32765
5.88984,2.67682,-0.0732318,46,32765
5.85323,2.63636,-0.0755722,44,32765
5.90762,2.63717,-0.0789295,45,32765
5.94379,2.62958,-0.0816081,46,32765
5.93431,2.60142,-0.0838006,44,32765
5.91537,2.56971,-0.0862606,46,32765
5.9607,2.56557,-0.0896785,45,32765
5.95076,2.53788,-0.0922776,46,32765
5.98682,2.5296,-0.0957741,47,32765
5.97683,2.50167,-0.0977733,43,32765
6.02208,2.49695,-0.101334,44,32765
6.00266,2.46523,-0.103805,45,32765
6.00157,2.44135,-0.10635,43,32765
6.08378,2.45134,-0.110244,47,32765
6.10113,2.43479,-0.113776,45,32765
6.11827,2.41859,-0.116398,46,32765
6.16348,2.41276,-0.120461,48,32765
6.17124,2.3927,-0.123296,47,32765
6.12297,2.35096,-0.125559,46,32765
6.14001,2.33423,-0.128397,45,32765
6.21314,2.33856,-0.132729,46,32765
6.17394,2.30052,-0.134553,42,32765
6.16261,2.27338,-0.137624,42,32765
6.22636,2.27359,-0.141743,44,32765
6.19616,2.2394,-0.144195,45,32765
6.25977,2.23959,-0.148397,47,32765
6.25762,2.21559,-0.151473,49,32765
6.25524,2.19203,-0.154341,47,32765
6.27167,2.17503,-0.157926,45,32765
6.30694,2.16451,-0.162036,44,32765
6.26637,2.1284,-0.164114,47,32765
6.32048,2.12408,-0.1693,47,32765
6.33663,2.10707,-0.172723,45,32765
6.35279,2.08971,-0.176768,47,32765
6.36885,2.07243,-0.180947,46,32765
6.38467,2.05566,-0.185304,47,32765
6.43859,2.0508,-0.190824,50,32765
6.40684,2.01821,-0.194013,47,32765
6.47044,2.01536,-0.20049,49,32765
5.05495,3.7255,0.0804699,46,32765
5.01082,3.66748,0.0736632,45,32765
5.05528,3.67449,0.0689654,46,32765
5.07567,3.66348,0.0637103,46,32765
5.07968,3.64086,0.0591297,46,32765
5.10005,3.62962,0.0538118,47,32765
5.12851,3.62413,0.0498455,45,32765
5.09964,3.57835,0.0445333,36,32765
5.10337,3.55562,0.039813,36,32765
5.13143,3.55032,0.0362055,37,32765
5.15949,3.54489,0.0321565,44,32765
5.18766,3.53918,0.0280134,46,32765
5.21581,3.53337,0.0235231,50,32765
5.21134,3.50427,0.019489,49,32765
5.24804,3.50342,0.0154222,48,32765
5.2682,3.49118,0.0116266,50,32765
5.26298,3.4628,0.00757685,47,32765
5.27423,3.44565,0.00390116,50,32765
5.27723,3.42271,0.000273759,47,32765
5.30523,3.41623,-0.00331199,49,32765
5.34199,3.41448,-0.0071727,50,32765
5.31961,3.37515,-0.0110069,51,32765
5.34779,3.36799,-0.0143603,48,32765
5.36746,3.35544,-0.0178076,48,32765
5.37844,3.33779,-0.0215858,48,32765
5.39799,3.32515,-0.0251049,50,32765
5.40045,3.30201,-0.0283075,49,32765
5.4114,3.28399,-0.0317554,49,32765
5.431,3.27087,-0.0351474,48,32765
5.45052,3.25774,-0.0387562,49,32765
5.45286,3.23422,-0.0419596,48,32765
5.48098,3.2259,-0.0451718,49,32765
5.49163,3.20769,-0.0484767,50,32765
5.49355,3.18446,-0.0517727,48,32765
5.50405,3.16622,-0.0550618,50,32765
5.51463,3.1477,-0.0578366,49,32765
5.52521,3.12904,-0.0611767,48,32765
5.56198,3.12485,-0.0639144,49,32765
5.57251,3.10597,-0.0670195,49,32765
5.56524,3.0778,-0.0696337,49,32765
5.61058,3.07831,-0.0730252,49,32765
5.62954,3.06442,-0.075924,50,32765
5.63092,3.04081,-0.0787561,49,32765
5.66755,3.03595,-0.0823026,50,32765
5.66881,3.01229,-0.0842968,49,32765
5.63463,2.96991,-0.0866762,48,32765
5.67095,2.96513,-0.0916251,49,32765
5.69853,2.95539,-0.094305,47,32765
5.73512,2.94981,-0.0976904,51,32765
5.7361,2.92585,-0.100983,52,32765
5.73717,2.90156,-0.103652,50,32765
5.70237,2.85941,-0.105459,49,32765
5.76577,2.86664,-0.108804,50,32765
5.7844,2.85144,-0.112061,51,32765
5.82073,2.84535,-0.116212,50,32765
5.80318,2.81271,-0.119179,49,32765
5.83958,2.80621,-0.121956,49,32765
5.82201,2.77335,-0.123486,49,32765
5.83149,2.75339,-0.122523,43,32765
5.82253,2.7253,-0.125441,26,32765
5.77727,2.6803,-0.126543,23,32765
5.85894,2.69412,-0.130685,30,32765
5.88609,2.6827,-0.133867,45,32765
5.9862,2.70389,-0.138915,50,32765
5.94041,2.65931,-0.140437,51,32765
5.94008,2.63537,-0.142538,49,32765
5.94893,2.6152,-0.144994,50,32765
5.96671,2.59934,-0.148096,49,32765
6.03964,2.6069,-0.152616,48,32765
6.03903,2.5828,-0.155308,50,32765
6.0568,2.5664,-0.158655,51,32765
6.10225,2.56138,-0.161968,52,32765
6.07382,2.52551,-0.163978,50,32765
6.10073,2.51258,-0.167467,53,32765
6.11831,2.49586,-0.170485,51,32765
6.1265,2.47551,-0.173089,51,32765
6.1439,2.45878,-0.176744,52,32765
6.1797,2.44977,-0.180024,53,32765
6.14123,2.41084,-0.18202,52,32765
6.18624,2.40529,-0.185971,52,32765
6.20333,2.38855,-0.189681,54,32765
6.2018,2.36439,-0.192075,53,32765
6.20952,2.34381,-0.195042,52,32765
6.22654,2.32669,-0.198189,53,32765
6.25278,2.31317,-0.202321,53,32765
6.25092,2.28903,-0.204896,52,32765
6.23957,2.26149,-0.207616,52,32765
6.33143,2.27165,-0.213358,55,32765
6.31054,2.24067,-0.215739,53,32765
6.31766,2.22019,-0.218871,51,32765
6.35304,2.20951,-0.223251,52,32765
6.36003,2.18895,-0.226682,53,32765
6.39523,2.17836,-0.231057,51,32765
6.41157,2.16084,-0.235407,53,32765
6.42781,2.1435,-0.238975,54,32765
6.43457,2.12267,-0.242815,54,32765
6.41271,2.09268,-0.245687,52,32765
6.43807,2.0788,-0.25054,49,32765
6.37777,2.03728,-0.252054,40,32765
6.37456,2.01384,-0.255979,32,32765
6.39039,1.99618,-0.261052,24,32765
4.96723,3.65998,0.00887411,41,32765
5.02791,3.67872,0.0074781,40,32765
5.03999,3.66215,0.00569385,43,32765
5.06791,3.6577,0.00359849,43,32765
5.09634,3.65242,0.00172832,43,32765
5.07607,3.61199,-0.000454307,43,32765
5.07173,3.58353,-0.00244691,41,32765
5.10815,3.58391,-0.00494024,37,32765
5.05411,3.52158,-0.00720165,28,32765
5.10679,3.53337,-0.0090677,28,32765
5.10184,3.50531,-0.011839,26,32765
5.14641,3.51101,-0.0139421,41,32765
5.18305,3.51045,-0.0176042,42,32765
5.21152,3.50401,-0.0200004,44,32765
5.24014,3.4972,-0.0222734,45,32765
5.26029,3.48494,-0.0252755,44,32765
5.23831,3.44561,-0.0277526,44,32765
5.25805,3.43372,-0.0306166,42,32765
5.23583,3.39449,-0.0334976,42,32765
5.24713,3.37697,-0.036272,43,32765
5.29207,3.38095,-0.0391217,43,32765
5.28647,3.35247,-0.0415319,41,32765
5.32293,3.35089,-0.0449295,43,32765
5.32548,3.32799,-0.0467972,43,32765
5.33651,3.31022,-0.0497146,41,32765
5.37309,3.30805,-0.0529733,44,32765
5.35002,3.26912,-0.0550815,41,32765
5.38665,3.26659,-0.0582213,45,32765
5.40612,3.25364,-0.0616969,43,32765
5.3655,3.20465,-0.0641393,41,32765
5.39338,3.19684,-0.0671121,44,32765
5.42997,3.19383,-0.0701886,47,32765
5.44072,3.17542,-0.0728332,42,32765
5.46868,3.16704,-0.0759671,42,32765
5.462,3.13852,-0.0787462,42,32765
5.48986,3.13003,-0.0823084,44,32765
5.5002,3.11175,-0.0850184,44,32765
5.53669,3.10802,-0.0882916,42,32765
5.52948,3.07985,-0.0910291,46,32765
5.54849,3.06609,-0.0945274,42,32765
5.57628,3.05699,-0.0974112,45,32765
5.57764,3.03353,-0.100525,45,32765
5.61433,3.02869,-0.103736,44,32765
5.56282,2.97658,-0.105406,43,32765
5.60808,2.97659,-0.109016,49,32765
5.58265,2.939,-0.111142,43,32765
5.63674,2.94336,-0.115806,44,32765
5.65543,2.92898,-0.118844,49,32765
5.70973,2.93264,-0.122343,48,32765
5.70175,2.9042,-0.125281,45,32765
5.70264,2.88024,-0.127621,46,32765
5.69438,2.85199,-0.130612,43,32765
5.69493,2.82835,-0.133432,45,32765
5.71337,2.8135,-0.136201,46,32765
5.75872,2.81168,-0.140229,46,32765
5.80407,2.80971,-0.144189,46,32765
5.77734,2.77294,-0.145794,46,32765
5.83164,2.77511,-0.149605,45,32765
5.8227,2.74714,-0.151693,42,32765
5.73215,2.6811,-0.152015,22,32765
0,0,-0,0,32765
5.82272,2.67557,-0.159127,18,32765
5.89547,2.6846,-0.163541,43,32765
5.88613,2.65658,-0.16633,45,32765
5.91337,2.64458,-0.169162,47,32765
5.94047,2.63271,-0.172233,46,32765
5.91246,2.59695,-0.174067,45,32765
5.93936,2.58516,-0.177094,48,32765
5.96615,2.57346,-0.180019,46,32765
5.97476,2.55322,-0.18244,46,32765
5.94641,2.51755,-0.183608,44,32765
6.03762,2.53261,-0.188429,48,32765
6.06439,2.52021,-0.191476,47,32765
6.04479,2.48897,-0.192655,44,32765
6.06218,2.47271,-0.195336,48,32765
6.02387,2.43407,-0.195809,46,32765
6.09682,2.44003,-0.199782,49,32765
6.11416,2.42336,-0.201887,47,32765
6.14067,2.41049,-0.204326,44,32765
6.17658,2.40077,-0.20749,49,32765
6.15635,2.36976,-0.20872,47,32765
6.18272,2.35667,-0.210962,48,32765
6.19974,2.33983,-0.213019,49,32765
6.19785,2.31628,-0.214211,47,32765
6.16792,2.28189,-0.214705,43,32765
6.2129,2.27524,-0.217995,48,32765
6.24854,2.26489,-0.220234,47,32765
6.2371,2.23756,-0.220967,47,32765
6.1973,2.20028,-0.220461,43,32765
6.28934,2.2096,-0.225266,48,32765
6.26816,2.1792,-0.225597,49,32765
6.30353,2.16855,-0.227598,47,32765
6.30105,2.14487,-0.227897,49,32765
6.31733,2.12786,-0.229022,47,32765
6.37163,2.12292,-0.232284,47,32765
6.34991,2.09307,-0.231866,47,32765
6.36603,2.07595,-0.232562,45,32765
6.4106,2.06807,-0.234252,49,32765
6.41715,2.04768,-0.234039,49,32765
6.47153,2.04146,-0.236318,49,32765
6.47804,2.02074,-0.236057,46,32765
5.03371,3.72115,-0.0492285,47,32765
5.07037,3.72194,-0.0509695,46,32765
5.02604,3.66395,-0.0521916,47,32765
5.08636,3.68298,-0.0548262,49,32765
5.10675,3.67178,-0.0568092,47,32765
5.11915,3.65445,-0.0590094,48,32765
5.12313,3.63156,-0.0609398,47,32765
5.12698,3.60873,-0.0633434,48,32765
5.14686,3.59776,-0.0658214,41,32765
5.15048,3.57504,-0.0675493,40,32765
5.17038,3.56379,-0.0705048,42,32765
5.19037,3.55231,-0.0726706,43,32765
5.22712,3.55159,-0.0766527,50,32765
5.22255,3.52261,-0.0787647,50,32765
5.24292,3.51017,-0.08111,52,32765
5.26311,3.49786,-0.0842165,51,32765
5.24956,3.46393,-0.0864691,45,32765
5.29443,3.4684,-0.0898676,49,32765
5.30589,3.45076,-0.0929941,49,32765
5.32579,3.43837,-0.0959663,50,32765
5.34565,3.4259,-0.0987706,49,32765
5.33178,3.3918,-0.10087,48,32765
5.34298,3.37404,-0.104089,47,32765
5.36256,3.36163,-0.106216,49,32765
5.37371,3.34369,-0.109162,49,32765
5.37635,3.32036,-0.112022,48,32765
5.39597,3.30745,-0.114673,49,32765
5.42417,3.29955,-0.11794,48,32765
5.43517,3.28126,-0.121351,48,32765
5.44615,3.26289,-0.124434,49,32765
5.43984,3.23435,-0.126842,49,32765
5.47652,3.23116,-0.130231,50,32765
5.47015,3.20243,-0.132489,48,32765
5.49818,3.19393,-0.135834,50,32765
5.4916,3.16524,-0.138451,48,32765
5.51953,3.15661,-0.142226,49,32765
5.55604,3.15298,-0.145643,51,32765
5.53166,3.11471,-0.147607,49,32765
5.55939,3.10599,-0.151112,51,32765
5.58722,3.09694,-0.154972,48,32765
5.5713,3.06359,-0.156836,49,32765
5.61657,3.06402,-0.161121,49,32765
5.63575,3.04951,-0.164126,50,32765
5.64602,3.0303,-0.166985,50,32765
5.66495,3.01592,-0.170226,49,32765
5.68388,3.00139,-0.173362,51,32765
5.68499,2.97757,-0.176916,50,32765
5.70379,2.96299,-0.18008,51,32765
5.70485,2.93902,-0.182372,49,32765
5.7236,2.92417,-0.185995,50,32765
5.75131,2.91361,-0.189139,51,32765
5.75211,2.88962,-0.192278,50,32765
5.80646,2.89246,-0.196863,50,32765
5.7803,2.85505,-0.198246,50,32765
5.78087,2.83102,-0.201131,50,32765
5.79029,2.81149,-0.204216,50,32765
5.82663,2.80503,-0.207695,51,32765
5.86295,2.79842,-0.211353,50,32765
5.86314,2.77455,-0.213604,51,32765
5.88133,2.75915,-0.216929,48,32765
5.8724,2.73073,-0.220038,26,32765
5.84529,2.69401,-0.220152,22,32765
5.84532,2.66976,-0.222471,26,32765
5.91787,2.67893,-0.228211,49,32765
5.96342,2.67497,-0.231959,51,32765
5.95407,2.64666,-0.233812,50,32765
6.02672,2.65509,-0.239279,52,32765
5.97137,2.60689,-0.239245,50,32765
6.01656,2.60298,-0.243118,49,32765
6.0069,2.57465,-0.244817,51,32765
6.04304,2.56612,-0.248275,50,32765
6.06065,2.54989,-0.250931,51,32765
6.03212,2.5143,-0.251871,51,32765
6.08641,2.51361,-0.25587,50,32765
6.11312,2.50095,-0.259059,53,32765
6.13976,2.48832,-0.261852,53,32765
6.15721,2.47157,-0.264135,52,32765
6.14679,2.44358,-0.265157,50,32765
6.17335,2.43056,-0.2678,53,32765
6.16276,2.40255,-0.26923,52,32765
6.17984,2.3859,-0.271819,52,32765
6.21558,2.37627,-0.274674,53,32765
6.25135,2.36635,-0.277669,52,32765
6.22149,2.33206,-0.277534,54,32765
6.25722,2.32183,-0.280606,54,32765
6.29292,2.31142,-0.283883,55,32765
6.27233,2.28029,-0.283875,55,32765
6.30796,2.26972,-0.286567,52,32765
6.25889,2.22877,-0.285182,50,32765
6.28501,2.21466,-0.287834,44,32765
6.2733,2.18749,-0.288321,39,32765
6.24258,2.15398,-0.287565,36,32765
6.24007,2.13044,-0.28777,26,32765
6.21845,2.10078,-0.287237,21,32765
6.31053,2.10882,-0.292707,19,32765
6.25086,2.06654,-0.290246,17,32765
0,0,-0,0,32765
6.42544,2.07901,-0.298398,14,32765
0,0,-0,0,32765
6.29594,1.99196,-0.292107,15,32765
0,0,-0,0,32765
4.96811,3.65873,-0.0223505,41,32765
4.97221,3.63619,-0.0284002,42,32765
5.05688,3.67278,-0.0343083,44,32765
5.05276,3.64431,-0.0394467,44,32765
5.06467,3.62768,-0.0441184,40,32765
5.06035,3.59924,-0.0493965,41,32765
5.08864,3.59384,-0.0542902,43,32765
5.12515,3.59401,-0.0590441,42,32765
5.09593,3.54845,-0.063463,32,32765
5.12385,3.54321,-0.0685022,32,32765
5.12709,3.52081,-0.0725326,34,32765
5.16343,3.52073,-0.0772701,40,32765
5.1255,3.46971,-0.0803711,44,32765
5.17059,3.47427,-0.0856194,44,32765
5.20716,3.47345,-0.0905123,42,32765
5.20202,3.44494,-0.094468,42,32765
5.17162,3.40012,-0.097932,37,32765
5.26638,3.43784,-0.103106,44,32765
5.25241,3.40417,-0.10663,42,32765
5.30559,3.41386,-0.111371,45,32765
5.28298,3.3749,-0.114578,41,32765
5.28574,3.35179,-0.118532,43,32765
5.31366,3.34491,-0.1223,42,32765
5.32482,3.32696,-0.126439,42,32765
5.31877,3.29874,-0.128866,39,32765
5.38929,3.31758,-0.134741,44,32765
5.36615,3.27868,-0.137237,44,32765
5.35132,3.24516,-0.140907,41,32765
5.37934,3.23729,-0.144946,43,32765
5.43302,3.24485,-0.148961,43,32765
5.42663,3.21632,-0.152037,44,32765
5.44591,3.20316,-0.155853,42,32765
5.46513,3.18997,-0.159326,43,32765
5.46706,3.16658,-0.162395,47,32765
5.47754,3.14826,-0.165552,44,32765
5.51413,3.14453,-0.16983,44,32765
5.48981,3.10619,-0.172249,45,32765
5.51757,3.09748,-0.17584,44,32765
5.5191,3.07407,-0.179104,45,32765
5.53795,3.06051,-0.182361,43,32765
5.59189,3.066,-0.186674,48,32765
5.55805,3.02348,-0.188542,43,32765
5.57671,3.00984,-0.191765,45,32765
5.62191,3.01001,-0.195714,44,32765
5.62293,2.98668,-0.198183,43,32765
5.58858,2.94453,-0.199668,45,32765
5.66042,2.95798,-0.205091,46,32765
5.64377,2.92486,-0.20664,44,32765
5.70702,2.93284,-0.211556,44,32765
5.64565,2.87705,-0.211613,45,32765
5.68218,2.87112,-0.215457,47,32765
5.6918,2.85176,-0.218541,43,32765
5.75504,2.85908,-0.223789,44,32765
5.74664,2.83077,-0.225849,45,32765
5.77395,2.82025,-0.22945,46,32765
5.80135,2.80937,-0.232948,47,32765
5.78369,2.77673,-0.234694,44,32765
5.82906,2.77436,-0.237889,45,32765
5.8202,2.74613,-0.240122,44,32765
5.80207,2.71394,-0.242233,40,32765
5.78385,2.68175,-0.244173,21,32765
5.91992,2.72057,-0.251906,22,32765
5.89245,2.68425,-0.253497,20,32765
5.90142,2.66422,-0.256095,42,32765
5.86462,2.62395,-0.256823,43,32765
5.93726,2.63249,-0.262527,49,32765
5.9277,2.60444,-0.26403,47,32765
5.96379,2.59643,-0.268021,47,32765
5.9999,2.58817,-0.272347,43,32765
6.00842,2.56807,-0.274842,46,32765
5.96174,2.52425,-0.276139,47,32765
6.06222,2.54283,-0.28265,50,32765
6.01528,2.49932,-0.28316,43,32765
6.06044,2.49434,-0.2879,46,32765
6.10555,2.48931,-0.292526,47,32765
6.0488,2.44287,-0.292036,44,32765
6.11225,2.44535,-0.298058,48,32765
6.08304,2.41037,-0.298838,45,32765
6.13745,2.40816,-0.304048,50,32765
6.12668,2.38043,-0.306238,46,32765
6.16248,2.37052,-0.310733,45,32765
6.17948,2.35368,-0.31403,43,32765
6.17767,2.32979,-0.31706,28,32765
6.03542,2.25366,-0.311855,22,32765
6.23936,2.30653,-0.32533,14,32765
0,0,-0,0,32765
0,0,-0,0,32765
0,0,-0,0,32765
6.24991,2.21684,-0.337353,14,32765
6.14378,2.1569,-0.334885,15,32765
6.1506,2.13688,-0.33799,16,32765
0,0,-0,0,32765
6.13545,2.08784,-0.342458,21,32765
6.09466,2.052,-0.343514,18,32765
5.99695,1.99724,-0.341419,20,32765
6.1076,2.0118,-0.351396,20,32765
6.0569,1.97354,-0.351357,17,32765
6.11991,1.97284,-0.358014,18,32765
6.18287,1.97198,-0.365279,20,32765
5.95072,1.87756,-0.355177,18,32765
5.87059,1.83203,-0.354061,19,32765
5.06642,3.74363,-0.0813937,50,32765
5.04661,3.70294,-0.0870653,47,32765
5.09097,3.7099,-0.0931629,50,32765
5.04647,3.65193,-0.0973805,48,32765
5.10711,3.67028,-0.10304,47,32765
5.12734,3.65904,-0.108706,47,32765
5.13131,3.63605,-0.113319,47,32765
5.1761,3.64182,-0.118588,50,32765
5.17166,3.61315,-0.123187,46,32765
5.14224,3.56774,-0.127074,37,32765
5.15379,3.55089,-0.131246,37,32765
5.16543,3.53377,-0.135646,39,32765
5.16895,3.51071,-0.139315,46,32765
5.22242,3.52069,-0.145216,50,32765
5.23417,3.503,-0.149731,49,32765
5.25412,3.49092,-0.154266,49,32765
5.28232,3.48435,-0.159077,49,32765
5.27689,3.45604,-0.162183,49,32765
5.263,3.42226,-0.165446,47,32765
5.29098,3.41565,-0.169861,48,32765
5.30207,3.39822,-0.173798,47,32765
5.33021,3.39107,-0.178531,48,32765
5.34133,3.37334,-0.181948,48,32765
5.35258,3.35525,-0.186118,48,32765
5.38907,3.35327,-0.189878,49,32765
5.38315,3.32462,-0.193719,49,32765
5.41972,3.32221,-0.198028,49,32765
5.43067,3.30401,-0.202426,50,32765
5.42463,3.27518,-0.205418,50,32765
5.41837,3.24662,-0.207632,48,32765
5.43777,3.2334,-0.211525,49,32765
5.48291,3.23539,-0.21647,50,32765
5.4936,3.21699,-0.219723,50,32765
5.52155,3.2085,-0.223776,50,32765
5.49753,3.16998,-0.225553,49,32765
5.55151,3.17608,-0.230854,49,32765
5.56209,3.15725,-0.234397,49,32765
5.54646,3.12374,-0.236369,48,32765
5.58297,3.11967,-0.241073,50,32765
5.54953,3.07678,-0.242179,48,32765
5.61222,3.08705,-0.247359,51,32765
5.58726,3.04915,-0.249172,50,32765
5.606,3.03536,-0.252513,49,32765
5.66885,3.04489,-0.257658,52,32765
5.66117,3.01663,-0.259661,49,32765
5.64463,2.98359,-0.261527,51,32765
5.67229,2.97368,-0.265573,51,32765
5.70004,2.96347,-0.268946,50,32765
5.69232,2.93463,-0.271078,50,32765
5.72889,2.92879,-0.275088,49,32765
5.75664,2.91803,-0.27883,51,32765
5.76642,2.89836,-0.281964,50,32765
5.79399,2.88761,-0.286055,50,32765
5.7857,2.85909,-0.287956,49,32765
5.82205,2.8528,-0.292221,51,32765
5.84954,2.84172,-0.295938,51,32765
5.85001,2.81751,-0.298353,52,32765
5.88648,2.81059,-0.301488,52,32765
5.85969,2.77355,-0.302638,49,32765
5.89592,2.7666,-0.307327,52,32765
5.89602,2.74244,-0.309997,42,32765
5.8326,2.68895,-0.308535,23,32765
5.8414,2.66943,-0.311651,20,32765
5.88671,2.66601,-0.31619,31,32765
5.94108,2.66659,-0.32138,48,32765
5.98641,2.6627,-0.326291,53,32765
6.02266,2.65455,-0.330139,53,32765
6.01313,2.62621,-0.331936,49,32765
6.05847,2.62172,-0.337085,54,32765
6.04874,2.59349,-0.338584,52,32765
6.06652,2.57676,-0.342991,51,32765
6.01982,2.53305,-0.342114,51,32765
6.07428,2.53184,-0.347854,47,32765
6.00875,2.48091,-0.346616,39,32765
6.02605,2.46469,-0.349988,35,32765
6.04331,2.4484,-0.353141,27,32765
5.97697,2.39882,-0.352086,21,32765
6.03115,2.3974,-0.357389,18,32765
6.19696,2.43924,-0.369701,14,32765
0,0,-0,0,32765
6.18491,2.38671,-0.374299,16,32765
6.05272,2.31274,-0.368618,16,32765
6.04144,2.28567,-0.370916,18,32765
6.13289,2.29736,-0.378591,20,32765
6.08407,2.2563,-0.378374,23,32765
6.04445,2.21892,-0.378882,21,32765
6.05168,2.19871,-0.381236,22,32765
6.07751,2.18539,-0.385739,24,32765
6.03752,2.14837,-0.386299,22,32765
6.0254,2.12214,-0.38866,22,32765
6.00383,2.0926,-0.389875,20,32765
5.982,2.06355,-0.39121,20,32765
5.87506,2.00568,-0.386472,21,32765
5.88131,1.98656,-0.390043,20,32765
5.94438,1.98614,-0.39755,22,32765
5.85589,1.93515,-0.395102,21,32765
5.86191,1.91621,-0.398239,21,32765
5.85821,1.89463,-0.400809,21,32765
5.7688,1.84592,-0.397983,23,32765
5.84088,1.84893,-0.406453,22,32765
5.77024,1.80662,-0.405091,22,32765
5.0163,3.70826,-0.152162,44,32765
5.02085,3.68515,-0.15362,43,32765
5.05779,3.68538,-0.156032,45,32765
5.04584,3.65071,-0.1573,40,32765
5.05794,3.63383,-0.159333,41,32765
5.06183,3.61114,-0.161011,42,32765
5.08995,3.60596,-0.164523,42,32765
5.08551,3.57748,-0.166311,40,32765
5.12203,3.57753,-0.169137,40,32765
5.09283,3.53187,-0.170246,34,32765
5.08802,3.50351,-0.172816,30,32765
5.13251,3.50923,-0.176241,30,32765
5.15236,3.49771,-0.179299,31,32765
5.19702,3.50291,-0.183032,44,32765
5.21695,3.49101,-0.186173,43,32765
5.21212,3.46206,-0.188595,43,32765
5.23204,3.44991,-0.19172,41,32765
5.252,3.43755,-0.195246,42,32765
5.25492,3.41463,-0.197463,41,32765
5.28301,3.40785,-0.201199,43,32765
5.28585,3.38477,-0.203653,42,32765
5.28859,3.36174,-0.206099,41,32765
5.325,3.3601,-0.210147,41,32765
5.33595,3.34245,-0.213733,46,32765
5.35551,3.32979,-0.21697,44,32765
5.36653,3.31181,-0.219914,47,32765
5.36051,3.28323,-0.222192,44,32765
5.37988,3.27046,-0.2257,42,32765
5.41632,3.26797,-0.229668,43,32765
5.37573,3.21887,-0.230873,44,32765
5.42086,3.22104,-0.235046,44,32765
5.43157,3.20268,-0.238592,44,32765
5.43355,3.17935,-0.241352,43,32765
5.42675,3.15109,-0.243775,42,32765
5.48053,3.15762,-0.249198,45,32765
5.51705,3.15396,-0.253497,44,32765
5.48412,3.11053,-0.255163,43,32765
5.5033,3.09663,-0.258785,45,32765
5.51369,3.07783,-0.261911,47,32765
5.53261,3.0641,-0.265508,43,32765
5.56895,3.05997,-0.270166,45,32765
5.59657,3.05081,-0.274525,48,32765
5.58026,3.01775,-0.276288,43,32765
5.59024,2.99894,-0.27933,44,32765
5.63543,2.99882,-0.284726,46,32765
5.65442,2.98401,-0.2885,48,32765
5.63793,2.95066,-0.290233,43,32765
5.68331,2.94972,-0.295317,46,32765
5.71078,2.93973,-0.299738,45,32765
5.68493,2.90228,-0.300717,45,32765
5.67671,2.87399,-0.303279,46,32765
5.73098,2.87695,-0.308893,48,32765
5.74964,2.86164,-0.312248,43,32765
5.74129,2.83319,-0.314151,42,32765
5.77752,2.82705,-0.318832,45,32765
5.7599,2.79448,-0.320275,47,32765
5.80511,2.79234,-0.325712,46,32765
5.82331,2.77704,-0.329752,47,32765
5.7874,2.73592,-0.329806,43,32765
5.87781,2.7546,-0.336917,46,32765
5.84151,2.71395,-0.33728,41,32765
5.76863,2.65706,-0.335427,18,32765
5.8499,2.67118,-0.342165,18,32765
5.84048,2.64327,-0.343902,21,32765
5.87667,2.63556,-0.347926,43,32765
5.98587,2.65997,-0.357081,49,32765
5.99468,2.63968,-0.359873,50,32765
5.92107,2.58342,-0.357459,45,32765
5.99364,2.59142,-0.3639,46,32765
5.99297,2.5674,-0.365669,41,32765
5.96477,2.53133,-0.366065,28,32765
5.90874,2.48395,-0.364952,21,32765
6.06448,2.52539,-0.375378,14,32765
0,0,-0,0,32765
0,0,-0,0,32765
0,0,-0,0,32765
0,0,-0,0,32765
0,0,-0,0,32765
5.94547,2.33839,-0.378528,14,32765
0,0,-0,0,32765
5.98862,2.30959,-0.383606,16,32765
0,0,-0,0,32765
5.99407,2.26675,-0.386547,18,32765
5.97335,2.23653,-0.386118,19,32765
6.03673,2.23764,-0.39162,19,32765
0,0,-0,0,32765
6.05118,2.19767,-0.394891,19,32765
5.97384,2.14712,-0.390687,18,32765
5.89608,2.09758,-0.386471,20,32765
5.94052,2.09147,-0.390009,20,32765
5.90963,2.05876,-0.388189,17,32765
5.81237,2.00382,-0.382951,19,32765
5.85659,1.99777,-0.386328,19,32765
0,0,-0,0,32765
5.85037,1.95362,-0.385954,20,32765
5.90401,1.95028,-0.389764,18,32765
5.76806,1.88433,-0.380946,17,32765
0,0,-0,0,32765
5.79928,1.85254,-0.382625,18,32765
5.85274,1.84906,-0.38586,19,32765
5.85853,1.83083,-0.385017,19,32765
5.00054,3.70993,-0.20968,48,32765
5.0695,3.73422,-0.213766,48,32765
5.09046,3.72247,-0.215801,49,32765
5.0706,3.68172,-0.216471,46,32765
5.08282,3.66471,-0.218526,48,32765
5.11121,3.65933,-0.221187,46,32765
5.15576,3.66554,-0.225638,49,32765
5.15971,3.64253,-0.227643,48,32765
5.14732,3.60789,-0.228607,46,32765
5.18391,3.6077,-0.232215,48,32765
5.15472,3.56191,-0.23355,41,32765
5.15816,3.53914,-0.235506,33,32765
5.21939,3.55563,-0.240585,37,32765
5.14833,3.48221,-0.239347,34,32765
5.22625,3.50943,-0.245291,48,32765
5.28802,3.52471,-0.250696,50,32765
5.25815,3.47918,-0.251575,47,32765
5.26149,3.45572,-0.254414,47,32765
5.2896,3.44907,-0.257777,47,32765
5.30939,3.43671,-0.261317,48,32765
5.32916,3.42428,-0.264537,50,32765
5.34888,3.41179,-0.267766,49,32765
5.3601,3.39389,-0.270859,48,32765
5.37961,3.38139,-0.274912,49,32765
5.38234,3.35797,-0.277403,47,32765
5.36797,3.32406,-0.279047,48,32765
5.38756,3.31109,-0.282489,46,32765
5.44112,3.31899,-0.287922,49,32765
5.42641,3.28524,-0.289477,49,32765
5.44588,3.272,-0.293368,50,32765
5.44825,3.24834,-0.295631,48,32765
5.46764,3.23492,-0.299676,49,32765
5.50419,3.23163,-0.304278,51,32765
5.51484,3.21312,-0.30753,48,32765
5.51688,3.18935,-0.310564,49,32765
5.54481,3.18057,-0.314681,49,32765
5.54674,3.1567,-0.3179,48,32765
5.58345,3.15236,-0.322666,49,32765
5.62888,3.15275,-0.327878,51,32765
5.61311,3.11918,-0.329594,50,32765
5.59712,3.08583,-0.331483,49,32765
5.58975,3.05738,-0.333961,49,32765
5.65249,3.06712,-0.340205,50,32765
5.62746,3.02908,-0.341164,49,32765
5.63746,3.01,-0.344811,50,32765
5.67412,3.00449,-0.349776,50,32765
5.65773,2.97098,-0.35125,49,32765
5.68542,2.96073,-0.355619,49,32765
5.73951,2.96445,-0.361915,50,32765
5.74044,2.94046,-0.364237,49,32765
5.74126,2.91643,-0.367225,51,32765
5.79561,2.91915,-0.373351,52,32765
5.79654,2.89466,-0.375683,51,32765
5.80621,2.87483,-0.378598,50,32765
5.81566,2.85524,-0.381839,51,32765
5.82508,2.83557,-0.384809,51,32765
5.86138,2.82886,-0.390068,51,32765
5.87969,2.81332,-0.394244,53,32765
5.86199,2.78046,-0.395082,52,32765
5.86213,2.75644,-0.396956,48,32765
5.89825,2.74948,-0.401782,43,32765
5.87087,2.7132,-0.402229,35,32765
5.84336,2.67712,-0.402271,15,32765
5.8885,2.67391,-0.4076,14,32765
5.78825,2.60458,-0.402441,14,32765
0,0,-0,0,32765
5.95157,2.62946,-0.418551,14,32765
0,0,-0,0,32765
5.77654,2.5059,-0.410025,15,32765
5.87644,2.52589,-0.418811,18,32765
5.93077,2.52531,-0.424706,21,32765
5.88398,2.48181,-0.423592,22,32765
5.89225,2.46187,-0.424893,24,32765
5.90946,2.44598,-0.428441,24,32765
5.86192,2.40381,-0.426731,26,32765
5.97141,2.42562,-0.436169,27,32765
5.85895,2.35735,-0.429547,25,32765
5.91298,2.35626,-0.43489,25,32765
5.82789,2.29981,-0.430122,25,32765
5.8726,2.29485,-0.434286,25,32765
5.79633,2.24291,-0.429908,24,32765
5.74764,2.20246,-0.42743,22,32765
5.73608,2.17644,-0.427786,23,32765
5.80849,2.18208,-0.434002,22,32765
5.70334,2.12113,-0.427407,22,32765
5.71957,2.10574,-0.429491,24,32765
5.76391,2.10034,-0.434039,22,32765
5.74265,2.07094,-0.433184,22,32765
5.64593,2.01531,-0.426661,21,32765
5.77473,2.03991,-0.436939,21,32765
5.70605,1.9945,-0.431881,21,32765
5.6464,1.95312,-0.428426,22,32765
5.72818,1.96051,-0.435024,23,32765
5.5738,1.88766,-0.423687,25,32765
5.67448,1.90123,-0.430865,25,32765
5.53856,1.8357,-0.420744,22,32765
5.59195,1.83292,-0.424895,23,32765
5.60744,1.81749,-0.425985,24,32765
5.63234,1.80524,-0.42748,24,32765
5.6571,1.79324,-0.429022,21,32765
5.56756,1.74573,-0.421016,23,32765
4.99191,3.6892,-0.186404,41,32765
5.02817,3.69024,-0.192937,41,32765
5.04819,3.67946,-0.199747,40,32765
5.06826,3.66855,-0.205051,42,32765
5.06413,3.63982,-0.20952,40,32765
5.05981,3.61116,-0.215054,42,32765
5.07993,3.59982,-0.220229,40,32765
5.17342,3.64038,-0.228621,47,32765
5.12778,3.5833,-0.231136,45,32765
5.13939,3.56629,-0.236394,41,32765
5.15101,3.5492,-0.240635,29,32765
5.12965,3.50936,-0.243829,28,32765
5.10823,3.4695,-0.246752,28,32765
5.16101,3.48034,-0.253255,35,32765
5.23046,3.50208,-0.26026,45,32765
5.24191,3.48464,-0.264011,42,32765
5.24489,3.46164,-0.268808,44,32765
5.25629,3.44405,-0.272194,47,32765
5.2509,3.4154,-0.27578,43,32765
5.27063,3.40301,-0.279991,42,32765
5.29876,3.39586,-0.2852,45,32765
5.31831,3.38345,-0.289692,44,32765
5.34619,3.3764,-0.294949,48,32765
5.33185,3.34263,-0.297004,43,32765
5.33418,3.31965,-0.300953,41,32765
5.37061,3.31741,-0.306206,45,32765
5.38153,3.29932,-0.309855,44,32765
5.38399,3.27585,-0.312338,44,32765
5.41196,3.26786,-0.317275,45,32765
5.40567,3.23922,-0.31979,44,32765
5.40789,3.21567,-0.32278,43,32765
5.4443,3.21262,-0.327998,46,32765
5.4118,3.16904,-0.328611,43,32765
5.48258,3.1861,-0.33548,46,32765
5.45851,3.1476,-0.336756,44,32765
5.50358,3.14897,-0.342141,42,32765
5.46183,3.10084,-0.34245,43,32765
5.57655,3.14103,-0.352249,46,32765
5.5259,3.08814,-0.351273,45,32765
5.50987,3.05498,-0.352883,43,32765
5.56364,3.06053,-0.358696,44,32765
5.61749,3.06581,-0.364299,49,32765
5.57497,3.01821,-0.364101,43,32765
5.57625,2.99444,-0.366621,45,32765
5.61261,2.98962,-0.371095,43,32765
5.63128,2.97531,-0.375,45,32765
5.65873,2.96569,-0.378752,48,32765
5.633,2.92828,-0.379579,42,32765
5.66045,2.9183,-0.383647,45,32765
5.72369,2.92593,-0.389732,47,32765
5.7069,2.89247,-0.391187,50,32765
5.72568,2.87704,-0.394467,47,32765
5.7622,2.87058,-0.399098,49,32765
5.78054,2.85566,-0.402618,45,32765
5.74521,2.81407,-0.402076,49,32765
5.79936,2.81644,-0.408298,45,32765
5.77265,2.77952,-0.408875,38,32765
