x, y, z, intensity, ring
0.994295,-0.713855,0.121196,17,32765
1.00005,-0.722888,0.122229,17,32765
1.0139,-0.737674,0.124245,18,32765
1.00359,-0.734921,0.123257,17,32765
1.00925,-0.744031,0.124198,18,32765
1.18991,-0.372251,0.0896451,18,32765
1.16964,-0.370085,0.0887149,18,32765
1.19689,-0.382987,0.0914584,18,32765
1.18612,-0.383804,0.0912166,18,32765
1.19429,-0.390802,0.0924722,18,32765
1.19297,-0.394722,0.0928691,18,32765
1.19165,-0.398553,0.0933819,18,32765
1.19979,-0.405543,0.09459,19,32765
1.18901,-0.406203,0.0940656,18,32765
1.13108,-0.390587,0.0899926,18,32765
1.19563,-0.41736,0.0957945,18,32765
1.13782,-0.401378,0.0914324,18,32765
1.15524,-0.411821,0.0933678,19,32765
1.15386,-0.415596,0.0937565,18,32765
1.17121,-0.426199,0.0955507,18,32765
1.17913,-0.433461,0.0967721,19,32765
1.11226,-0.413018,0.0915772,18,32765
1.14819,-0.43074,0.09503,17,32765
1.13739,-0.431063,0.0945311,18,32765
1.15452,-0.442003,0.0964949,18,32765
1.16231,-0.449468,0.0975569,18,32765
1.1701,-0.456851,0.0987133,17,32765
1.12222,-0.442388,0.0949918,18,32765
1.13927,-0.453394,0.0968907,19,32765
1.11002,-0.445961,0.0947497,19,32765
1.12698,-0.457148,0.0966157,18,32765
1.12542,-0.460902,0.0969732,19,32765
1.11463,-0.460866,0.096448,19,32765
1.14066,-0.476097,0.0990925,18,32765
1.11149,-0.468275,0.0970451,19,32765
1.1466,-0.487583,0.100404,19,32765
1.14496,-0.491347,0.100722,19,32765
1.10671,-0.479314,0.0977299,19,32765
1.10509,-0.482969,0.0980592,19,32765
1.13083,-0.498681,0.100728,19,32765
1.05627,-0.470059,0.0945196,18,32765
1.10012,-0.494013,0.0989057,19,32765
1.08026,-0.489537,0.0974685,18,32765
1.11484,-0.509738,0.100952,19,32765
1.10407,-0.509258,0.100424,18,32765
1.10233,-0.512934,0.100781,18,32765
1.05554,-0.495349,0.0967787,18,32765
1.11692,-0.5287,0.102749,18,32765
1.07019,-0.510913,0.0988063,17,32765
1.08642,-0.523104,0.100748,18,32765
1.08463,-0.526746,0.101024,18,32765
1.0918,-0.534721,0.102176,18,32765
1.06318,-0.525127,0.0999021,18,32765
1.08814,-0.542014,0.102782,18,32765
1.05068,-0.527773,0.0996281,17,32765
1.06665,-0.540298,0.101659,18,32765
1.05592,-0.539344,0.101191,18,32765
1.02753,-0.529174,0.0987803,17,32765
1.06999,-0.555484,0.103274,18,32765
1.01514,-0.531322,0.0984546,17,32765
1.04858,-0.553302,0.102194,17,32765
1.04669,-0.556809,0.102461,17,32765
1.01846,-0.546199,0.100051,17,32765
1.05168,-0.568493,0.103878,18,32765
1.04978,-0.57192,0.104225,18,32765
1.03915,-0.570549,0.103605,17,32765
1.01112,-0.559461,0.101222,18,32765
1.06143,-0.591917,0.106779,18,32765
1.06812,-0.600297,0.107958,18,32765
1.08342,-0.613651,0.110107,18,32765
1.0554,-0.602425,0.107735,18,32765
1.05336,-0.605908,0.108198,18,32765
1.00822,-0.584425,0.104121,17,32765
0.98047,-0.57264,0.101797,17,32765
1.02147,-0.601134,0.106495,18,32765
1.02802,-0.609561,0.107759,17,32765
1.04311,-0.623094,0.109915,18,32765
1.03248,-0.621398,0.109352,18,32765
1.02189,-0.619578,0.108906,18,32765
1.01132,-0.617726,0.108357,18,32765
0.992283,-0.610617,0.10687,18,32765
0.998707,-0.619086,0.108243,18,32765
1.03042,-0.643444,0.112339,18,32765
1.02828,-0.646779,0.112776,18,32765
1.00929,-0.639482,0.111368,17,32765
0.998737,-0.637437,0.110898,17,32765
1.01336,-0.651445,0.1132,18,32765
1.01117,-0.65476,0.113706,18,32765
1.01733,-0.663477,0.115043,18,32765
0.981829,-0.644924,0.111734,17,32765
0.987991,-0.653576,0.113186,18,32765
1.03553,-0.689861,0.11946,18,32765
1.00015,-0.671043,0.1162,18,32765
1.00615,-0.679882,0.117595,18,32765
1.00385,-0.683165,0.11819,18,32765
1.01796,-0.697696,0.120745,17,32765
1.01563,-0.700985,0.12134,17,32765
0.996947,-0.692915,0.119857,17,32765
1.00277,-0.70183,0.121563,17,32765
1.00045,-0.705044,0.12209,17,32765
1.02243,-0.72555,0.125772,18,32765
1.02001,-0.728801,0.126569,18,32765
1.00142,-0.720482,0.125154,18,32765
1.03126,-0.747006,0.129974,17,32765
0.996624,-0.726842,0.126654,18,32765
1.02624,-0.75359,0.13165,18,32765
1.15241,-0.361055,0.0753991,18,32765
1.17023,-0.370822,0.07715,18,32765
1.18799,-0.380706,0.0789802,18,32765
1.17722,-0.381495,0.0788292,18,32765
1.18541,-0.388478,0.0799873,18,32765
1.17462,-0.389237,0.0797385,18,32765
1.13548,-0.380339,0.0776553,18,32765
1.14368,-0.387163,0.0787479,17,32765
1.16129,-0.397333,0.0802651,18,32765
1.15051,-0.397901,0.0800263,18,32765
1.15856,-0.405035,0.0812179,18,32765
1.16661,-0.412166,0.0820463,18,32765
1.13703,-0.40595,0.0804791,18,32765
1.12628,-0.406287,0.0801938,18,32765
1.14367,-0.416821,0.0817942,18,32765
1.11417,-0.410219,0.0802151,17,32765
1.10346,-0.410388,0.0797213,17,32765
1.15809,-0.435135,0.0841532,17,32765
1.13794,-0.431952,0.0830701,17,32765
1.11783,-0.428628,0.0821097,17,32765
1.15357,-0.446795,0.0851289,17,32765
1.06847,-0.417831,0.0792939,17,32765
1.1042,-0.435978,0.0822449,18,32765
1.09349,-0.435867,0.0818698,19,32765
1.1013,-0.443165,0.0827845,19,32765
1.10903,-0.450592,0.083763,19,32765
1.10749,-0.454293,0.0841152,19,32765
1.12437,-0.465647,0.0857897,19,32765
1.11359,-0.465552,0.0853342,18,32765
1.13039,-0.477014,0.0871011,19,32765
1.10124,-0.469063,0.0851219,19,32765
1.10883,-0.476624,0.0861396,19,32765
1.08892,-0.472385,0.0849439,18,32765
1.05991,-0.463989,0.0831187,18,32765
1.06747,-0.471524,0.0840603,17,32765
1.08408,-0.483236,0.0857954,18,32765
1.09152,-0.490969,0.0868264,17,32765
1.04441,-0.474086,0.0834002,17,32765
1.08813,-0.498362,0.0872291,17,32765
1.08644,-0.501975,0.0875174,17,32765
1.07569,-0.501387,0.0871374,17,32765
1.07404,-0.504891,0.0872682,17,32765
1.05432,-0.499919,0.0859726,17,32765
1.04365,-0.499097,0.0854333,17,32765
1.05095,-0.506894,0.0864424,17,32765
1.06715,-0.519149,0.0881925,17,32765
1.05644,-0.518299,0.0877581,17,32765
1.08149,-0.5351,0.0902329,17,32765
1.07074,-0.534274,0.0898434,17,32765
1.04219,-0.524427,0.0878121,17,32765
1.04929,-0.532438,0.0888998,17,32765
1.04746,-0.535965,0.0892765,17,32765
1.05451,-0.544032,0.090178,17,32765
1.02617,-0.533681,0.0881319,18,32765
1.03318,-0.541732,0.0891988,18,32765
1.01371,-0.535861,0.0879794,17,32765
1.02948,-0.548637,0.0897728,17,32765
0.992482,-0.533228,0.086873,17,32765
1.00822,-0.545989,0.0887718,18,32765
1.01516,-0.554058,0.0898806,18,32765
1.04826,-0.576595,0.0932312,18,32765
1.02019,-0.565513,0.0911318,18,32765
1.00958,-0.564033,0.0906597,18,32765
1.01637,-0.572259,0.0917306,17,32765
1.0231,-0.580551,0.0928872,17,32765
1.03845,-0.593844,0.0947282,17,32765
1.01916,-0.587324,0.0935982,18,32765
0.999929,-0.580698,0.0923673,18,32765
0.997993,-0.583963,0.0927197,18,32765
0.970274,-0.572076,0.0905436,18,32765
0.985494,-0.585444,0.0925009,18,32765
0.983561,-0.588632,0.0928414,19,32765
0.981578,-0.591882,0.0931631,18,32765
0.988127,-0.600242,0.094417,19,32765
0.986121,-0.603478,0.0947672,18,32765
0.992574,-0.611962,0.0959184,18,32765
0.998996,-0.620451,0.0971993,19,32765
0.971573,-0.607863,0.0951309,18,32765
1.01171,-0.63758,0.0996976,18,32765
1.00115,-0.635553,0.0993052,17,32765
1.00741,-0.644215,0.100602,17,32765
1.00526,-0.64749,0.101038,17,32765
0.978002,-0.634516,0.0990022,17,32765
1.00926,-0.659496,0.102782,17,32765
0.998729,-0.657308,0.102405,18,32765
0.979939,-0.649521,0.101199,18,32765
1.00265,-0.669267,0.104322,18,32765
1.00867,-0.678091,0.105753,18,32765
0.981646,-0.664637,0.103577,18,32765
0.995864,-0.679072,0.105909,18,32765
0.977146,-0.671054,0.104752,17,32765
1.00767,-0.69688,0.108865,18,32765
0.989005,-0.688767,0.107566,18,32765
1.00301,-0.703395,0.110069,18,32765
1.00068,-0.706617,0.110596,18,32765
0.973959,-0.692543,0.10857,18,32765
0.987853,-0.707242,0.111153,18,32765
1.00972,-0.727916,0.114486,19,32765
1.01536,-0.73698,0.116174,19,32765
0.99684,-0.728471,0.115072,18,32765
1.02646,-0.755279,0.119696,18,32765
1.17122,-0.366779,0.081415,17,32765
1.20807,-0.382677,0.0837534,18,32765
1.17835,-0.377456,0.0813572,18,32765
1.10119,-0.356645,0.0759923,17,32765
1.16643,-0.381929,0.0804419,18,32765
1.1557,-0.382626,0.0796604,18,32765
1.16392,-0.389581,0.0801432,18,32765
1.17211,-0.396572,0.0806254,17,32765
1.18026,-0.4036,0.0812423,18,32765
1.17894,-0.407438,0.0812456,18,32765
1.15874,-0.404771,0.0798654,18,32765
1.14799,-0.405259,0.0792396,18,32765
1.16545,-0.415725,0.08055,18,32765
1.16409,-0.419519,0.0805694,18,32765
1.15334,-0.419879,0.0799981,18,32765
1.13323,-0.416789,0.0785459,18,32765
1.14121,-0.423969,0.0793769,17,32765
1.1398,-0.427731,0.0794052,18,32765
1.13836,-0.431518,0.0795368,17,32765
1.10897,-0.424577,0.0775652,17,32765
1.09824,-0.424669,0.0770376,17,32765
1.10613,-0.431884,0.0778392,18,32765
1.08615,-0.428162,0.0765915,18,32765
1.10327,-0.439099,0.078008,18,32765
1.11108,-0.446413,0.078835,18,32765
1.11883,-0.453857,0.0795295,19,32765
1.08962,-0.446173,0.0778311,18,32765
1.0789,-0.445971,0.0773676,18,32765
1.05899,-0.441868,0.0761172,18,32765
1.0667,-0.449238,0.0770631,18,32765
1.10192,-0.468414,0.0797761,19,32765
1.082,-0.464201,0.0786468,18,32765
1.04382,-0.451938,0.0761403,18,32765
1.07884,-0.471422,0.0791608,18,32765
1.059,-0.466943,0.0779503,18,32765
1.07563,-0.478623,0.0796043,18,32765
1.06492,-0.478105,0.0791266,17,32765
1.04514,-0.473388,0.0780078,17,32765
1.03446,-0.472731,0.0775987,17,32765
1.05098,-0.484509,0.0792609,17,32765
1.05838,-0.492238,0.0801653,17,32765
1.0748,-0.504193,0.0818675,18,32765
1.07308,-0.507778,0.0822598,17,32765
1.03536,-0.494157,0.0796202,18,32765
1.04269,-0.501907,0.0806057,18,32765
1.032,-0.501039,0.080203,18,32765
1.07514,-0.52636,0.0838285,18,32765
1.04652,-0.516684,0.082017,18,32765
1.04477,-0.520151,0.0824161,18,32765
1.06976,-0.537041,0.0848887,18,32765
1.03231,-0.522651,0.0823075,17,32765
1.04826,-0.535231,0.0840734,18,32765
1.01096,-0.520504,0.0815162,18,32765
1.02685,-0.533117,0.0834348,17,32765
1.03389,-0.541142,0.0844397,18,32765
1.04088,-0.549246,0.0853975,18,32765
1.00381,-0.533944,0.0829118,18,32765
1.00202,-0.537234,0.0832264,18,32765
0.991446,-0.535793,0.08283,17,32765
1.00717,-0.548607,0.0844858,17,32765
1.0053,-0.551963,0.084862,17,32765
1.00344,-0.555303,0.0851845,18,32765
0.992869,-0.553737,0.0847793,18,32765
0.999684,-0.561919,0.0859018,18,32765
1.02382,-0.579961,0.0884859,17,32765
1.03052,-0.588309,0.0895104,17,32765
1.03717,-0.596729,0.0904838,18,32765
1.03514,-0.600198,0.090864,18,32765
1.03309,-0.603675,0.0911507,18,32765
0.996695,-0.586838,0.0884344,18,32765
0.986152,-0.585034,0.0879768,18,32765
0.975659,-0.583139,0.0874011,18,32765
0.999359,-0.601718,0.0900913,18,32765
0.997358,-0.604982,0.090411,18,32765
0.952823,-0.582227,0.0868381,17,32765
0.984842,-0.606279,0.0900671,18,32765
0.991285,-0.614776,0.0911309,18,32765
0.95541,-0.596903,0.088308,18,32765
0.995579,-0.626624,0.0925399,17,32765
0.985094,-0.624524,0.0919782,17,32765
0.991428,-0.633098,0.0930419,17,32765
1.0061,-0.64711,0.0948909,18,32765
0.99561,-0.64494,0.0944097,18,32765
0.98516,-0.642687,0.0938762,17,32765
0.98306,-0.645861,0.0941138,18,32765
0.94766,-0.627074,0.091209,17,32765
0.978764,-0.652292,0.0945304,18,32765
0.993152,-0.666599,0.0964097,18,32765
0.966189,-0.65308,0.0941538,18,32765
0.939339,-0.639351,0.0920471,18,32765
0.986593,-0.676173,0.0970813,18,32765
1.01721,-0.701976,0.100535,19,32765
0.990383,-0.688181,0.0982253,18,32765
0.979972,-0.68564,0.097736,18,32765
1.00221,-0.705984,0.100341,17,32765
0.983677,-0.697653,0.0987886,18,32765
0.997649,-0.712369,0.10063,18,32765
0.995383,-0.715524,0.100688,17,32765
0.968868,-0.701158,0.0983513,17,32765
0.9666,-0.704281,0.0983572,17,32765
0.99648,-0.730948,0.101705,18,32765
1.14315,-0.35855,0.0681431,18,32765
1.18005,-0.374388,0.0701129,19,32765
1.14083,-0.366016,0.0674471,19,32765
1.15864,-0.37585,0.0684495,19,32765
1.14794,-0.376479,0.0677549,19,32765
1.12775,-0.373975,0.066511,19,32765
1.14546,-0.384026,0.0674618,19,32765
1.12529,-0.381357,0.0661845,19,32765
1.12405,-0.385012,0.0661532,19,32765
1.16996,-0.405007,0.0689365,19,32765
1.12149,-0.392411,0.0660796,18,32765
1.12019,-0.396106,0.066103,19,32765
1.10008,-0.393065,0.0650031,18,32765
1.12696,-0.406824,0.0666892,19,32765
1.13501,-0.413905,0.0673226,19,32765
1.0868,-0.400393,0.0643959,18,32765
1.10419,-0.410919,0.0656826,18,32765
1.11217,-0.418079,0.0662674,18,32765
1.1201,-0.425327,0.0669542,18,32765
1.11868,-0.429037,0.0669388,18,32765
1.09861,-0.425555,0.0659479,18,32765
1.1158,-0.436423,0.0672162,19,32765
1.0958,-0.432725,0.0661575,19,32765
1.06654,-0.425228,0.0645797,19,32765
1.0744,-0.432438,0.0653075,19,32765
1.09145,-0.443534,0.0664707,19,32765
1.08073,-0.443323,0.0661791,19,32765
1.08847,-0.450729,0.0669432,20,32765
1.06853,-0.44665,0.0658818,18,32765
1.07623,-0.454067,0.0667369,19,32765
1.06551,-0.453757,0.0662209,19,32765
1.07316,-0.461241,0.0669909,19,32765
1.07161,-0.464813,0.0671552,19,32765
1.06087,-0.464415,0.066925,18,32765
1.06844,-0.471968,0.0676349,18,32765
1.07594,-0.47964,0.0685237,19,32765
1.05612,-0.475027,0.0675581,18,32765
1.05452,-0.478521,0.0677946,19,32765
1.06198,-0.486205,0.0686561,19,32765
1.02408,-0.472985,0.0666026,18,32765
1.04057,-0.484856,0.0679994,18,32765
1.02991,-0.484041,0.0677267,18,32765
1.02826,-0.487483,0.0681033,18,32765
1.03563,-0.495215,0.0688268,18,32765
1.04295,-0.502982,0.0697191,18,32765
1.02329,-0.497748,0.0688074,19,32765
1.02163,-0.501115,0.0689396,19,32765
1.01994,-0.504517,0.0692173,19,32765
1.03609,-0.516814,0.0708281,18,32765
1.01651,-0.511287,0.069949,18,32765
1.02365,-0.519261,0.0708097,18,32765
1.03073,-0.527293,0.071767,19,32765
1.02892,-0.530778,0.0720657,18,32765
1.02708,-0.534267,0.0725551,18,32765
1.0076,-0.528405,0.0715832,18,32765
1.02346,-0.541104,0.0730719,18,32765
1.00402,-0.5351,0.0722219,18,32765
1.02861,-0.552565,0.0744462,18,32765
0.991647,-0.536953,0.0722355,18,32765
1.00737,-0.549796,0.0737046,19,32765
0.988011,-0.54354,0.0727931,19,32765
0.994897,-0.551669,0.0737578,18,32765
0.993052,-0.554939,0.0740942,18,32765
0.982476,-0.553346,0.0738173,18,32765
0.971936,-0.551669,0.0734906,18,32765
1.00472,-0.574726,0.0763838,18,32765
1.00277,-0.578094,0.0765984,19,32765
1.00942,-0.586468,0.0776304,18,32765
1.00742,-0.589867,0.0779108,18,32765
1.02263,-0.603328,0.0795738,18,32765
0.977719,-0.581212,0.0765333,18,32765
0.984354,-0.589539,0.0773964,18,32765
0.982409,-0.592725,0.0777808,18,32765
0.946334,-0.575212,0.0753796,18,32765
0.978467,-0.599129,0.0783955,18,32765
0.984958,-0.607606,0.0792056,19,32765
0.974449,-0.60559,0.0788062,17,32765
0.972423,-0.608799,0.0791049,18,32765
0.995679,-0.627998,0.0814939,17,32765
0.968346,-0.615194,0.0796417,17,32765
0.966307,-0.618356,0.079913,18,32765
0.955876,-0.616104,0.0794774,17,32765
0.95385,-0.619198,0.0797748,18,32765
0.96018,-0.627723,0.0807288,17,32765
0.97479,-0.641794,0.0823693,18,32765
0.947713,-0.628452,0.0805437,18,32765
0.962221,-0.642646,0.0820767,18,32765
0.97664,-0.656931,0.0837652,18,32765
0.982738,-0.665706,0.084633,18,32765
0.980565,-0.668861,0.084955,18,32765
0.970168,-0.666367,0.0844284,18,32765
0.951598,-0.658133,0.0832023,18,32765
0.990386,-0.689696,0.0869119,18,32765
0.988135,-0.692877,0.0872381,18,32765
0.953307,-0.673026,0.0845088,17,32765
0.959268,-0.681855,0.0853093,17,32765
0.989509,-0.708135,0.0884094,18,32765
0.971067,-0.699612,0.0870173,18,32765
0.984968,-0.714416,0.0885897,18,32765
0.990706,-0.72348,0.0893228,18,32765
0.956233,-0.703021,0.0864853,17,32765
1.11626,-0.346873,0.0505178,18,32765
1.1723,-0.368416,0.0537669,18,32765
1.133,-0.360072,0.0525173,17,32765
1.14131,-0.36679,0.0535537,18,32765
1.14958,-0.37362,0.0544605,18,32765
1.16729,-0.383673,0.0558475,18,32765
1.09965,-0.365461,0.0529797,17,32765
1.13633,-0.381698,0.0553094,18,32765
1.11615,-0.378959,0.054769,17,32765
1.08655,-0.372839,0.0538264,17,32765
1.15135,-0.39936,0.0573921,17,32765
1.08402,-0.380063,0.054438,17,32765
1.1204,-0.396981,0.0566479,17,32765
1.08146,-0.387165,0.0551954,17,32765
1.10833,-0.400928,0.0570817,17,32765
1.09759,-0.401182,0.056972,17,32765
1.09624,-0.404837,0.0572206,18,32765
1.07615,-0.401503,0.0565614,17,32765
1.12154,-0.422652,0.0593458,17,32765
1.12013,-0.426311,0.0598013,18,32765
1.06277,-0.40851,0.05699,18,32765
1.06141,-0.411989,0.0572956,18,32765
1.06934,-0.419098,0.058111,18,32765
1.08651,-0.429958,0.0594445,18,32765
1.06652,-0.426138,0.058749,19,32765
1.07432,-0.43346,0.0595731,18,32765
1.10983,-0.45216,0.0618437,18,32765
1.07135,-0.440686,0.0601003,18,32765
1.06983,-0.444297,0.0604625,18,32765
1.06833,-0.447863,0.0607084,18,32765
1.03921,-0.439787,0.0594153,18,32765
1.02853,-0.439342,0.0591868,17,32765
1.04538,-0.450701,0.0604829,18,32765
1.06216,-0.462174,0.0618015,18,32765
1.06059,-0.465707,0.062201,17,32765
1.059,-0.469275,0.0624259,17,32765
1.0574,-0.472829,0.0626988,17,32765
1.05581,-0.476352,0.0629423,17,32765
1.07238,-0.488124,0.0643027,18,32765
1.0163,-0.466651,0.0613538,17,32765
1.06001,-0.491062,0.0642883,17,32765
1.03122,-0.481909,0.0628634,17,32765
1.01151,-0.476873,0.0620431,18,32765
1.02792,-0.488821,0.0634789,18,32765
1.02627,-0.492255,0.0637115,17,32765
1.06952,-0.517451,0.0668778,18,32765
0.995984,-0.486002,0.0626009,18,32765
1.03017,-0.506951,0.0651443,18,32765
1.02844,-0.510422,0.0654456,18,32765
0.991016,-0.495943,0.0634592,18,32765
0.998246,-0.503749,0.0643487,17,32765
1.01437,-0.516083,0.0657216,18,32765
1.01262,-0.519472,0.0659927,17,32765
0.993123,-0.513688,0.065042,18,32765
0.991363,-0.517036,0.0653606,18,32765
0.998432,-0.52503,0.0661586,17,32765
0.979023,-0.518989,0.0653038,18,32765
1.03011,-0.55045,0.0691181,18,32765
0.993143,-0.534863,0.0670026,18,32765
0.99135,-0.538123,0.067443,18,32765
0.989517,-0.541457,0.0676768,18,32765
1.00516,-0.554397,0.0691985,17,32765
0.97712,-0.543198,0.0676231,18,32765
0.992717,-0.556168,0.0692018,18,32765
0.97348,-0.549595,0.0684239,18,32765
0.980315,-0.557753,0.0692363,18,32765
0.987114,-0.565924,0.0702595,17,32765
0.985221,-0.569169,0.0706101,18,32765
0.991939,-0.577431,0.0716264,18,32765
0.972809,-0.57056,0.0707382,17,32765
0.945101,-0.55856,0.0692373,18,32765
0.951799,-0.566777,0.0703034,17,32765
0.992686,-0.595578,0.0738948,18,32765
0.973594,-0.588557,0.0728995,18,32765
1.00574,-0.612457,0.07599,17,32765
0.969667,-0.594907,0.0736959,17,32765
0.993145,-0.613806,0.0761909,18,32765
0.982644,-0.61176,0.0758998,17,32765
0.938333,-0.588463,0.0730896,17,32765
0.986988,-0.623498,0.0774983,17,32765
0.968071,-0.616009,0.0766314,17,32765
0.95763,-0.613759,0.0764479,17,32765
0.972372,-0.627674,0.0782216,17,32765
0.987019,-0.641707,0.0800277,18,32765
0.984904,-0.644877,0.0806088,18,32765
0.982712,-0.648153,0.0810789,17,32765
0.988837,-0.656924,0.0821749,18,32765
0.986629,-0.660142,0.082915,18,32765
1.00099,-0.674482,0.0847669,18,32765
0.965747,-0.655295,0.0825907,18,32765
0.980037,-0.669683,0.0845685,18,32765
0.953142,-0.655916,0.083038,17,32765
0.967341,-0.670389,0.0850316,18,32765
0.997834,-0.696334,0.0885739,18,32765
0.971088,-0.68229,0.0869974,18,32765
0.985142,-0.696885,0.0891404,18,32765
0.982835,-0.700068,0.0896674,18,32765
0.996689,-0.714867,0.0920656,18,32765
0.98622,-0.712247,0.0920494,18,32765
0.959643,-0.69783,0.09066,17,32765
0.981444,-0.718597,0.0937292,18,32765
1.11648,-0.34759,0.0395062,18,32765
1.09627,-0.345167,0.039447,18,32765
1.10466,-0.351721,0.0402769,18,32765
1.09398,-0.352236,0.0405006,18,32765
1.14031,-0.371301,0.0427187,17,32765
1.0821,-0.356338,0.0410345,18,32765
1.08091,-0.359906,0.0413402,18,32765
1.11761,-0.376117,0.0432857,18,32765
1.09745,-0.373311,0.0429276,18,32765
1.08677,-0.373616,0.0430079,18,32765
1.08551,-0.377232,0.0432812,18,32765
1.08423,-0.380857,0.0436207,18,32765
1.07353,-0.381096,0.043545,19,32765
1.09107,-0.391349,0.0447652,19,32765
1.08975,-0.394958,0.0452046,19,32765
1.06965,-0.391715,0.0447902,19,32765
1.06833,-0.395284,0.045033,18,32765
1.06699,-0.398848,0.0453498,17,32765
1.06565,-0.402364,0.0456593,18,32765
1.07365,-0.409408,0.046497,20,32765
1.0816,-0.416553,0.0470838,19,32765
1.06159,-0.412858,0.0465782,19,32765
1.06022,-0.41633,0.0468889,19,32765
1.06812,-0.423501,0.0476182,20,32765
1.05742,-0.423325,0.0475226,19,32765
1.04671,-0.423143,0.0474115,18,32765
1.04526,-0.426686,0.0476159,19,32765
1.04381,-0.430199,0.0479263,20,32765
1.03311,-0.429886,0.0478525,20,32765
1.05007,-0.441075,0.0489494,19,32765
1.03937,-0.440721,0.0487976,19,32765
1.03787,-0.444207,0.0490983,19,32765
1.0547,-0.455621,0.0502092,19,32765
1.02567,-0.447187,0.0491487,19,32765
1.04245,-0.458653,0.0504196,19,32765
1.05914,-0.470275,0.0515298,19,32765
1.03931,-0.465668,0.0509103,18,32765
1.03773,-0.469138,0.0511503,19,32765
1.06342,-0.485021,0.0527699,19,32765
1.04365,-0.480174,0.0521979,19,32765
1.03295,-0.479494,0.0519352,19,32765
1.01324,-0.474468,0.0512443,18,32765
1.02065,-0.482161,0.0519877,19,32765
1.03705,-0.494166,0.0532394,19,32765
1.01737,-0.488983,0.0525447,19,32765
1.02468,-0.496772,0.0533668,19,32765
1.04094,-0.508984,0.0545328,19,32765
1.0213,-0.503622,0.0538784,19,32765
1.01064,-0.502623,0.0537026,19,32765
1.01788,-0.510442,0.0544764,19,32765
0.998321,-0.504833,0.0538392,19,32765
1.00554,-0.512657,0.0545425,18,32765
0.994917,-0.511458,0.054327,19,32765
1.00205,-0.519391,0.0550218,19,32765
1.00027,-0.522777,0.055344,18,32765
0.998482,-0.526163,0.0555592,19,32765
1.00553,-0.534166,0.0563764,19,32765
0.994934,-0.532779,0.0561573,19,32765
0.993178,-0.536018,0.0564056,18,32765
0.991382,-0.539286,0.0568468,19,32765
0.980787,-0.537826,0.0565764,19,32765
0.987705,-0.545934,0.0574006,19,32765
0.968412,-0.539512,0.0566132,18,32765
0.975313,-0.547594,0.0574886,19,32765
0.98218,-0.555703,0.0584428,18,32765
0.988993,-0.563908,0.0591642,19,32765
0.978454,-0.562175,0.0590529,19,32765
0.959288,-0.555393,0.05835,18,32765
0.983303,-0.573652,0.0603213,19,32765
0.981403,-0.576858,0.0606829,19,32765
0.962266,-0.569951,0.0600031,18,32765
0.9775,-0.58336,0.0615239,19,32765
0.975544,-0.586581,0.061942,18,32765
0.956481,-0.579489,0.0611301,19,32765
0.954569,-0.582579,0.0616365,19,32765
0.96112,-0.590971,0.0624671,18,32765
0.976123,-0.604626,0.0641198,18,32765
0.94024,-0.586666,0.062235,18,32765
0.946733,-0.595058,0.0632621,18,32765
0.953187,-0.603493,0.0642702,17,32765
0.951173,-0.606614,0.0647209,17,32765
0.982763,-0.631284,0.0675085,17,32765
0.938772,-0.607351,0.065042,16,32765
0.970214,-0.632207,0.0678156,16,32765
0.951439,-0.624377,0.0672087,17,32765
0.949318,-0.627549,0.0676638,18,32765
0.95551,-0.636229,0.0686535,18,32765
0.945085,-0.633787,0.0687665,18,32765
0.967807,-0.65361,0.0710204,18,32765
0.949141,-0.645501,0.0704226,19,32765
0.963463,-0.659868,0.0722049,18,32765
0.953036,-0.657351,0.0721902,18,32765
0.967229,-0.671857,0.0739978,18,32765
0.965004,-0.674979,0.074637,18,32765
0.938332,-0.6608,0.0733218,17,32765
0.960597,-0.681096,0.0758995,18,32765
0.974586,-0.695805,0.0777096,18,32765
0.96415,-0.693136,0.0779494,18,32765
0.937593,-0.678705,0.0766816,18,32765
0.935324,-0.681731,0.0775348,17,32765
0.941092,-0.69066,0.0789557,18,32765
1.12597,-0.350149,0.0444779,16,32765
1.17251,-0.368774,0.0460594,17,32765
1.12368,-0.35749,0.0439762,16,32765
1.16055,-0.373465,0.0452089,18,32765
1.14035,-0.370996,0.0444394,17,32765
1.14864,-0.37779,0.0446083,17,32765
1.08104,-0.359452,0.0419158,17,32765
1.07039,-0.359769,0.0415485,17,32765
1.09759,-0.37295,0.0425988,18,32765
1.12472,-0.386261,0.0437315,18,32765
1.07623,-0.373605,0.0419239,18,32765
1.08441,-0.380472,0.0422602,18,32765
1.09257,-0.387375,0.0427442,18,32765
1.05365,-0.377527,0.0413004,19,32765
1.07118,-0.387814,0.0419945,18,32765
1.07928,-0.394794,0.0424503,17,32765
1.07797,-0.398335,0.0425478,17,32765
1.08601,-0.405371,0.0430514,17,32765
1.08467,-0.408943,0.0431023,18,32765
1.07397,-0.408973,0.0428924,19,32765
1.0726,-0.412545,0.0429667,19,32765
1.07123,-0.416073,0.0430553,19,32765
1.07917,-0.423187,0.0435911,20,32765
1.0499,-0.415694,0.0425698,19,32765
1.0578,-0.42285,0.0430326,19,32765
1.06564,-0.43014,0.0435756,19,32765
1.08269,-0.441245,0.0445261,19,32765
1.02576,-0.422043,0.042445,19,32765
1.02434,-0.425447,0.0425779,19,32765
1.02293,-0.428819,0.0427964,19,32765
1.0583,-0.447795,0.0445417,18,32765
1.07517,-0.459167,0.0455313,18,32765
1.01857,-0.439013,0.0434772,19,32765
1.03539,-0.450428,0.0445276,18,32765
0.997278,-0.437806,0.043159,18,32765
1.02321,-0.453279,0.0445689,17,32765
1.01255,-0.452627,0.0443709,18,32765
1.01102,-0.456009,0.0446125,18,32765
1.04584,-0.475977,0.0465101,18,32765
1.03513,-0.47535,0.0464102,18,32765
1.01538,-0.470414,0.0458981,18,32765
1.02287,-0.477974,0.0466315,19,32765
1.00321,-0.472825,0.0459947,18,32765
0.992596,-0.471853,0.045913,18,32765
1.02703,-0.492464,0.0478068,18,32765
1.00736,-0.487217,0.0473013,19,32765
1.01468,-0.494966,0.0482062,18,32765
1.01301,-0.49837,0.0483506,18,32765
0.993434,-0.492852,0.0477997,19,32765
0.99178,-0.496141,0.0481348,18,32765
0.981168,-0.49497,0.0480977,19,32765
0.970594,-0.493706,0.0479852,19,32765
0.968893,-0.497002,0.048326,18,32765
0.993829,-0.514013,0.049941,19,32765
1.00094,-0.521968,0.050734,18,32765
0.9638,-0.506723,0.049203,18,32765
0.988576,-0.523955,0.0508816,18,32765
0.977984,-0.52256,0.0507679,18,32765
0.976221,-0.525807,0.0511842,19,32765
1.01836,-0.552857,0.0537082,18,32765
0.990223,-0.541835,0.0526622,19,32765
0.988398,-0.54512,0.0530487,19,32765
0.969118,-0.538652,0.0525704,18,32765
0.967293,-0.541902,0.0527824,18,32765
0.9829,-0.554887,0.0539157,18,32765
0.963672,-0.548257,0.0533914,19,32765
0.961835,-0.551435,0.0537941,18,32765
0.951335,-0.549624,0.0536141,18,32765
0.975347,-0.567922,0.055348,19,32765
0.956208,-0.561051,0.0546667,19,32765
0.971471,-0.574463,0.056007,19,32765
0.926647,-0.55211,0.0538526,18,32765
0.94194,-0.56542,0.0552202,18,32765
0.991347,-0.599511,0.058464,18,32765
0.94672,-0.576763,0.0562617,18,32765
0.944784,-0.579895,0.0566068,18,32765
0.93435,-0.577764,0.0563755,17,32765
0.923963,-0.575531,0.0561789,17,32765
0.98126,-0.615723,0.0601159,18,32765
0.928596,-0.586879,0.0573038,18,32765
0.943485,-0.60067,0.0585872,18,32765
0.958292,-0.61456,0.0599474,18,32765
0.939505,-0.606823,0.0591351,18,32765
0.937491,-0.609902,0.0594185,18,32765
0.910442,-0.596507,0.0580964,17,32765
0.94182,-0.621464,0.0604691,18,32765
0.939807,-0.624479,0.0607306,16,32765
0.970954,-0.649736,0.0631757,17,32765
0.952206,-0.641814,0.0622747,16,32765
1.0079,-0.684199,0.0663312,16,32765
0.98093,-0.670565,0.064954,16,32765
1.0199,-0.701986,0.0679016,16,32765
0.960236,-0.665368,0.0642757,16,32765
0.949881,-0.662748,0.0639573,17,32765
0.947707,-0.665835,0.0641465,17,32765
0.978109,-0.692007,0.0665534,18,32765
0.935253,-0.66612,0.0639239,17,32765
0.965628,-0.692294,0.0662734,18,32765
0.914821,-0.660328,0.0630086,17,32765
0.936838,-0.680979,0.0648298,17,32765
0.91047,-0.666306,0.0630933,17,32765
1.12613,-0.350878,0.0333714,19,32765
1.125,-0.354522,0.0330811,18,32765
1.10478,-0.352165,0.0323136,19,32765
1.10361,-0.355841,0.0320687,19,32765
1.11196,-0.362479,0.032318,19,32765
1.09181,-0.35981,0.0315747,19,32765
1.07166,-0.357047,0.0309152,19,32765
1.0705,-0.360525,0.0309161,18,32765
1.07876,-0.367291,0.0311384,19,32765
1.08701,-0.374064,0.031442,19,32765
1.07632,-0.374393,0.031199,19,32765
1.07507,-0.377959,0.0311684,19,32765
1.0644,-0.378153,0.0310091,19,32765
1.09135,-0.391836,0.0318641,19,32765
1.09005,-0.395452,0.0318206,19,32765
1.0418,-0.381869,0.0305339,18,32765
1.07803,-0.399179,0.0317323,18,32765
1.04862,-0.392223,0.0310342,19,32765
1.07537,-0.406277,0.0319165,19,32765
1.07401,-0.409841,0.0320788,20,32765
1.06331,-0.409826,0.0318741,19,32765
1.05263,-0.409706,0.0316822,19,32765
1.0699,-0.420432,0.0324036,19,32765
1.04992,-0.416579,0.0319467,19,32765
1.04854,-0.420033,0.0320328,18,32765
1.04712,-0.423559,0.0321961,18,32765
1.0642,-0.434627,0.032956,18,32765
1.06273,-0.438184,0.0331662,18,32765
1.05203,-0.437878,0.033015,18,32765
1.05057,-0.441349,0.0332401,17,32765
1.04909,-0.444849,0.033442,18,32765
1.05678,-0.452282,0.0339475,17,32765
1.01855,-0.439951,0.0330482,18,32765
1.03537,-0.451391,0.0339114,18,32765
1.0247,-0.450818,0.0338253,18,32765
0.995774,-0.442081,0.0331361,18,32765
1.01252,-0.453596,0.0339447,18,32765
1.04742,-0.473454,0.035419,18,32765
1.02761,-0.468701,0.0350886,18,32765
1.04416,-0.480547,0.0360177,18,32765
0.98814,-0.458795,0.0344333,18,32765
1.03187,-0.483238,0.0363399,18,32765
1.01219,-0.478108,0.0358934,18,32765
1.01961,-0.485761,0.0365564,19,32765
0.999941,-0.480533,0.0361285,18,32765
0.989309,-0.479544,0.0361311,18,32765
1.00564,-0.491639,0.037267,17,32765
0.995005,-0.490601,0.0370769,18,32765
1.0202,-0.507261,0.0383929,18,32765
1.00956,-0.506166,0.038398,18,32765
0.990001,-0.500544,0.0381194,18,32765
1.01502,-0.517464,0.0394901,19,32765
0.995464,-0.511779,0.0391483,19,32765
0.993729,-0.515119,0.0394341,18,32765
0.991975,-0.518463,0.0397789,18,32765
0.972535,-0.512473,0.0393368,18,32765
0.988462,-0.525083,0.0403772,18,32765
0.986677,-0.528404,0.0407217,18,32765
0.984894,-0.531687,0.0411426,18,32765
0.974343,-0.530167,0.0409851,18,32765
0.99009,-0.543003,0.0420674,18,32765
0.997006,-0.55113,0.0428304,19,32765
0.98644,-0.54954,0.0429245,19,32765
0.993289,-0.557748,0.043523,19,32765
0.974051,-0.551163,0.042941,19,32765
0.972199,-0.55439,0.0433757,20,32765
0.970341,-0.557603,0.0437829,18,32765
0.968468,-0.560825,0.0440939,19,32765
0.975176,-0.569148,0.0447603,18,32765
0.964647,-0.567327,0.0446661,18,32765
0.962694,-0.570609,0.0450192,18,32765
0.943625,-0.563549,0.044546,18,32765
0.950315,-0.571793,0.0453255,18,32765
0.939878,-0.56973,0.0451379,18,32765
0.955048,-0.583217,0.0462801,18,32765
0.953089,-0.586384,0.0466293,18,32765
0.942634,-0.584277,0.0464951,18,32765
0.957651,-0.597941,0.0476613,18,32765
0.964114,-0.606416,0.0484076,19,32765
0.945251,-0.598841,0.047862,18,32765
0.951671,-0.607343,0.048534,19,32765
0.949643,-0.610486,0.0488462,19,32765
0.939257,-0.608135,0.0486544,18,32765
0.945606,-0.616678,0.0493757,19,32765
0.943591,-0.619734,0.049656,19,32765
0.933219,-0.617297,0.0494562,18,32765
0.947847,-0.631368,0.0506042,18,32765
0.95407,-0.640011,0.0513394,19,32765
0.935357,-0.632016,0.0506235,19,32765
0.933255,-0.635096,0.0508708,19,32765
0.947649,-0.649427,0.0520175,19,32765
0.929119,-0.641097,0.051313,19,32765
0.943499,-0.655409,0.052426,18,32765
0.941363,-0.658455,0.052656,18,32765
0.931032,-0.65577,0.0523852,17,32765
0.92886,-0.658828,0.0525715,18,32765
0.943028,-0.673365,0.0536397,19,32765
0.932807,-0.67047,0.0533002,18,32765
0.954918,-0.691036,0.054772,18,32765
0.912235,-0.664801,0.0525968,18,32765
0.926193,-0.679565,0.053468,18,32765
1.10819,-0.342369,0.0170865,17,32765
1.14525,-0.357873,0.0184057,17,32765
1.12501,-0.355525,0.0186585,17,32765
1.04765,-0.334843,0.0178264,16,32765
1.06555,-0.344451,0.0186715,16,32765
1.06441,-0.347942,0.0190304,17,32765
1.06326,-0.351426,0.0194757,17,32765
1.01469,-0.339032,0.0190432,17,32765
1.07986,-0.364795,0.0207715,18,32765
1.0408,-0.355414,0.0204417,18,32765
1.0207,-0.352358,0.020357,17,32765
1.03841,-0.362307,0.0210667,17,32765
1.02777,-0.362412,0.0212944,17,32765
1.03599,-0.369122,0.021894,17,32765
1.04417,-0.375908,0.0224197,17,32765
1.05231,-0.38279,0.0228438,18,32765
1.02287,-0.375928,0.0226929,18,32765
1.02161,-0.379306,0.0230509,18,32765
1.03906,-0.389724,0.0238004,18,32765
1.0471,-0.39672,0.0243217,18,32765
0.999066,-0.38238,0.0234912,18,32765
1.04439,-0.403759,0.0249706,18,32765
1.02441,-0.399962,0.0248391,18,32765
1.05096,-0.414383,0.0257779,17,32765
1.02172,-0.406755,0.0254694,17,32765
1.02962,-0.41389,0.025946,17,32765
0.991179,-0.402276,0.0252818,17,32765
1.01758,-0.416933,0.0263308,18,32765
1.02541,-0.424163,0.0269288,18,32765
1.0332,-0.431447,0.0274541,17,32765
1.02251,-0.431067,0.0274033,18,32765
1.03944,-0.442331,0.0282388,17,32765
0.982841,-0.42213,0.0270196,17,32765
0.999772,-0.433341,0.0277828,18,32765
1.00747,-0.440671,0.028409,18,32765
1.00599,-0.444029,0.0285845,19,32765
1.0045,-0.447377,0.0288624,18,32765
1.02121,-0.458965,0.0296345,19,32765
0.983222,-0.445909,0.028958,19,32765
0.999889,-0.457537,0.0297017,18,32765
0.998312,-0.460943,0.0300818,19,32765
0.9877,-0.46005,0.0300574,18,32765
0.986157,-0.463322,0.0304583,19,32765
0.975591,-0.462278,0.0303566,19,32765
0.955996,-0.456909,0.0301037,18,32765
0.972445,-0.468818,0.0309926,18,32765
0.952861,-0.463369,0.0307295,18,32765
1.00512,-0.493022,0.0325307,19,32765
0.985533,-0.487523,0.0323479,18,32765
0.983908,-0.490774,0.0326464,18,32765
0.964385,-0.485095,0.0323119,17,32765
0.962718,-0.488373,0.0326646,18,32765
0.961048,-0.491644,0.0327568,18,32765
0.977148,-0.504028,0.0337373,18,32765
0.966576,-0.502685,0.0337397,18,32765
0.956046,-0.501232,0.0337999,18,32765
0.945519,-0.499756,0.0337308,18,32765
0.926179,-0.493539,0.0333352,18,32765
0.950937,-0.510808,0.0345482,17,32765
0.949202,-0.513986,0.0351273,18,32765
0.96503,-0.526708,0.0359885,18,32765
0.963261,-0.529916,0.0362922,18,32765
0.952754,-0.528249,0.0362412,18,32765
0.950993,-0.53139,0.0365662,18,32765
0.96663,-0.544343,0.0376284,18,32765
0.947445,-0.537631,0.0374326,18,32765
0.945635,-0.540786,0.0377443,18,32765
0.935178,-0.538907,0.0377024,18,32765
0.933386,-0.541978,0.0380863,18,32765
0.905693,-0.529926,0.0373888,18,32765
0.921113,-0.543102,0.0386061,18,32765
0.936435,-0.556436,0.0396152,18,32765
0.934565,-0.559541,0.0400318,18,32765
0.941242,-0.56779,0.040963,18,32765
0.947932,-0.576009,0.0416945,18,32765
0.963086,-0.589515,0.0428746,18,32765
0.927111,-0.57168,0.0418053,18,32765
0.908255,-0.56414,0.0414676,17,32765
0.931794,-0.583016,0.0430506,17,32765
0.963684,-0.607352,0.0451267,19,32765
0.919484,-0.583736,0.0436121,19,32765
0.951196,-0.608308,0.0456916,19,32765
0.93238,-0.600587,0.0454107,18,32765
0.921981,-0.598239,0.045394,18,32765
0.953452,-0.623105,0.0476485,18,32765
0.959708,-0.631739,0.0486521,19,32765
0.940966,-0.623818,0.0483121,18,32765
0.938922,-0.626851,0.0488289,18,32765
0.936853,-0.629888,0.0494754,19,32765
0.934768,-0.632936,0.0500207,19,32765
0.957424,-0.652872,0.0519409,18,32765
0.922281,-0.633422,0.050735,18,32765
0.920192,-0.636402,0.0513679,18,32765
0.926296,-0.645078,0.052437,18,32765
0.948723,-0.665249,0.0544891,18,32765
0.946508,-0.668346,0.0551009,18,32765
0.919861,-0.654063,0.0543785,17,32765
0.909591,-0.6512,0.0546225,17,32765
0.907475,-0.654086,0.0553205,17,32765
0.937676,-0.680433,0.0580878,16,32765
0.983788,-0.718828,0.062021,16,32765
1.07942,-0.334232,0.00600947,19,32765
1.09742,-0.343698,0.00681593,19,32765
1.08677,-0.344211,0.00729771,19,32765
1.05706,-0.338612,0.00754305,18,32765
1.08447,-0.351354,0.00827771,18,32765
1.07381,-0.351802,0.0085677,19,32765
1.07264,-0.355325,0.00901755,19,32765
1.09044,-0.365162,0.00964733,20,32765
1.07027,-0.362371,0.00995835,19,32765
1.08799,-0.372367,0.0105523,19,32765
1.05839,-0.366192,0.0105752,19,32765
1.05717,-0.369686,0.0109145,20,32765
1.05594,-0.373185,0.0113458,19,32765
1.06412,-0.380002,0.011863,19,32765
1.04405,-0.376714,0.0119804,18,32765
1.04279,-0.380186,0.012201,19,32765
1.0509,-0.387104,0.0127853,19,32765
1.06835,-0.397557,0.0133886,20,32765
1.04829,-0.394079,0.0134838,19,32765
1.06567,-0.40467,0.0140377,20,32765
1.02695,-0.393944,0.0138082,20,32765
1.03493,-0.401012,0.0143127,19,32765
1.01496,-0.397176,0.0143669,19,32765
1.04152,-0.411597,0.0150221,20,32765
1.04943,-0.418745,0.015543,19,32765
1.03875,-0.418515,0.0156533,19,32765
1.02808,-0.41821,0.0157952,20,32765
1.05443,-0.433022,0.0165753,19,32765
1.03449,-0.428903,0.0166471,19,32765
0.996143,-0.416931,0.0163259,19,32765
1.02235,-0.431993,0.0169745,19,32765
1.03008,-0.439358,0.0174668,20,32765
1.01023,-0.434897,0.0174436,19,32765
1.00877,-0.438256,0.0177049,18,32765
1.03477,-0.453662,0.0185699,19,32765
1.01496,-0.449028,0.0184191,19,32765
1.03171,-0.460565,0.0190372,19,32765
1.02102,-0.459951,0.0191169,19,32765
1.01944,-0.463418,0.0195136,20,32765
1.00878,-0.462688,0.0195495,19,32765
1.00719,-0.466133,0.0199338,20,32765
1.00562,-0.469497,0.0201882,20,32765
0.976906,-0.460058,0.0200406,19,32765
1.00248,-0.47614,0.0207808,19,32765
1.00989,-0.483809,0.0212955,20,32765
0.999235,-0.482876,0.021436,19,32765
1.00657,-0.490649,0.0219584,20,32765
0.995915,-0.48967,0.0218245,19,32765
1.00321,-0.497454,0.0224272,20,32765
0.992612,-0.4963,0.022529,20,32765
0.973074,-0.490638,0.0223854,20,32765
0.998122,-0.507549,0.0233681,20,32765
0.987488,-0.506387,0.0232552,20,32765
0.97689,-0.505111,0.0234203,19,32765
0.966317,-0.503765,0.0235174,19,32765
0.973485,-0.511611,0.0241106,19,32765
0.99826,-0.528914,0.0250266,20,32765
0.978825,-0.522863,0.0248328,19,32765
0.968266,-0.521385,0.0248754,20,32765
0.966497,-0.524629,0.025466,19,32765
0.964742,-0.527839,0.0256776,20,32765
0.971721,-0.535882,0.0262184,19,32765
0.94372,-0.524527,0.0257871,19,32765
0.968136,-0.542302,0.0268352,19,32765
0.96632,-0.545513,0.0272274,19,32765
0.955827,-0.543729,0.0274695,19,32765
0.953995,-0.54692,0.027785,19,32765
0.960832,-0.555066,0.0283513,19,32765
0.967625,-0.563259,0.0290059,20,32765
0.97436,-0.571527,0.0296537,20,32765
0.938001,-0.554442,0.0291195,19,32765
0.953276,-0.567863,0.0299475,19,32765
0.959939,-0.576176,0.0306463,18,32765
0.949451,-0.574183,0.0309427,19,32765
0.947579,-0.577247,0.0313026,19,32765
0.954203,-0.585553,0.0320107,18,32765
0.943761,-0.58342,0.0321824,19,32765
0.941843,-0.586487,0.0326288,19,32765
0.939895,-0.58958,0.033054,19,32765
0.954851,-0.603317,0.0341565,20,32765
0.961275,-0.611824,0.0349458,19,32765
0.925566,-0.59343,0.0341869,19,32765
0.948789,-0.612722,0.0356576,18,32765
0.929974,-0.604975,0.0354235,18,32765
0.944689,-0.618966,0.0366612,18,32765
0.942615,-0.622086,0.0372375,18,32765
0.915589,-0.608561,0.0367426,18,32765
0.938511,-0.628198,0.0382624,19,32765
0.93644,-0.631241,0.0389099,19,32765
0.94262,-0.639909,0.0398054,20,32765
0.956993,-0.654275,0.041097,19,32765
0.946554,-0.651787,0.0413445,19,32765
0.927982,-0.643464,0.041265,19,32765
0.901286,-0.629302,0.0407647,19,32765
0.93193,-0.655184,0.0428967,18,32765
0.946061,-0.669782,0.044262,19,32765
0.919423,-0.65547,0.043821,18,32765
0.92539,-0.664254,0.0449479,18,32765
0.923234,-0.667198,0.0456593,18,32765
0.929142,-0.676019,0.0468456,18,32765
0.90271,-0.661328,0.046477,18,32765
1.07953,-0.33377,0.0103763,19,32765
1.07843,-0.337309,0.0101373,18,32765
1.09639,-0.346872,0.0101203,18,32765
1.09527,-0.350406,0.00989129,18,32765
1.04656,-0.33856,0.00929381,18,32765
1.09298,-0.357487,0.00972744,18,32765
1.05384,-0.348476,0.00931731,19,32765
1.02425,-0.342396,0.00899979,18,32765
1.0515,-0.35547,0.00909096,19,32765
1.08814,-0.371968,0.00951578,18,32765
1.07743,-0.372353,0.00943849,18,32765
1.06678,-0.372553,0.00939645,18,32765
1.03729,-0.365988,0.00908277,19,32765
1.04551,-0.372723,0.00921438,18,32765
1.01605,-0.365998,0.00904209,18,32765
1.02422,-0.372821,0.00926822,19,32765
1.0605,-0.390068,0.00958284,19,32765
1.03108,-0.383118,0.00947472,20,32765
1.02981,-0.386529,0.00965265,19,32765
1.02853,-0.38991,0.0096296,19,32765
1.01789,-0.389747,0.00977705,20,32765
1.01659,-0.393123,0.00988313,19,32765
1.03392,-0.40373,0.0102645,19,32765
1.02328,-0.403475,0.0103033,19,32765
1.00336,-0.399455,0.01032,19,32765
1.00202,-0.402785,0.0105099,19,32765
1.03773,-0.421177,0.0110807,19,32765
0.999314,-0.409454,0.0108581,19,32765
1.00716,-0.41665,0.0112087,19,32765
1.00576,-0.420029,0.0113892,19,32765
0.995124,-0.419517,0.0115381,19,32765
1.02133,-0.434555,0.0121194,19,32765
1.04745,-0.449761,0.0126462,19,32765
0.981712,-0.425437,0.0120916,18,32765
0.998581,-0.436776,0.012748,19,32765
0.969656,-0.428028,0.0126401,18,32765
0.995612,-0.443493,0.0130835,19,32765
1.00323,-0.450929,0.0135468,19,32765
0.965282,-0.437783,0.0132874,18,32765
1.00019,-0.457621,0.0141191,18,32765
0.980486,-0.452602,0.0141101,19,32765
0.988033,-0.460085,0.0145733,19,32765
0.977426,-0.459156,0.0146587,18,32765
0.993944,-0.471,0.0153331,19,32765
0.965283,-0.461407,0.015244,19,32765
0.954716,-0.460301,0.0155177,18,32765
0.980159,-0.47658,0.0161486,19,32765
0.969561,-0.475492,0.0160557,19,32765
0.958982,-0.474331,0.0162597,19,32765
0.957365,-0.477577,0.0165365,18,32765
0.955737,-0.480811,0.0169607,19,32765
0.94518,-0.479523,0.0171351,19,32765
0.961349,-0.491824,0.0178047,19,32765
0.959707,-0.495003,0.0182739,19,32765
0.949174,-0.493588,0.0184384,19,32765
0.947498,-0.496785,0.0187666,19,32765
0.972332,-0.513983,0.019779,19,32765
0.952904,-0.507914,0.0199427,18,32765
0.959993,-0.515838,0.0206049,18,32765
0.958265,-0.519036,0.0207527,18,32765
0.956533,-0.522206,0.0211157,19,32765
0.954775,-0.525397,0.0215192,19,32765
0.961769,-0.5334,0.0220447,19,32765
0.94253,-0.526831,0.0220458,19,32765
0.940758,-0.529971,0.0224538,19,32765
0.947674,-0.538038,0.0230174,19,32765
0.928486,-0.531309,0.0228958,19,32765
0.935372,-0.539378,0.0234604,18,32765
0.933569,-0.542476,0.0238367,19,32765
0.94038,-0.550624,0.0244617,19,32765
0.955756,-0.56391,0.0252108,19,32765
0.953863,-0.567094,0.0255002,19,32765
0.960555,-0.575368,0.0261709,18,32765
0.924395,-0.557892,0.0255118,18,32765
0.931073,-0.566148,0.0260842,19,32765
0.903622,-0.553543,0.0256225,18,32765
0.927288,-0.572299,0.0266792,19,32765
0.916907,-0.570056,0.026771,18,32765
0.93196,-0.583682,0.0276646,18,32765
0.921564,-0.581423,0.0276936,18,32765
0.928081,-0.589803,0.0282353,18,32765
0.917697,-0.587481,0.0282511,18,32765
0.915783,-0.590446,0.0285518,19,32765
0.922258,-0.598823,0.0291614,19,32765
0.937057,-0.612723,0.0299068,18,32765
0.926714,-0.610248,0.029976,19,32765
0.924702,-0.613281,0.0301934,19,32765
0.930989,-0.621859,0.0308272,18,32765
0.90402,-0.608223,0.0302142,18,32765
0.926824,-0.628023,0.0313647,18,32765
0.89999,-0.614141,0.030802,18,32765
0.955652,-0.656687,0.0330317,17,32765
0.937088,-0.648385,0.0326061,17,32765
0.967793,-0.674253,0.0340591,17,32765
0.924689,-0.648671,0.0327987,16,32765
0.971576,-0.686246,0.0347393,17,32765
0.904174,-0.643044,0.0326306,17,32765
0.91835,-0.657585,0.0333924,18,32765
0.900034,-0.648807,0.0329861,17,32765
0.897969,-0.651658,0.0330517,17,32765
0.912041,-0.666296,0.0336265,17,32765
1.07936,-0.334493,-0.000257619,19,32765
1.09734,-0.344023,-0.000504667,19,32765
1.08667,-0.3446,-0.000694361,20,32765
1.0665,-0.342004,-0.000904543,19,32765
1.08441,-0.351632,-0.00109353,19,32765
1.06426,-0.348916,-0.00106283,19,32765
1.07261,-0.355524,-0.00114473,19,32765
1.03352,-0.346316,-0.00116987,18,32765
1.03234,-0.349822,-0.00132513,18,32765
1.05006,-0.359808,-0.00125494,17,32765
1.0394,-0.360066,-0.00123768,17,32765
1.02878,-0.360144,-0.00118648,16,32765
1.02762,-0.363447,-0.00124942,16,32765
1.04526,-0.373531,-0.00122264,15,32765
1.05343,-0.380376,-0.00115337,16,32765
1.04275,-0.380484,-0.000997361,17,32765
1.05085,-0.387453,-0.00103086,17,32765
1.02145,-0.380457,-0.000857613,17,32765
1.04826,-0.394409,-0.000699363,17,32765
1.01891,-0.387201,-0.000702727,16,32765
1.03629,-0.397757,-0.000475627,17,32765
1.00699,-0.390359,-0.000356954,17,32765
1.01501,-0.397313,-0.000163158,17,32765
1.01369,-0.400672,-3.23428e-05,17,32765
0.99378,-0.396612,0.000171107,16,32765
0.992454,-0.399918,0.000359968,17,32765
0.991107,-0.403244,0.000534091,17,32765
0.99901,-0.410339,0.000712982,17,32765
1.01609,-0.42138,0.000979244,17,32765
0.986992,-0.413212,0.00113051,17,32765
0.985597,-0.416529,0.00138232,17,32765
0.993407,-0.423723,0.00164968,18,32765
0.982813,-0.423055,0.00182216,18,32765
1.01807,-0.442293,0.00212127,18,32765
0.998247,-0.437718,0.0025142,18,32765
0.978471,-0.432998,0.00271405,18,32765
1.01353,-0.452604,0.00290367,18,32765
0.993766,-0.447793,0.00319226,18,32765
0.964939,-0.438726,0.00333842,17,32765
0.963475,-0.441929,0.00365742,17,32765
0.971054,-0.449377,0.00393808,18,32765
0.978608,-0.456845,0.00430521,17,32765
0.968013,-0.455884,0.0044832,17,32765
0.984536,-0.467722,0.00496706,17,32765
0.964914,-0.4624,0.00520584,17,32765
0.963351,-0.465643,0.00562674,16,32765
0.952809,-0.464459,0.00576137,18,32765
0.942253,-0.463278,0.00576173,17,32765
0.940677,-0.466465,0.00610854,16,32765
0.939086,-0.469656,0.00638102,16,32765
0.973199,-0.49085,0.00705703,17,32765
0.935872,-0.476018,0.00712869,16,32765
0.925352,-0.474624,0.00739508,16,32765
0.897121,-0.463913,0.0076213,15,32765
0.931031,-0.485401,0.00825148,15,32765
0.947084,-0.49785,0.00873771,15,32765
0.98074,-0.519768,0.00955582,15,32765
0.943662,-0.504289,0.00973074,15,32765
0.95076,-0.512201,0.0102957,15,32765
0.931466,-0.505832,0.0102497,15,32765
0.99995,-0.54733,0.0114039,15,32765
0.928065,-0.51203,0.0109969,15,32765
0.926358,-0.515104,0.011314,15,32765
0.942081,-0.527959,0.0119302,15,32765
0.914186,-0.516353,0.0119964,15,32765
0.895072,-0.509509,0.0121048,15,32765
0.910682,-0.522493,0.0126359,15,32765
0.926248,-0.535527,0.0132249,16,32765
0.898539,-0.523501,0.0132174,16,32765
0.905409,-0.531551,0.0137349,17,32765
0.89502,-0.529477,0.0138863,18,32765
0.919007,-0.547826,0.0145668,18,32765
0.942903,-0.566301,0.0154093,19,32765
0.932453,-0.56426,0.0155483,19,32765
0.947641,-0.577767,0.016177,19,32765
0.920164,-0.565191,0.0160019,19,32765
0.92677,-0.57352,0.0164826,20,32765
0.93336,-0.581852,0.0169777,19,32765
0.914493,-0.574292,0.0170605,19,32765
0.92948,-0.588009,0.0176606,19,32765
0.935969,-0.596434,0.0181125,20,32765
0.93398,-0.599536,0.0183911,19,32765
0.932025,-0.602561,0.0186983,20,32765
0.921697,-0.600098,0.0188786,19,32765
0.936478,-0.614028,0.0194382,19,32765
0.934478,-0.617057,0.0197785,19,32765
0.907466,-0.603512,0.0194633,19,32765
0.922085,-0.617618,0.02018,18,32765
0.936585,-0.631884,0.0207654,19,32765
0.926213,-0.629359,0.0209017,19,32765
0.899389,-0.615446,0.0206204,19,32765
0.913841,-0.629717,0.0212406,19,32765
0.920015,-0.638363,0.0215746,19,32765
0.942532,-0.658506,0.0224548,18,32765
0.924036,-0.650048,0.0222483,18,32765
0.930087,-0.658806,0.0226371,18,32765
0.903517,-0.644407,0.0222693,18,32765
0.909553,-0.653147,0.0226435,18,32765
0.899362,-0.650182,0.0226273,18,32765
0.905372,-0.658921,0.0228986,18,32765
0.919403,-0.673615,0.0232881,18,32765
1.08001,-0.332005,-0.0158275,19,32765
1.04073,-0.323684,-0.0146606,18,32765
1.03967,-0.327074,-0.0141496,18,32765
1.02908,-0.327446,-0.0135104,18,32765
1.04703,-0.336979,-0.0131877,19,32765
1.05544,-0.343483,-0.0128546,18,32765
1.04482,-0.343798,-0.0123581,18,32765
1.04371,-0.347174,-0.0117899,19,32765
1.02361,-0.344225,-0.0112567,19,32765
1.01299,-0.344427,-0.0107299,19,32765
1.01183,-0.34783,-0.0102622,18,32765
1.039,-0.361081,-0.0100944,18,32765
1.03778,-0.364563,-0.00988807,18,32765
1.046,-0.371355,-0.00947491,19,32765
1.01652,-0.364692,-0.00893344,19,32765
1.03413,-0.374835,-0.00857792,19,32765
1.00472,-0.367933,-0.00807455,19,32765
1.03165,-0.38163,-0.00797972,19,32765
1.03039,-0.385022,-0.00762556,19,32765
1.02911,-0.388433,-0.0072426,19,32765
1.00913,-0.384732,-0.00673682,19,32765
0.989149,-0.380979,-0.0063276,19,32765
1.0158,-0.395232,-0.00603341,19,32765
1.01445,-0.398694,-0.00577346,20,32765
1.0224,-0.405784,-0.0055009,19,32765
0.9932,-0.39803,-0.00500116,19,32765
0.982584,-0.397628,-0.00463743,18,32765
0.981264,-0.400875,-0.00439322,19,32765
1.03539,-0.427028,-0.00436167,19,32765
0.987792,-0.411282,-0.00379411,19,32765
1.00484,-0.422362,-0.0035369,19,32765
0.975787,-0.41404,-0.00323288,19,32765
1.00197,-0.42913,-0.00290952,19,32765
0.991326,-0.428564,-0.00254904,19,32765
0.999051,-0.435882,-0.00228068,19,32765
0.979262,-0.43121,-0.00207407,19,32765
0.996078,-0.442635,-0.00171004,19,32765
0.994606,-0.445933,-0.00140171,20,32765
0.965783,-0.436878,-0.00105826,19,32765
0.964294,-0.440156,-0.000712689,19,32765
0.980951,-0.451812,-0.000491243,19,32765
0.988473,-0.459371,-0.000173466,19,32765
0.968815,-0.454199,0.000102469,19,32765
0.994432,-0.470218,0.000527713,19,32765
0.965772,-0.460634,0.000588969,19,32765
0.946217,-0.455163,0.000886718,20,32765
0.980676,-0.475787,0.0013297,20,32765
0.970074,-0.474716,0.00126255,19,32765
0.941579,-0.46468,0.00147216,19,32765
0.975819,-0.485667,0.00204139,20,32765
0.947388,-0.475449,0.0021647,19,32765
0.954723,-0.483112,0.00247306,18,32765
0.944177,-0.481791,0.00279526,19,32765
0.942527,-0.485009,0.00307873,19,32765
0.931982,-0.48363,0.00334308,19,32765
0.930343,-0.486772,0.00376579,19,32765
0.928705,-0.489887,0.00413127,19,32765
0.92706,-0.492992,0.00444007,18,32765
0.916531,-0.491473,0.00496828,18,32765
0.93249,-0.504018,0.00534406,18,32765
0.895665,-0.48801,0.00552348,18,32765
0.902793,-0.495813,0.00588703,18,32765
0.883624,-0.489154,0.00610071,17,32765
0.881994,-0.492084,0.00640593,16,32765
0.923935,-0.519514,0.00707121,16,32765
0.896125,-0.507748,0.00722519,16,32765
0.911786,-0.52066,0.00768366,16,32765
0.901386,-0.518689,0.00804949,15,32765
0.882354,-0.511647,0.0082684,15,32765
0.872019,-0.50952,0.00853423,14,32765
0.89615,-0.527665,0.00914464,14,32765
