x, y, z, intensity, ring
1.06086,-0.288547,-0.0363309,19,32765
1.031,-0.284086,-0.0351061,19,32765
1.03969,-0.290181,-0.0350686,19,32765
1.02913,-0.290882,-0.0344104,19,32765
1.0474,-0.299768,-0.0346741,18,32765
1.03681,-0.300445,-0.0340843,18,32765
1.03583,-0.303827,-0.0337439,18,32765
1.04444,-0.310036,-0.0336515,18,32765
1.02429,-0.307667,-0.0325806,19,32765
1.04245,-0.316757,-0.0327595,18,32765
1.04141,-0.320171,-0.0324468,18,32765
1.04039,-0.323507,-0.0319881,18,32765
1.03938,-0.326811,-0.0314883,18,32765
1.02883,-0.327065,-0.0306994,18,32765
1.0278,-0.330327,-0.0301104,18,32765
1.01721,-0.330632,-0.0293521,18,32765
1.02567,-0.336998,-0.0290273,18,32765
1.28885,0.0213154,-0.0501435,16,32765
1.29888,0.0170944,-0.0512586,17,32765
1.25894,0.0124095,-0.0502397,16,32765
1.28893,0.00839607,-0.0519421,17,32765
1.29892,0.00415421,-0.0527197,17,32765
1.28892,-0.000198178,-0.0528615,17,32765
1.28889,-0.00454118,-0.0532343,17,32765
1.26888,-0.00875339,-0.0527114,17,32765
1.22886,-0.012579,-0.051451,17,32765
1.23878,-0.0167475,-0.052267,17,32765
1.2487,-0.0209903,-0.052927,16,32765
1.24861,-0.0251515,-0.0532078,17,32765
1.24851,-0.0293809,-0.0533585,17,32765
1.22842,-0.0331918,-0.0528276,16,32765
1.24826,-0.0379723,-0.0539706,16,32765
1.23813,-0.0418465,-0.053774,17,32765
1.26792,-0.0471129,-0.0553219,17,32765
1.24779,-0.0504801,-0.0545473,17,32765
1.18772,-0.0519917,-0.0521128,16,32765
1.20749,-0.0568776,-0.0531378,17,32765
1.18734,-0.0598585,-0.0524205,16,32765
1.18712,-0.0638687,-0.0526149,17,32765
1.16695,-0.0666838,-0.0517687,17,32765
1.22654,-0.0742663,-0.0546176,18,32765
1.20635,-0.0770818,-0.0536464,17,32765
1.1662,-0.0784649,-0.0521165,17,32765
1.1759,-0.0830916,-0.0525822,17,32765
1.1756,-0.0870431,-0.0528154,17,32765
1.15537,-0.0895088,-0.0519815,17,32765
1.16503,-0.0942098,-0.0523401,17,32765
1.1647,-0.0981542,-0.0523938,17,32765
1.17431,-0.102953,-0.0529032,17,32765
1.17396,-0.106895,-0.0528924,17,32765
1.14375,-0.108036,-0.0515543,17,32765
1.1931,-0.116745,-0.0537697,17,32765
1.143,-0.115772,-0.051561,18,32765
1.11279,-0.116526,-0.0502525,17,32765
1.16205,-0.125655,-0.0524419,17,32765
1.13183,-0.126248,-0.0511478,16,32765
1.13141,-0.130028,-0.0510878,17,32765
1.15081,-0.136171,-0.0518945,17,32765
1.1206,-0.136392,-0.0505642,17,32765
1.11023,-0.138867,-0.0500515,17,32765
1.13949,-0.146415,-0.0512752,17,32765
1.1291,-0.148894,-0.0507286,18,32765
1.12859,-0.152685,-0.0506786,18,32765
1.12807,-0.156517,-0.050648,18,32765
1.11764,-0.158966,-0.0500332,17,32765
1.11709,-0.162818,-0.0499418,17,32765
1.12642,-0.16811,-0.0502498,18,32765
1.10608,-0.168975,-0.0492575,18,32765
1.1055,-0.172746,-0.049201,18,32765
1.10491,-0.176508,-0.0491602,18,32765
1.08459,-0.17703,-0.0481649,18,32765
1.11356,-0.1856,-0.0493886,18,32765
1.10308,-0.187703,-0.0488323,18,32765
1.08275,-0.188022,-0.0478551,18,32765
1.08213,-0.191681,-0.0475424,18,32765
1.09131,-0.197113,-0.0478951,18,32765
1.10047,-0.202575,-0.0483049,18,32765
1.09978,-0.206286,-0.0482509,19,32765
1.08927,-0.208135,-0.0476205,18,32765
1.07877,-0.209859,-0.0471481,19,32765
1.05845,-0.209639,-0.0461384,18,32765
1.07734,-0.217146,-0.0468673,18,32765
1.05703,-0.216767,-0.0459212,18,32765
1.06608,-0.222365,-0.046145,18,32765
1.06533,-0.225952,-0.0460255,18,32765
1.07433,-0.231649,-0.0463825,18,32765
1.0638,-0.233104,-0.0457929,18,32765
1.063,-0.236717,-0.0458616,17,32765
1.04271,-0.235879,-0.0448061,18,32765
1.06139,-0.243873,-0.0455784,19,32765
1.0703,-0.249698,-0.0459167,19,32765
1.05975,-0.25094,-0.0453998,19,32765
1.05892,-0.254447,-0.0452596,19,32765
1.04838,-0.255536,-0.0448383,19,32765
1.05723,-0.2614,-0.0451079,19,32765
1.04666,-0.262513,-0.0445978,19,32765
1.04578,-0.265999,-0.0445392,19,32765
1.05456,-0.272011,-0.0448814,20,32765
1.03433,-0.270434,-0.0439522,19,32765
1.03343,-0.273832,-0.0439675,19,32765
1.05184,-0.282385,-0.0446363,20,32765
1.05091,-0.285834,-0.0446156,19,32765
1.04033,-0.286644,-0.0442178,19,32765
1.02013,-0.284728,-0.0432178,19,32765
1.01918,-0.28809,-0.0432097,19,32765
1.03743,-0.296969,-0.0440568,19,32765
1.02687,-0.297535,-0.0437024,18,32765
1.00673,-0.295243,-0.0428444,18,32765
1.01536,-0.301296,-0.0432472,18,32765
1.02397,-0.307401,-0.0435689,19,32765
1.0134,-0.307806,-0.0432315,18,32765
1.03149,-0.316995,-0.0441353,18,32765
1.00181,-0.311485,-0.0430282,18,32765
0.991274,-0.311704,-0.0426154,18,32765
1.00933,-0.320865,-0.0434604,19,32765
1.01784,-0.32705,-0.0439966,19,32765
0.997808,-0.324041,-0.0433264,18,32765
0.987286,-0.324055,-0.0430779,18,32765
1.24837,0.0206578,-0.0603693,17,32765
1.27836,0.0168254,-0.0625331,17,32765
1.29836,0.0127882,-0.0640859,17,32765
1.27839,0.00830683,-0.0636021,17,32765
1.25842,0.00399381,-0.0629715,17,32765
1.2584,-0.000235151,-0.0635058,16,32765
1.22841,-0.00437925,-0.0623491,16,32765
1.22837,-0.00853565,-0.0626418,17,32765
1.24829,-0.0128512,-0.0640665,17,32765
1.22825,-0.0166875,-0.0634356,17,32765
1.24815,-0.0210751,-0.0647053,17,32765
1.25804,-0.0254469,-0.0655059,17,32765
1.20802,-0.0285396,-0.0630521,17,32765
1.22786,-0.0333012,-0.0644169,17,32765
1.20776,-0.0368734,-0.0636441,17,32765
1.22758,-0.0416357,-0.0649292,17,32765
1.20746,-0.0450201,-0.0641084,17,32765
1.2073,-0.0490058,-0.0642018,17,32765
1.18717,-0.0521385,-0.0633241,16,32765
1.19696,-0.0565638,-0.064004,17,32765
1.2167,-0.0615346,-0.0652355,17,32765
1.17659,-0.0635017,-0.0632892,18,32765
1.15643,-0.0662886,-0.062254,17,32765
1.20602,-0.0732494,-0.065128,18,32765
1.16592,-0.0747258,-0.0628946,18,32765
1.14572,-0.0773205,-0.0620585,18,32765
1.17533,-0.0833015,-0.0636974,18,32765
1.17503,-0.0872611,-0.0639303,18,32765
1.17472,-0.0912782,-0.0639923,18,32765
1.15451,-0.0936348,-0.0628187,17,32765
1.16413,-0.0983944,-0.0634137,17,32765
1.13395,-0.099705,-0.0618469,17,32765
1.14355,-0.104429,-0.0623786,18,32765
1.16307,-0.110179,-0.0634699,18,32765
1.15276,-0.113123,-0.062902,18,32765
1.15236,-0.117056,-0.0629336,18,32765
1.13209,-0.118888,-0.0618855,18,32765
1.13169,-0.122721,-0.0618326,19,32765
1.13126,-0.126544,-0.0618828,19,32765
1.14076,-0.131475,-0.0623648,18,32765
1.14031,-0.135311,-0.0622757,18,32765
1.12994,-0.137918,-0.0617457,18,32765
1.12948,-0.141673,-0.0616791,19,32765
1.13891,-0.146752,-0.0621028,18,32765
1.12852,-0.149236,-0.0614618,18,32765
1.13791,-0.154376,-0.0619501,18,32765
1.12749,-0.156874,-0.0613804,18,32765
1.11706,-0.159328,-0.0606711,18,32765
1.12639,-0.164631,-0.0611155,18,32765
1.10608,-0.165534,-0.0599114,18,32765
1.12525,-0.17238,-0.0608681,18,32765
1.11479,-0.174681,-0.0602768,18,32765
1.10433,-0.176904,-0.0597022,18,32765
1.07416,-0.175814,-0.0579863,18,32765
1.09327,-0.182722,-0.0589616,18,32765
1.11233,-0.189801,-0.0599032,18,32765
1.10185,-0.191867,-0.0592656,18,32765
1.11104,-0.197346,-0.0594732,18,32765
1.09072,-0.19755,-0.0583406,18,32765
1.08023,-0.199398,-0.0577932,18,32765
1.05993,-0.199358,-0.05669,18,32765
1.08868,-0.208594,-0.0580647,18,32765
1.09778,-0.214145,-0.0585431,18,32765
1.06766,-0.212045,-0.0568207,18,32765
1.07674,-0.217622,-0.057216,18,32765
1.06622,-0.219254,-0.0566006,18,32765
1.06548,-0.222852,-0.0563987,18,32765
1.0745,-0.228524,-0.056795,18,32765
1.06396,-0.230044,-0.0562136,18,32765
1.04369,-0.229325,-0.0550168,18,32765
1.07214,-0.239409,-0.056628,18,32765
1.04212,-0.236391,-0.0548692,19,32765
1.06078,-0.244403,-0.055829,19,32765
1.05996,-0.247964,-0.0557494,19,32765
1.06885,-0.253791,-0.0561598,19,32765
1.03888,-0.250318,-0.0544901,19,32765
1.05746,-0.258459,-0.0555018,19,32765
1.02752,-0.254754,-0.0538322,19,32765
1.02667,-0.258207,-0.0537371,19,32765
1.04515,-0.266571,-0.0546918,19,32765
1.05392,-0.272596,-0.0551274,19,32765
1.0337,-0.271015,-0.0540097,18,32765
1.06176,-0.282114,-0.055539,18,32765
1.0319,-0.277798,-0.0538735,18,32765
1.05026,-0.286446,-0.0548592,18,32765
1.0493,-0.289917,-0.0548701,17,32765
1.03872,-0.29072,-0.0541816,18,32765
1.03776,-0.294152,-0.0541726,17,32765
1.03677,-0.297602,-0.0542036,17,32765
1.02621,-0.298168,-0.0537546,17,32765
1.03482,-0.304325,-0.054214,17,32765
1.04341,-0.310481,-0.0547099,17,32765
1.03286,-0.310933,-0.0541202,17,32765
1.00318,-0.305548,-0.0526853,17,32765
1.02125,-0.314725,-0.0537752,17,32765
1.03927,-0.324035,-0.0549029,17,32765
1.01917,-0.321373,-0.0538917,17,32765
0.999126,-0.318509,-0.0529089,17,32765
0.979112,-0.315488,-0.0520218,18,32765
0.997109,-0.324724,-0.0531833,18,32765
0.996073,-0.327859,-0.0533481,18,32765
1.26723,0.0229394,-0.0805729,16,32765
1.25735,0.0184159,-0.0795398,17,32765
1.24746,0.013908,-0.0784952,17,32765
1.24752,0.00966072,-0.0781858,17,32765
1.21762,0.00532746,-0.0760198,17,32765
1.22763,0.00124485,-0.0763309,17,32765
1.24759,-0.00289054,-0.077508,17,32765
1.22763,-0.00696585,-0.0760449,17,32765
1.21763,-0.0110355,-0.0751303,17,32765
1.22758,-0.0152697,-0.0755551,18,32765
1.20757,-0.0190851,-0.074292,18,32765
1.22747,-0.0234891,-0.0753017,17,32765
1.22739,-0.0276118,-0.0751834,17,32765
1.24726,-0.0322378,-0.0762395,17,32765
1.22719,-0.0358685,-0.0749088,17,32765
1.257,-0.0410774,-0.0766469,17,32765
1.21696,-0.0439176,-0.0740932,17,32765
1.20683,-0.0476934,-0.0734484,17,32765
1.17675,-0.0504489,-0.0714593,16,32765
1.18655,-0.0548746,-0.0720141,17,32765
1.19634,-0.0593612,-0.0724975,17,32765
1.19614,-0.0633799,-0.0723769,17,32765
1.17599,-0.0662647,-0.0711134,17,32765
1.1359,-0.0678006,-0.0687603,17,32765
1.1556,-0.072892,-0.0698693,17,32765
1.18523,-0.0787749,-0.0715871,17,32765
1.16505,-0.0814055,-0.0703003,17,32765
1.17472,-0.0860547,-0.07086,17,32765
1.15453,-0.0884698,-0.069563,17,32765
1.16417,-0.0931801,-0.0701674,17,32765
1.15391,-0.096316,-0.0694222,17,32765
1.13368,-0.0985083,-0.0682571,17,32765
1.14329,-0.103236,-0.0688085,17,32765
1.133,-0.106151,-0.0681787,18,32765
1.12269,-0.10904,-0.0675953,17,32765
1.12232,-0.112849,-0.0675353,17,32765
1.112,-0.115648,-0.0669867,18,32765
1.12152,-0.120536,-0.0675394,18,32765
1.13103,-0.125477,-0.0680751,18,32765
1.12068,-0.128162,-0.0674364,18,32765
1.13016,-0.133097,-0.0680346,18,32765
1.09997,-0.133301,-0.066263,18,32765
1.10943,-0.138237,-0.0667926,18,32765
1.10896,-0.141984,-0.0667205,17,32765
1.10847,-0.145738,-0.0667593,17,32765
1.10796,-0.149573,-0.0667214,17,32765
1.10744,-0.153391,-0.0666416,18,32765
1.09703,-0.155792,-0.0659995,17,32765
1.0965,-0.159489,-0.066009,17,32765
1.11571,-0.166135,-0.0670811,18,32765
1.13487,-0.172926,-0.0682803,17,32765
1.11455,-0.173743,-0.0670387,18,32765
1.08438,-0.172872,-0.0651331,18,32765
1.08379,-0.176572,-0.0650161,18,32765
1.09304,-0.181857,-0.0655598,17,32765
1.09242,-0.185545,-0.0654592,18,32765
1.09179,-0.189235,-0.0654513,18,32765
1.10097,-0.194658,-0.0660503,18,32765
1.08067,-0.194853,-0.0647057,17,32765
1.08002,-0.198487,-0.0645164,18,32765
1.07936,-0.202088,-0.0644252,18,32765
1.06888,-0.203781,-0.0637442,18,32765
1.07801,-0.209212,-0.0641629,18,32765
1.07731,-0.212836,-0.0640395,18,32765
1.0668,-0.214547,-0.0632515,18,32765
1.06606,-0.218209,-0.063181,18,32765
1.06533,-0.221818,-0.0630412,18,32765
1.03528,-0.21922,-0.061129,17,32765
1.08335,-0.233169,-0.0638426,18,32765
1.04357,-0.228261,-0.061331,17,32765
1.05254,-0.233986,-0.0617381,18,32765
1.04201,-0.23536,-0.0610458,18,32765
1.0315,-0.236641,-0.0600845,18,32765
1.05016,-0.244605,-0.0611178,18,32765
1.05908,-0.250342,-0.0614888,19,32765
1.02913,-0.246859,-0.0595485,19,32765
1.05743,-0.257347,-0.0610071,19,32765
1.03719,-0.256071,-0.0596228,19,32765
1.04603,-0.261956,-0.0599339,18,32765
1.05486,-0.26789,-0.0601241,19,32765
1.05398,-0.27138,-0.0598385,19,32765
1.04344,-0.272299,-0.0589911,18,32765
1.03291,-0.273165,-0.058163,17,32765
1.03203,-0.276551,-0.0578043,18,32765
1.06004,-0.287793,-0.0591434,18,32765
1.03022,-0.283329,-0.0571826,17,32765
1.04853,-0.2921,-0.0579576,17,32765
1.05719,-0.298291,-0.058102,17,32765
1.01783,-0.290746,-0.0556347,17,32765
1.02649,-0.296849,-0.0557518,17,32765
1.03512,-0.303023,-0.0557836,17,32765
1.02457,-0.303528,-0.0549651,17,32765
1.02361,-0.306852,-0.0545331,17,32765
1.00353,-0.30433,-0.0530975,17,32765
1.02167,-0.313425,-0.0535164,17,32765
1.00159,-0.310805,-0.0520592,17,32765
1.01965,-0.320074,-0.0525569,18,32765
1.0091,-0.320399,-0.051541,18,32765
1.0176,-0.326725,-0.0514451,18,32765
1.01658,-0.329956,-0.0508849,17,32765
0.996607,-0.32688,-0.0492286,18,32765
1.24647,0.0225609,-0.0910685,16,32765
1.27649,0.0186824,-0.0928494,17,32765
1.25663,0.0139856,-0.0909822,17,32765
1.22677,0.00946549,-0.0885116,17,32765
1.20687,0.00523613,-0.0867854,16,32765
1.21688,0.00117896,-0.0871933,17,32765
1.17698,-0.00279017,-0.084274,16,32765
1.19693,-0.00686614,-0.085485,16,32765
1.2069,-0.0110236,-0.0859035,16,32765
1.19689,-0.0149829,-0.0850072,17,32765
1.20681,-0.0191793,-0.0856811,17,32765
1.17684,-0.0226336,-0.0833474,17,32765
1.19671,-0.0270471,-0.0846446,17,32765
1.18665,-0.0308059,-0.0837808,17,32765
1.18654,-0.0348253,-0.0836734,17,32765
1.17645,-0.0385994,-0.0828869,17,32765
1.16635,-0.0422543,-0.0820689,17,32765
1.18614,-0.047052,-0.0834348,17,32765
1.18599,-0.051031,-0.0832653,17,32765
1.17585,-0.0545745,-0.0825151,18,32765
1.1657,-0.0580444,-0.0816969,17,32765
1.16551,-0.0619702,-0.0815792,17,32765
1.17526,-0.0664486,-0.0822192,17,32765
1.16506,-0.0697747,-0.0815812,18,32765
1.16483,-0.0737179,-0.0814828,18,32765
1.12476,-0.0750013,-0.0786123,18,32765
1.16431,-0.0816183,-0.0813111,18,32765
1.14414,-0.0840836,-0.0798809,18,32765
1.16375,-0.0894605,-0.0811731,18,32765
1.14355,-0.091819,-0.0797899,18,32765
1.1333,-0.0948926,-0.0789529,18,32765
1.13296,-0.098753,-0.0789844,18,32765
1.13263,-0.10259,-0.0789373,17,32765
1.12234,-0.105477,-0.0782133,18,32765
1.14184,-0.111239,-0.0796123,17,32765
1.13153,-0.114122,-0.0788591,17,32765
1.13113,-0.117995,-0.0789088,18,32765
1.11088,-0.119754,-0.0774791,17,32765
1.11047,-0.123568,-0.0774179,17,32765
1.12987,-0.1296,-0.0787581,18,32765
1.13933,-0.134579,-0.07945,18,32765
1.12897,-0.137223,-0.0787781,18,32765
1.1384,-0.14227,-0.0793996,18,32765
1.09834,-0.141042,-0.0765661,18,32765
1.11763,-0.147378,-0.0779843,18,32765
1.09734,-0.148577,-0.0765662,18,32765
1.10671,-0.153741,-0.0771759,18,32765
1.0963,-0.156146,-0.0764393,18,32765
1.10564,-0.16129,-0.077137,18,32765
1.08536,-0.162089,-0.0756451,18,32765
1.09466,-0.167287,-0.0763439,18,32765
1.07437,-0.167969,-0.0749157,18,32765
1.1132,-0.177984,-0.0775353,19,32765
1.07321,-0.175357,-0.0746744,18,32765
1.06277,-0.177336,-0.0739428,18,32765
1.09168,-0.185956,-0.0758957,18,32765
1.09104,-0.189653,-0.0758872,19,32765
1.08057,-0.191604,-0.0752123,19,32765
1.08974,-0.197058,-0.075729,19,32765
1.08908,-0.200731,-0.0755376,18,32765
1.0688,-0.20069,-0.0740857,18,32765
1.06814,-0.204226,-0.0739899,18,32765
1.06747,-0.207763,-0.0738249,18,32765
1.06677,-0.21136,-0.0737022,18,32765
1.06605,-0.215013,-0.0734959,18,32765
1.04576,-0.214669,-0.0720776,18,32765
1.06457,-0.222298,-0.0732846,18,32765
1.0443,-0.221767,-0.0717607,17,32765
1.04357,-0.225251,-0.0715965,18,32765
1.03308,-0.226615,-0.0707179,18,32765
1.04204,-0.232318,-0.07122,19,32765
1.03152,-0.233661,-0.0704344,18,32765
1.05993,-0.24386,-0.0720256,19,32765
1.0494,-0.245129,-0.0712639,19,32765
1.03889,-0.246274,-0.0704122,19,32765
1.03808,-0.24972,-0.0701615,19,32765
1.04696,-0.25553,-0.0705921,19,32765
1.04612,-0.259014,-0.0703243,19,32765
1.02591,-0.257651,-0.0687798,19,32765
1.0154,-0.258607,-0.0677793,18,32765
1.03387,-0.266966,-0.0687895,19,32765
1.03302,-0.270349,-0.0684933,19,32765
1.04179,-0.276301,-0.0688484,19,32765
1.02162,-0.274545,-0.0672177,19,32765
1.0111,-0.275292,-0.0663142,19,32765
1.01983,-0.281273,-0.0666008,19,32765
1.03813,-0.29003,-0.0675658,18,32765
1.01798,-0.288049,-0.0659409,18,32765
1.02665,-0.294106,-0.0662047,18,32765
0.996952,-0.289133,-0.0639517,18,32765
1.0056,-0.295225,-0.0640905,18,32765
1.01423,-0.301322,-0.0644012,18,32765
1.03239,-0.310369,-0.0651799,18,32765
0.974112,-0.296255,-0.0611539,18,32765
0.992265,-0.305276,-0.0617768,19,32765
0.981767,-0.305523,-0.0607342,18,32765
0.980786,-0.308753,-0.0602583,18,32765
0.989307,-0.315011,-0.0603281,18,32765
1.00732,-0.324348,-0.0609112,19,32765
0.987325,-0.321375,-0.059217,19,32765
1.01482,-0.333802,-0.0602063,19,32765
1.21682,0.0217096,-0.0853793,17,32765
1.23679,0.017895,-0.0873094,17,32765
1.25674,0.0139832,-0.0894643,18,32765
1.23681,0.0096221,-0.0884238,17,32765
1.22683,0.0053824,-0.0881113,17,32765
1.20684,0.00119963,-0.0873202,17,32765
1.21679,-0.00293682,-0.0883683,16,32765
1.20678,-0.00696721,-0.0879664,17,32765
1.19675,-0.0108713,-0.0876229,17,32765
1.19667,-0.0148688,-0.0880462,17,32765
1.23649,-0.0195028,-0.0911829,18,32765
1.22642,-0.0234843,-0.0907588,17,32765
1.15653,-0.0260963,-0.0858325,17,32765
1.19629,-0.031024,-0.0890444,17,32765
1.1862,-0.0347372,-0.0884694,17,32765
1.19604,-0.0390396,-0.0892898,17,32765
1.17594,-0.0423373,-0.0881934,17,32765
1.15586,-0.0455175,-0.0866917,17,32765
1.18557,-0.0507222,-0.0891554,17,32765
1.1555,-0.0533828,-0.0869752,17,32765
1.17522,-0.0583219,-0.088655,17,32765
1.15509,-0.0612266,-0.0872797,17,32765
1.17478,-0.0662144,-0.0889796,17,32765
1.15464,-0.0689678,-0.0874787,18,32765
1.16434,-0.073446,-0.0884508,17,32765
1.15413,-0.0767276,-0.0877688,18,32765
1.14391,-0.0799348,-0.0870512,17,32765
1.1337,-0.0831063,-0.0861889,17,32765
1.14334,-0.0877419,-0.0870362,17,32765
1.14303,-0.0916366,-0.087043,17,32765
1.14271,-0.0955509,-0.0870423,17,32765
1.13245,-0.0985614,-0.0863258,17,32765
1.12218,-0.101492,-0.0855189,17,32765
1.09205,-0.102455,-0.0832002,17,32765
1.1314,-0.110021,-0.0862076,17,32765
1.1211,-0.112861,-0.0854009,17,32765
1.11079,-0.115618,-0.0846621,17,32765
1.13023,-0.121545,-0.0861148,18,32765
1.11,-0.123164,-0.0844819,18,32765
1.09967,-0.125783,-0.0836883,17,32765
1.10915,-0.130652,-0.0843494,18,32765
1.10872,-0.134375,-0.084208,18,32765
1.09836,-0.136915,-0.0833958,18,32765
1.11768,-0.143209,-0.0848099,18,32765
1.10731,-0.145703,-0.0839049,18,32765
1.09693,-0.148117,-0.0831169,19,32765
1.09644,-0.151802,-0.0829369,18,32765
1.09593,-0.155485,-0.0828801,18,32765
1.08553,-0.157777,-0.0820055,18,32765
1.07513,-0.160078,-0.0810391,18,32765
1.08443,-0.165325,-0.0817109,18,32765
1.08386,-0.169112,-0.0815221,18,32765
1.07343,-0.171292,-0.08062,18,32765
1.07286,-0.174897,-0.0804996,18,32765
1.07227,-0.178544,-0.0803136,18,32765
1.06184,-0.180499,-0.0794866,18,32765
1.09071,-0.189202,-0.0816096,18,32765
1.07043,-0.189451,-0.0798838,19,32765
1.07962,-0.194833,-0.0804419,18,32765
1.05934,-0.194897,-0.0788481,19,32765
1.06848,-0.200316,-0.0794797,19,32765
1.05801,-0.202065,-0.0786433,18,32765
1.05733,-0.205653,-0.0784473,19,32765
1.04686,-0.207292,-0.0774863,18,32765
1.04616,-0.210836,-0.0774703,18,32765
1.06499,-0.218372,-0.0787748,18,32765
1.05448,-0.219966,-0.0779859,18,32765
1.0635,-0.225585,-0.0785781,18,32765
1.04325,-0.224936,-0.0769935,18,32765
1.02301,-0.224188,-0.0754411,19,32765
1.032,-0.229793,-0.0760151,19,32765
1.04096,-0.235475,-0.0765461,19,32765
1.04987,-0.241275,-0.0772247,19,32765
1.05878,-0.247043,-0.0778239,19,32765
1.02882,-0.243755,-0.0756124,19,32765
1.0377,-0.249525,-0.0762482,19,32765
1.03688,-0.252968,-0.0760943,19,32765
1.02635,-0.254019,-0.0753233,19,32765
1.02553,-0.257361,-0.0751967,19,32765
1.01501,-0.25828,-0.074433,19,32765
1.03348,-0.266618,-0.0757687,19,32765
1.01329,-0.26499,-0.0742708,19,32765
1.0317,-0.273472,-0.0755757,19,32765
1.03079,-0.276876,-0.0755458,18,32765
1.01061,-0.275075,-0.0741214,18,32765
1.01932,-0.281072,-0.0747509,19,32765
1.02798,-0.287152,-0.0754787,18,32765
1.01744,-0.287833,-0.0746732,18,32765
1.00689,-0.288431,-0.073964,19,32765
0.986769,-0.286231,-0.072511,18,32765
1.02411,-0.300708,-0.075372,19,32765
0.984875,-0.292691,-0.0724747,18,32765
1.00303,-0.301599,-0.0739128,18,32765
0.98298,-0.298975,-0.0725554,19,32765
0.982016,-0.302117,-0.0725954,18,32765
0.990561,-0.308238,-0.0733357,18,32765
0.999072,-0.31442,-0.074129,18,32765
0.97903,-0.311599,-0.0728498,19,32765
0.987524,-0.317739,-0.0737395,19,32765
0.986504,-0.320854,-0.0739153,19,32765
0.957046,-0.3146,-0.0720377,18,32765
1.23589,0.0220412,-0.0984438,17,32765
1.20601,0.0174303,-0.0965793,17,32765
1.23591,0.0137203,-0.0997081,17,32765
1.19605,0.00926425,-0.0968587,17,32765
1.16614,0.00506581,-0.094818,17,32765
1.18603,0.00111677,-0.0970693,17,32765
1.17604,-0.00291082,-0.0965691,17,32765
1.19593,-0.00698893,-0.0985253,17,32765
1.16597,-0.0106844,-0.0964357,17,32765
1.18582,-0.0148389,-0.0985035,17,32765
1.17579,-0.0186599,-0.0978676,17,32765
1.15576,-0.0222544,-0.0965021,17,32765
1.1457,-0.0259845,-0.0959066,17,32765
1.15555,-0.0301115,-0.096984,17,32765
1.20523,-0.0354556,-0.101334,18,32765
1.16526,-0.0382012,-0.0980588,17,32765
1.17505,-0.0424837,-0.0992883,17,32765
1.14503,-0.045275,-0.096757,17,32765
1.16476,-0.0500297,-0.0986573,18,32765
1.14467,-0.0530873,-0.0970375,17,32765
1.14446,-0.0570113,-0.0972128,17,32765
1.14425,-0.0608782,-0.0973388,18,32765
1.13408,-0.0641549,-0.0966804,17,32765
1.13386,-0.0679709,-0.0966872,18,32765
1.12366,-0.0711326,-0.0960492,18,32765
1.14329,-0.0762745,-0.0978223,18,32765
1.14302,-0.0801505,-0.097861,17,32765
1.14275,-0.0840582,-0.0977546,18,32765
1.13251,-0.0872071,-0.0969947,18,32765
1.12228,-0.0902763,-0.0961503,18,32765
1.14182,-0.0957958,-0.097851,17,32765
1.1117,-0.0970777,-0.0953377,17,32765
1.10145,-0.099946,-0.0944374,17,32765
1.12095,-0.105511,-0.0960891,17,32765
1.12059,-0.109325,-0.0960709,17,32765
1.12021,-0.113137,-0.0960201,17,32765
1.1,-0.114864,-0.0943371,17,32765
1.10951,-0.1197,-0.0951286,17,32765
1.10911,-0.123458,-0.0950062,17,32765
1.11859,-0.128353,-0.0958141,18,32765
1.08847,-0.128622,-0.0931789,18,32765
1.09794,-0.133488,-0.0938856,18,32765
1.08759,-0.135998,-0.0929796,18,32765
1.07724,-0.138461,-0.0920486,18,32765
1.09654,-0.144736,-0.0935842,18,32765
1.12567,-0.15247,-0.0960732,19,32765
1.09555,-0.152149,-0.0933647,19,32765
1.08517,-0.154436,-0.0924668,19,32765
1.10437,-0.16101,-0.0940175,19,32765
1.08411,-0.161911,-0.0921154,19,32765
1.10325,-0.16871,-0.0937168,19,32765
1.06328,-0.166409,-0.0901841,18,32765
1.08239,-0.173249,-0.0916913,18,32765
1.07198,-0.175285,-0.0907369,19,32765
1.09105,-0.182223,-0.0922121,18,32765
1.06096,-0.180897,-0.0896292,19,32765
1.06035,-0.184493,-0.0895461,18,32765
1.05973,-0.188125,-0.0892928,18,32765
1.05911,-0.191709,-0.0891207,18,32765
1.05846,-0.195323,-0.0889891,18,32765
1.048,-0.197068,-0.0880679,18,32765
1.05712,-0.202503,-0.0887833,18,32765
1.05645,-0.206098,-0.0885869,18,32765
1.05576,-0.209681,-0.0883497,18,32765
1.05504,-0.213264,-0.0883329,18,32765
1.04456,-0.214826,-0.0873737,18,32765
1.05359,-0.220438,-0.0881235,18,32765
1.03335,-0.219845,-0.0863647,19,32765
1.04236,-0.225416,-0.0870363,19,32765
1.0416,-0.228945,-0.0869202,19,32765
1.03111,-0.230281,-0.085963,19,32765
1.04006,-0.235975,-0.0865873,19,32765
1.02953,-0.237308,-0.0857413,19,32765
1.03845,-0.243023,-0.0864359,19,32765
1.03761,-0.246573,-0.086365,19,32765
1.0271,-0.247713,-0.0854805,19,32765
1.00692,-0.246391,-0.0837176,19,32765
1.01577,-0.25215,-0.0844626,18,32765
1.03428,-0.260333,-0.085943,19,32765
1.03342,-0.26375,-0.0858871,19,32765
0.993948,-0.257186,-0.0825967,18,32765
1.02202,-0.26807,-0.0849193,18,32765
1.00186,-0.266357,-0.0832097,18,32765
0.991354,-0.267078,-0.0823801,18,32765
0.990456,-0.270395,-0.0823673,18,32765
0.989558,-0.273682,-0.0822924,18,32765
0.998235,-0.279678,-0.0831125,18,32765
1.0069,-0.285706,-0.0838119,19,32765
0.996373,-0.286272,-0.0830082,18,32765
1.00498,-0.292388,-0.0837606,19,32765
1.00401,-0.295693,-0.0838039,18,32765
0.983939,-0.293291,-0.0821273,18,32765
0.99253,-0.299337,-0.0829544,18,32765
0.9725,-0.296677,-0.0814083,18,32765
0.981065,-0.302733,-0.0822456,18,32765
0.989596,-0.308865,-0.0830787,18,32765
0.988586,-0.312058,-0.0831651,19,32765
0.959071,-0.306169,-0.0808954,18,32765
0.986541,-0.318383,-0.0834797,18,32765
0.976038,-0.318412,-0.0828501,18,32765
0.97501,-0.321477,-0.0831086,18,32765
1.19436,0.0227759,-0.113924,17,32765
1.22433,0.0191802,-0.116357,17,32765
1.21448,0.0149403,-0.114986,17,32765
1.19463,0.0106198,-0.112847,17,32765
1.18474,0.00653056,-0.111554,16,32765
1.20468,0.00258136,-0.113277,17,32765
1.20472,-0.00151196,-0.112904,16,32765
1.18481,-0.00544817,-0.110867,17,32765
1.17485,-0.00931543,-0.109707,16,32765
1.1848,-0.0133266,-0.110325,17,32765
1.17481,-0.0172236,-0.109193,17,32765
1.15485,-0.0208757,-0.107221,17,32765
1.1747,-0.0252483,-0.108878,17,32765
1.17462,-0.0292786,-0.1087,17,32765
1.19443,-0.0338254,-0.110384,17,32765
1.19432,-0.0378954,-0.110281,18,32765
1.13449,-0.0398673,-0.104623,17,32765
1.16422,-0.0448594,-0.107188,17,32765
1.15411,-0.0483782,-0.106221,17,32765
1.14402,-0.051813,-0.10503,17,32765
1.1339,-0.0551977,-0.104091,17,32765
1.12376,-0.0586328,-0.10303,17,32765
1.14346,-0.0635914,-0.104687,17,32765
1.14324,-0.0675168,-0.104645,17,32765
1.12314,-0.0701125,-0.10262,17,32765
1.12291,-0.0738807,-0.102566,17,32765
1.12266,-0.0777307,-0.102478,17,32765
1.11246,-0.0807914,-0.101477,18,32765
1.11219,-0.0846562,-0.101339,17,32765
1.1119,-0.0884741,-0.101266,17,32765
1.10167,-0.0914559,-0.100243,18,32765
1.13113,-0.0978115,-0.102864,18,32765
1.1308,-0.101626,-0.10279,17,32765
1.14036,-0.106384,-0.10369,17,32765
1.14002,-0.110262,-0.103432,16,32765
1.10991,-0.111195,-0.100723,17,32765
1.13924,-0.11811,-0.103376,17,32765
1.13883,-0.122028,-0.103277,17,32765
1.09881,-0.121605,-0.0996188,17,32765
1.07862,-0.123053,-0.0976819,17,32765
1.09798,-0.129058,-0.0994438,18,32765
1.07776,-0.130403,-0.0975726,18,32765
1.09709,-0.136488,-0.0993631,18,32765
1.06698,-0.136398,-0.0966641,18,32765
1.0764,-0.141269,-0.0974713,18,32765
1.07591,-0.14497,-0.0974771,19,32765
1.06555,-0.147299,-0.0964865,19,32765
1.0749,-0.152402,-0.0973164,18,32765
1.06452,-0.154693,-0.0963206,18,32765
1.08369,-0.161247,-0.0980734,18,32765
1.09299,-0.166487,-0.0987869,18,32765
1.05304,-0.164108,-0.0952186,19,32765
1.08199,-0.17243,-0.0977972,18,32765
1.07156,-0.174582,-0.096834,18,32765
1.06114,-0.176559,-0.0959242,18,32765
1.05073,-0.178503,-0.0948939,18,32765
1.05014,-0.182043,-0.0947164,18,32765
1.06913,-0.189034,-0.0965322,18,32765
1.04888,-0.18915,-0.0946898,17,32765
1.06784,-0.196314,-0.0963165,18,32765
1.05737,-0.198174,-0.0953721,18,32765
1.04692,-0.199919,-0.0943294,18,32765
1.05603,-0.205302,-0.0951873,18,32765
1.05534,-0.208852,-0.0950956,18,32765
1.02535,-0.206486,-0.0922924,18,32765
1.05394,-0.21596,-0.0947243,17,32765
1.0337,-0.215489,-0.0929001,18,32765
1.04271,-0.221074,-0.0936626,19,32765
1.0225,-0.220398,-0.091709,19,32765
1.03151,-0.225929,-0.0924373,19,32765
1.0502,-0.233749,-0.0940414,19,32765
1.02999,-0.232881,-0.0921359,19,32765
1.01951,-0.234107,-0.0910998,19,32765
1.02843,-0.239774,-0.0918189,19,32765
1.03736,-0.245475,-0.0923494,19,32765
1.02687,-0.246604,-0.0912811,19,32765
1.00668,-0.245347,-0.0894131,19,32765
1.0349,-0.25587,-0.0917711,19,32765
1.00507,-0.25203,-0.0889353,18,32765
1.02357,-0.260264,-0.0903557,18,32765
0.993769,-0.256223,-0.0876001,18,32765
1.00257,-0.262054,-0.0881576,18,32765
1.01136,-0.267915,-0.0887182,18,32765
1.00085,-0.268689,-0.0877441,18,32765
1.01923,-0.277231,-0.0890138,18,32765
0.989494,-0.272688,-0.0862703,18,32765
1.00781,-0.281345,-0.0875549,18,32765
0.987738,-0.279193,-0.0855863,18,32765
1.01559,-0.290642,-0.0877169,19,32765
1.00511,-0.291159,-0.0864529,19,32765
1.00417,-0.294456,-0.0861897,18,32765
0.993657,-0.294992,-0.0850068,19,32765
0.992721,-0.298243,-0.0845898,18,32765
0.991785,-0.301455,-0.0841874,19,32765
0.99087,-0.304572,-0.0837468,18,32765
0.98039,-0.304826,-0.0825686,18,32765
0.998448,-0.314007,-0.0836731,19,32765
0.959471,-0.305169,-0.0799191,18,32765
0.977517,-0.314353,-0.0808905,19,32765
0.957607,-0.311278,-0.078711,19,32765
0.975608,-0.320528,-0.0796957,19,32765
1.19324,0.0227312,-0.125188,17,32765
1.16351,0.0181943,-0.121663,16,32765
1.16361,0.014271,-0.121257,17,32765
1.15373,0.0102025,-0.119975,17,32765
1.14385,0.00624168,-0.118599,17,32765
1.17372,0.00243923,-0.121546,17,32765
1.15387,-0.00153303,-0.119128,17,32765
1.16382,-0.00544772,-0.119988,17,32765
1.15387,-0.0092546,-0.118738,17,32765
1.17376,-0.0133201,-0.120475,17,32765
1.17373,-0.0173362,-0.120271,17,32765
1.18362,-0.0215363,-0.121166,17,32765
1.18356,-0.0255901,-0.120972,16,32765
1.16359,-0.0291631,-0.118763,16,32765
1.13367,-0.0322702,-0.115567,16,32765
1.13356,-0.0361436,-0.115469,16,32765
1.14339,-0.0403682,-0.116337,17,32765
1.17309,-0.045405,-0.119182,17,32765
1.13317,-0.0477077,-0.115092,17,32765
1.15291,-0.0524367,-0.116834,17,32765
1.12292,-0.054889,-0.113786,17,32765
1.13267,-0.0593359,-0.114644,17,32765
1.13247,-0.0632295,-0.114479,17,32765
1.13225,-0.0671277,-0.114437,18,32765
1.11218,-0.0696933,-0.112225,18,32765
1.1318,-0.0747461,-0.114175,18,32765
1.12162,-0.0779473,-0.113086,18,32765
1.12136,-0.0817362,-0.11299,18,32765
1.12108,-0.0856424,-0.112851,18,32765
1.13071,-0.0902934,-0.113775,18,32765
1.12049,-0.0933479,-0.112656,18,32765
1.12017,-0.0972045,-0.112568,18,32765
1.11984,-0.100992,-0.112495,18,32765
1.10959,-0.103871,-0.111497,18,32765
1.10925,-0.107655,-0.111246,18,32765
1.10887,-0.111471,-0.111234,18,32765
1.07879,-0.112223,-0.108212,18,32765
1.10809,-0.119134,-0.111093,18,32765
1.09779,-0.121899,-0.110035,18,32765
1.0875,-0.124479,-0.108901,18,32765
1.08707,-0.1282,-0.10887,18,32765
1.07675,-0.130711,-0.1078,18,32765
1.08618,-0.135575,-0.108789,18,32765
1.08572,-0.139248,-0.108775,18,32765
1.06552,-0.140298,-0.10671,18,32765
1.07489,-0.145304,-0.107703,18,32765
1.08425,-0.150371,-0.108593,18,32765
1.06402,-0.151348,-0.106555,18,32765
1.0635,-0.155043,-0.106452,18,32765
1.09249,-0.16308,-0.109377,19,32765
1.07227,-0.163854,-0.107231,18,32765
1.05203,-0.164474,-0.105255,18,32765
1.05147,-0.168101,-0.105166,18,32765
1.07053,-0.174968,-0.107057,18,32765
1.06993,-0.178587,-0.107035,18,32765
1.05952,-0.180567,-0.105909,18,32765
1.05892,-0.184147,-0.105729,18,32765
1.06809,-0.189446,-0.106753,18,32765
1.03806,-0.187789,-0.103744,17,32765
1.04722,-0.19313,-0.104582,17,32765
1.03677,-0.194924,-0.103544,17,32765
1.03611,-0.198476,-0.103386,17,32765
1.04521,-0.203838,-0.104337,17,32765
1.06405,-0.211236,-0.106194,17,32765
1.03408,-0.208897,-0.103108,17,32765
1.03339,-0.212412,-0.102906,17,32765
1.03266,-0.215946,-0.102835,18,32765
1.0514,-0.223612,-0.10466,18,32765
1.02147,-0.220863,-0.101549,18,32765
1.04019,-0.228541,-0.103337,18,32765
1.03942,-0.23207,-0.103197,18,32765
1.03865,-0.23557,-0.103031,18,32765
1.04757,-0.241299,-0.103822,18,32765
1.008,-0.235741,-0.0998306,18,32765
1.0363,-0.245986,-0.102374,18,32765
1.00646,-0.242453,-0.099302,17,32765
0.995976,-0.243491,-0.0982023,18,32765
1.0145,-0.251606,-0.0998916,18,32765
1.01369,-0.254979,-0.0996257,18,32765
1.00322,-0.255879,-0.0983921,18,32765
0.983097,-0.254257,-0.0963029,18,32765
1.01116,-0.265116,-0.0988391,18,32765
0.99106,-0.26335,-0.0966744,18,32765
1.00942,-0.271827,-0.0984205,18,32765
1.00855,-0.275176,-0.0980064,19,32765
0.998049,-0.275896,-0.096846,19,32765
0.987571,-0.276547,-0.0955313,18,32765
0.986694,-0.27976,-0.0952299,18,32765
0.976236,-0.280242,-0.0939563,18,32765
0.975361,-0.283413,-0.093532,18,32765
1.01266,-0.297862,-0.0969336,19,32765
0.983054,-0.292746,-0.0938312,18,32765
0.963057,-0.290224,-0.0916038,18,32765
0.971673,-0.296253,-0.0921157,19,32765
0.980292,-0.302251,-0.092582,18,32765
0.960323,-0.299508,-0.0904182,18,32765
0.987878,-0.311641,-0.0926095,18,32765
0.967931,-0.308809,-0.0902562,19,32765
0.948027,-0.305809,-0.0878928,18,32765
0.984993,-0.321166,-0.0907815,19,32765
0.984023,-0.324288,-0.0902016,19,32765
1.21358,0.022985,-0.122908,16,32765
1.20365,0.0186658,-0.122415,17,32765
1.18376,0.0143148,-0.120908,17,32765
1.18377,0.0102933,-0.121158,17,32765
1.17381,0.00619595,-0.120581,17,32765
1.21358,0.00226229,-0.124969,17,32765
1.1439,-0.00177482,-0.118279,17,32765
1.15381,-0.00568732,-0.119559,17,32765
1.19355,-0.00987195,-0.123879,17,32765
1.1537,-0.0134216,-0.120014,17,32765
1.1934,-0.0178899,-0.12441,17,32765
1.13366,-0.0207997,-0.118288,16,32765
1.16338,-0.0252428,-0.121718,16,32765
1.12349,-0.0281845,-0.117758,16,32765
1.18302,-0.0337551,-0.124173,17,32765
1.16301,-0.0372004,-0.122157,17,32765
1.16286,-0.0411883,-0.122345,17,32765
1.13288,-0.0440009,-0.11932,17,32765
1.19234,-0.0503062,-0.125715,17,32765
1.14247,-0.0521065,-0.120593,17,32765
1.11248,-0.054448,-0.117576,17,32765
1.12222,-0.0587158,-0.118664,17,32765
1.11206,-0.0619771,-0.117792,18,32765
1.10192,-0.0651536,-0.116691,18,32765
1.1116,-0.0695885,-0.1179,18,32765
1.1312,-0.0746948,-0.120009,18,32765
1.11109,-0.0771863,-0.118015,18,32765
1.11082,-0.0809838,-0.117982,18,32765
1.11054,-0.0847052,-0.118043,18,32765
1.10033,-0.087641,-0.117004,18,32765
1.10003,-0.0912975,-0.117075,18,32765
1.08981,-0.0941297,-0.115972,18,32765
1.10929,-0.0996183,-0.118143,18,32765
1.07925,-0.100643,-0.11487,17,32765
1.09867,-0.106317,-0.117092,18,32765
1.07852,-0.108064,-0.114934,18,32765
1.08805,-0.112738,-0.115943,18,32765
1.08766,-0.116427,-0.115942,18,32765
1.08728,-0.120066,-0.115831,18,32765
1.06709,-0.121524,-0.113756,17,32765
1.07656,-0.126322,-0.114733,17,32765
1.086,-0.1312,-0.115687,18,32765
1.08554,-0.134956,-0.115708,18,32765
1.06536,-0.136139,-0.113466,18,32765
1.07475,-0.141067,-0.11447,18,32765
1.06442,-0.143363,-0.113372,18,32765
1.07379,-0.148328,-0.114347,18,32765
1.07328,-0.151968,-0.114381,18,32765
1.06294,-0.154184,-0.113073,18,32765
1.07223,-0.159295,-0.114211,18,32765
1.06186,-0.1615,-0.113031,18,32765
1.05148,-0.163622,-0.111855,18,32765
1.07056,-0.170423,-0.113854,18,32765
1.04053,-0.169299,-0.110608,18,32765
1.04976,-0.174528,-0.111596,18,32765
1.02955,-0.17476,-0.109454,18,32765
1.03877,-0.179975,-0.110288,18,32765
1.03815,-0.183547,-0.110273,17,32765
1.04732,-0.18883,-0.111155,18,32765
1.02711,-0.188828,-0.109016,17,32765
1.06559,-0.199596,-0.113067,17,32765
1.04538,-0.199467,-0.110893,17,32765
1.0447,-0.203025,-0.110803,17,32765
1.05378,-0.208476,-0.111747,16,32765
1.01407,-0.204242,-0.10743,17,32765
1.04261,-0.213691,-0.110459,17,32765
1.03215,-0.215192,-0.109355,17,32765
1.04116,-0.220767,-0.110256,18,32765
1.02097,-0.220091,-0.108054,18,32765
1.02023,-0.22356,-0.10794,18,32765
1.00977,-0.224851,-0.106812,18,32765
1.0187,-0.230482,-0.107793,18,32765
1.01792,-0.233965,-0.107708,18,32765
1.02682,-0.239662,-0.108621,18,32765
1.026,-0.243183,-0.108523,18,32765
1.01552,-0.24431,-0.1074,18,32765
0.995378,-0.242989,-0.105259,18,32765
0.994558,-0.246367,-0.105155,18,32765
0.984089,-0.247244,-0.10411,18,32765
0.954336,-0.2432,-0.100975,18,32765
0.943907,-0.243874,-0.0998287,17,32765
0.991212,-0.259628,-0.104843,18,32765
0.999959,-0.265497,-0.105794,18,32765
0.98948,-0.266213,-0.104687,18,32765
0.988589,-0.269532,-0.104619,19,32765
0.997294,-0.275446,-0.10552,19,32765
0.986789,-0.276095,-0.104496,18,32765
0.966732,-0.273939,-0.102404,18,32765
0.984959,-0.282619,-0.104315,19,32765
0.974472,-0.28308,-0.103298,18,32765
1.00217,-0.29471,-0.106312,18,32765
0.972593,-0.289496,-0.103221,19,32765
0.971629,-0.292732,-0.10318,19,32765
0.970679,-0.295891,-0.103108,19,32765
0.969695,-0.299059,-0.103223,19,32765
0.968746,-0.302163,-0.103098,19,32765
0.958279,-0.302271,-0.10214,18,32765
0.957292,-0.305357,-0.102225,19,32765
0.984727,-0.317578,-0.105154,19,32765
0.945841,-0.308401,-0.10136,19,32765
0.944863,-0.311385,-0.101357,18,32765
1.15274,0.0218058,-0.127745,16,32765
1.1925,0.0184534,-0.13266,16,32765
1.18256,0.0142498,-0.13207,15,32765
1.17264,0.0101351,-0.131208,16,32765
1.17262,0.00611698,-0.131648,16,32765
1.1726,0.00210196,-0.131939,16,32765
1.14273,-0.00186593,-0.129064,17,32765
1.14269,-0.00573628,-0.129314,17,32765
1.14265,-0.00956538,-0.129502,17,32765
1.15251,-0.0135341,-0.130892,17,32765
1.12263,-0.0169627,-0.127749,17,32765
1.14242,-0.0211074,-0.130109,17,32765
1.13238,-0.0247264,-0.129286,18,32765
1.12233,-0.0283209,-0.128353,18,32765
1.13214,-0.0324813,-0.129645,18,32765
1.13201,-0.0363979,-0.129713,17,32765
1.12193,-0.0399369,-0.128756,17,32765
1.14163,-0.0445532,-0.131148,19,32765
1.11168,-0.047121,-0.127834,18,32765
1.13135,-0.0518317,-0.130231,18,32765
1.11131,-0.0546296,-0.128075,18,32765
1.13096,-0.0594268,-0.1304,18,32765
1.12081,-0.0627269,-0.129435,18,32765
1.13051,-0.0671193,-0.13053,18,32765
1.11042,-0.0697963,-0.128397,18,32765
1.12009,-0.0742559,-0.129547,18,32765
1.1,-0.0767162,-0.127364,18,32765
1.09973,-0.0804862,-0.127331,18,32765
1.09945,-0.0841809,-0.127392,18,32765
1.10906,-0.088671,-0.128555,18,32765
1.09885,-0.0915421,-0.127477,18,32765
1.09854,-0.0952364,-0.127428,18,32765
1.0982,-0.0989863,-0.127489,18,32765
1.08798,-0.101828,-0.126231,18,32765
1.0876,-0.105627,-0.126344,18,32765
1.05759,-0.106348,-0.12285,17,32765
1.07699,-0.111991,-0.125101,17,32765
1.0766,-0.115653,-0.1251,16,32765
1.0861,-0.120359,-0.126137,16,32765
1.0758,-0.122946,-0.125021,16,32765
1.08525,-0.127787,-0.12609,16,32765
1.09468,-0.132708,-0.127136,16,32765
1.0745,-0.134045,-0.124866,16,32765
1.07405,-0.137722,-0.124727,16,32765
1.09327,-0.14399,-0.126967,17,32765
1.06325,-0.143694,-0.123487,17,32765
1.06277,-0.147305,-0.123412,17,32765
1.07209,-0.152315,-0.124589,17,32765
1.0421,-0.151672,-0.120906,17,32765
1.06122,-0.158189,-0.123277,18,32765
1.06068,-0.161862,-0.123144,18,32765
1.06013,-0.16552,-0.123013,18,32765
1.04974,-0.167667,-0.121783,18,32765
1.05898,-0.172874,-0.122807,19,32765
1.05838,-0.176547,-0.12275,19,32765
1.0186,-0.173474,-0.118148,18,32765
1.05718,-0.18377,-0.122479,18,32765
1.04676,-0.18568,-0.12133,18,32765
1.04614,-0.189238,-0.121171,18,32765
1.02595,-0.189234,-0.118844,18,32765
1.03508,-0.194519,-0.119876,19,32765
1.04419,-0.199892,-0.120907,18,32765
1.01425,-0.197753,-0.11743,17,32765
1.01359,-0.20118,-0.11734,18,32765
1.00317,-0.202706,-0.116035,18,32765
1.01221,-0.208136,-0.117093,19,32765
1.0115,-0.211575,-0.117023,19,32765
1.01079,-0.215026,-0.116895,19,32765
1.01007,-0.218449,-0.116755,19,32765
0.999631,-0.219757,-0.115519,19,32765
1.01829,-0.227484,-0.117661,20,32765
1.00782,-0.228758,-0.116494,19,32765
1.01672,-0.234447,-0.117528,19,32765
0.996583,-0.233358,-0.11518,19,32765
1.02479,-0.243681,-0.118436,19,32765
1.00465,-0.242478,-0.116102,19,32765
0.974886,-0.238756,-0.112659,19,32765
0.993368,-0.246868,-0.114785,18,32765
1.01182,-0.255032,-0.116989,19,32765
0.991699,-0.253538,-0.114684,18,32765
1.01011,-0.261821,-0.116775,19,32765
0.999621,-0.262677,-0.115582,19,32765
0.998741,-0.266031,-0.115514,19,32765
0.978676,-0.264157,-0.113203,18,32765
0.996962,-0.272693,-0.115353,19,32765
0.97691,-0.270688,-0.113022,18,32765
0.966431,-0.271273,-0.111904,19,32765
0.975091,-0.277201,-0.112947,19,32765
0.96463,-0.277681,-0.111724,18,32765
0.96371,-0.28086,-0.11172,19,32765
0.981844,-0.289667,-0.113908,18,32765
0.933272,-0.278691,-0.108326,18,32765
0.941855,-0.284681,-0.10939,18,32765
0.959938,-0.293565,-0.111528,19,32765
0.939969,-0.290832,-0.109431,19,32765
0.94853,-0.296817,-0.110413,19,32765
0.966517,-0.305859,-0.112673,19,32765
0.937116,-0.299893,-0.109442,19,32765
0.96453,-0.312076,-0.112652,19,32765
0.954045,-0.312089,-0.111799,19,32765
0.943616,-0.311988,-0.110689,19,32765
1.14078,0.0229135,-0.143506,16,32765
1.1409,0.0189604,-0.143151,16,32765
1.16084,0.0153076,-0.145331,16,32765
1.15099,0.0112578,-0.143898,17,32765
1.19076,0.00757663,-0.148469,17,32765
1.14117,0.00335774,-0.142229,16,32765
1.13128,-0.000588889,-0.140707,16,32765
1.13129,-0.0045032,-0.140577,16,32765
1.13128,-0.00839666,-0.140481,16,32765
1.14119,-0.0123606,-0.141549,16,32765
1.11138,-0.0158117,-0.137759,17,32765
1.13118,-0.019977,-0.140093,17,32765
1.12121,-0.0236324,-0.13866,16,32765
1.10128,-0.0270016,-0.136178,17,32765
1.13095,-0.0315781,-0.139817,17,32765
1.13085,-0.0354391,-0.139683,18,32765
1.14066,-0.0396387,-0.140818,17,32765
1.10087,-0.0419778,-0.13576,17,32765
1.11063,-0.0461221,-0.137012,18,32765
1.09064,-0.0490028,-0.134586,18,32765
1.12023,-0.0541622,-0.138033,17,32765
1.12003,-0.0580165,-0.138073,17,32765
1.10001,-0.0607798,-0.135559,17,32765
1.08989,-0.0639632,-0.13436,18,32765
1.10949,-0.068864,-0.136671,18,32765
1.11916,-0.0732764,-0.137867,17,32765
1.08921,-0.0749959,-0.134145,18,32765
1.09887,-0.0794101,-0.13524,18,32765
1.07879,-0.0816546,-0.132852,17,32765
1.0785,-0.085434,-0.132806,17,32765
1.09799,-0.0908342,-0.135191,17,32765
1.0779,-0.0929781,-0.132641,18,32765
1.06767,-0.0958171,-0.131506,18,32765
1.08712,-0.101317,-0.133818,17,32765
1.08678,-0.105005,-0.133761,18,32765
1.07654,-0.107742,-0.1325,17,32765
1.07618,-0.111397,-0.132416,16,32765
1.09553,-0.117188,-0.134798,17,32765
1.11486,-0.123125,-0.137216,16,32765
1.08485,-0.123563,-0.133523,16,32765
1.08443,-0.127293,-0.133434,16,32765
1.08399,-0.131005,-0.133407,17,32765
1.08355,-0.134706,-0.133354,16,32765
1.05357,-0.13464,-0.129504,17,32765
1.08263,-0.142112,-0.133096,16,32765
1.06247,-0.143159,-0.130619,17,32765
1.02265,-0.141368,-0.125719,17,32765
1.032,-0.146296,-0.126814,17,32765
1.03149,-0.149855,-0.126787,18,32765
1.03099,-0.153368,-0.126602,18,32765
1.05991,-0.161376,-0.130148,19,32765
1.04956,-0.163522,-0.128817,18,32765
1.01958,-0.16244,-0.125202,18,32765
1.02882,-0.167583,-0.126258,18,32765
1.01847,-0.169487,-0.124887,18,32765
1.04726,-0.177964,-0.12839,18,32765
1.01732,-0.176431,-0.124631,18,32765
1.02651,-0.181575,-0.125754,18,32765
1.01612,-0.183297,-0.124475,18,32765
1.0253,-0.188516,-0.125412,18,32765
1.02467,-0.192024,-0.125233,18,32765
1.00451,-0.191816,-0.122715,18,32765
1.02337,-0.199016,-0.124924,18,32765
1.00323,-0.198622,-0.122416,18,32765
1.00258,-0.202,-0.122171,19,32765
1.01164,-0.20744,-0.12309,19,32765
1.01093,-0.210905,-0.123012,19,32765
1.01023,-0.214392,-0.122737,19,32765
0.999811,-0.215769,-0.121329,19,32765
1.0185,-0.223402,-0.123482,20,32765
1.00807,-0.224712,-0.122087,19,32765
1.00734,-0.228102,-0.121843,19,32765
1.01627,-0.233735,-0.122729,19,32765
0.976814,-0.228152,-0.117817,19,32765
0.9954,-0.236006,-0.119916,19,32765
0.994636,-0.239366,-0.119593,19,32765
0.974553,-0.238014,-0.11703,18,32765
0.993061,-0.246058,-0.119104,19,32765
0.992269,-0.24938,-0.11879,18,32765
1.00111,-0.255103,-0.119584,19,32765
1.0003,-0.258401,-0.119321,19,32765
0.989862,-0.25921,-0.117826,18,32765
0.979429,-0.259949,-0.116385,18,32765
0.959406,-0.258063,-0.113768,18,32765
0.968171,-0.263878,-0.114511,19,32765
0.986482,-0.272396,-0.11642,18,32765
0.966472,-0.270343,-0.113786,18,32765
0.984718,-0.279,-0.115713,19,32765
0.964716,-0.276825,-0.113095,18,32765
0.973403,-0.282755,-0.113742,19,32765
0.972503,-0.28597,-0.113394,19,32765
0.990654,-0.294842,-0.115207,19,32765
0.980219,-0.295187,-0.113737,19,32765
0.950787,-0.289668,-0.109989,18,32765
0.949899,-0.292746,-0.109502,19,32765
0.967976,-0.301776,-0.111148,19,32765
0.957555,-0.301959,-0.109585,19,32765
0.956636,-0.305009,-0.109164,19,32765
0.965161,-0.311188,-0.109667,19,32765
0.945302,-0.308171,-0.106932,19,32765
0.991588,-0.326778,-0.111663,19,32765
1.14929,0.0230437,-0.155605,17,32765
1.1395,0.0188858,-0.153909,17,32765
1.15942,0.0152254,-0.156276,17,32765
1.13967,0.0110738,-0.153415,17,32765
1.14966,0.00723019,-0.154372,17,32765
1.13977,0.00325831,-0.152987,17,32765
1.11008,-0.00068149,-0.148716,17,32765
1.13982,-0.00465477,-0.152569,18,32765
1.11999,-0.00843939,-0.149821,17,32765
1.12989,-0.0123768,-0.150984,17,32765
1.12985,-0.0162239,-0.150884,17,32765
1.1199,-0.0199367,-0.149436,17,32765
1.11985,-0.0237735,-0.149232,17,32765
1.10986,-0.027391,-0.147882,17,32765
1.08994,-0.0306197,-0.145202,16,32765
1.08985,-0.0343513,-0.145072,16,32765
1.10955,-0.0387693,-0.147622,17,32765
1.09953,-0.0421471,-0.146145,17,32765
1.09938,-0.0458857,-0.146173,17,32765
1.09921,-0.0496299,-0.146193,17,32765
1.07926,-0.0524292,-0.143344,16,32765
1.07907,-0.0561532,-0.143382,17,32765
1.10857,-0.0615293,-0.147257,17,32765
1.08856,-0.0641676,-0.14465,17,32765
1.09825,-0.0684615,-0.145833,17,32765
1.08812,-0.0715474,-0.144495,17,32765
1.08788,-0.0752184,-0.144433,17,32765
1.07775,-0.0782057,-0.142998,17,32765
1.09724,-0.0833896,-0.145672,18,32765
1.06729,-0.0848867,-0.141688,17,32765
1.07688,-0.0894423,-0.142949,18,32765
1.07657,-0.0932291,-0.142835,18,32765
1.06636,-0.0960719,-0.141606,18,32765
1.07591,-0.100659,-0.142794,18,32765
1.07557,-0.104319,-0.142738,18,32765
1.08507,-0.109009,-0.144001,18,32765
1.07484,-0.111678,-0.142608,18,32765
1.07446,-0.115363,-0.14256,18,32765
1.05435,-0.116875,-0.139935,18,32765
1.05395,-0.120487,-0.139886,18,32765
1.06339,-0.125281,-0.141104,18,32765
1.08264,-0.131319,-0.14369,18,32765
1.05268,-0.131343,-0.13972,18,32765
1.07192,-0.13748,-0.142114,18,32765
1.07144,-0.14115,-0.142075,18,32765
1.06114,-0.143491,-0.140714,18,32765
1.05082,-0.145781,-0.139346,18,32765
1.06014,-0.150819,-0.140531,18,32765
1.04,-0.151625,-0.137902,18,32765
1.05911,-0.158105,-0.140312,18,32765
1.02917,-0.157245,-0.136345,18,32765
1.04822,-0.163886,-0.138816,19,32765
1.04765,-0.167496,-0.138812,19,32765
1.02751,-0.167951,-0.136069,18,32765
1.01717,-0.169858,-0.134604,18,32765
1.01659,-0.173351,-0.134507,18,32765
1.01602,-0.176813,-0.134347,18,32765
1.00566,-0.178501,-0.132981,18,32765
1.00506,-0.181924,-0.1329,18,32765
1.00447,-0.185321,-0.132644,18,32765
1.0136,-0.190599,-0.133755,18,32765
1.00321,-0.192222,-0.132336,17,32765
0.992842,-0.193737,-0.130881,18,32765
1.00192,-0.199039,-0.132035,19,32765
1.02072,-0.206353,-0.13435,19,32765
0.990894,-0.203875,-0.130248,19,32765
1.03874,-0.217439,-0.136552,19,32765
1.01861,-0.216901,-0.133722,19,32765
0.998501,-0.216214,-0.130947,19,32765
1.00748,-0.221729,-0.132016,19,32765
0.997061,-0.223007,-0.130529,19,32765
0.996334,-0.22637,-0.130287,19,32765
0.995597,-0.229749,-0.130007,19,32765
1.0045,-0.235406,-0.131025,18,32765
0.994081,-0.236483,-0.12953,19,32765
0.983673,-0.23752,-0.127953,19,32765
1.00217,-0.245577,-0.130214,19,32765
1.00137,-0.248945,-0.129967,19,32765
1.00057,-0.252305,-0.12965,19,32765
0.970933,-0.248239,-0.125561,18,32765
0.970141,-0.251447,-0.125304,18,32765
0.978938,-0.257203,-0.126201,18,32765
0.978114,-0.260465,-0.125903,18,32765
0.967697,-0.261159,-0.12433,18,32765
0.976441,-0.267016,-0.125162,19,32765
0.946894,-0.262333,-0.121135,18,32765
0.965167,-0.270874,-0.123209,18,32765
0.945196,-0.268691,-0.120455,18,32765
0.95387,-0.274621,-0.121304,18,32765
0.972083,-0.283307,-0.123258,19,32765
0.971182,-0.286528,-0.122908,19,32765
0.922719,-0.275533,-0.116501,18,32765
0.969379,-0.292889,-0.122146,18,32765
0.939995,-0.287327,-0.118123,18,32765
0.948603,-0.293313,-0.118829,18,32765
0.966654,-0.30236,-0.120661,19,32765
0.946778,-0.299547,-0.117826,19,32765
0.945868,-0.302572,-0.117409,19,32765
0.926041,-0.299561,-0.114506,18,32765
0.962887,-0.314939,-0.118582,18,32765
0.961937,-0.318051,-0.117985,19,32765
1.14977,0.0229905,-0.151977,17,32765
1.15967,0.0192991,-0.153912,17,32765
1.13982,0.0150891,-0.151895,17,32765
1.13981,0.0112153,-0.152373,16,32765
1.12985,0.00728052,-0.151614,16,32765
1.1199,0.00344334,-0.150686,17,32765
1.10995,-0.000303452,-0.149691,17,32765
1.11981,-0.00413417,-0.151385,17,32765
1.09992,-0.00774761,-0.149043,17,32765
1.12958,-0.011792,-0.153349,17,32765
1.07004,-0.014806,-0.145553,17,32765
1.10959,-0.0191647,-0.151162,16,32765
1.08967,-0.0226406,-0.148719,16,32765
1.10935,-0.0269307,-0.151683,17,32765
1.08941,-0.0302444,-0.149255,16,32765
1.07936,-0.0336706,-0.148116,16,32765
1.06933,-0.0369869,-0.146884,16,32765
1.09886,-0.0417662,-0.151214,16,32765
1.08881,-0.0450723,-0.149902,16,32765
1.08863,-0.0487884,-0.150039,16,32765
1.06864,-0.0515165,-0.147494,17,32765
1.10801,-0.0571394,-0.153158,17,32765
1.05835,-0.0581515,-0.146338,17,32765
1.08781,-0.0634317,-0.150509,18,32765
1.09746,-0.0677633,-0.151936,18,32765
1.08732,-0.0708956,-0.150687,18,32765
1.0673,-0.0732776,-0.148022,18,32765
1.0769,-0.0776796,-0.149479,18,32765
1.05687,-0.0798901,-0.146749,17,32765
1.08621,-0.0858742,-0.150901,18,32765
1.06618,-0.0879468,-0.148099,18,32765
1.04614,-0.0899196,-0.145312,18,32765
1.0754,-0.0961457,-0.149548,18,32765
1.07508,-0.0998066,-0.149502,18,32765
1.08457,-0.104475,-0.150968,18,32765
1.04478,-0.104287,-0.145456,18,32765
1.07399,-0.110977,-0.149422,18,32765
1.06374,-0.11367,-0.148109,19,32765
1.07322,-0.118419,-0.149262,18,32765
1.06296,-0.120989,-0.147939,18,32765
1.05272,-0.123455,-0.146434,18,32765
1.04246,-0.125841,-0.145078,18,32765
1.06169,-0.131838,-0.14773,18,32765
