x, y, z, intensity, ring
2.65397,0.054991,-0.435343,21,32765
2.62457,0.0455032,-0.430313,20,32765
2.65435,0.037135,-0.434912,20,32765
2.65452,0.0284528,-0.434527,20,32765
2.65469,0.0196855,-0.43396,20,32765
2.64496,0.0109753,-0.431844,20,32765
2.62531,0.00204866,-0.428162,20,32765
2.61554,-0.00665463,-0.425946,20,32765
2.6156,-0.0154248,-0.425307,19,32765
2.67492,-0.0246736,-0.433942,20,32765
0,-0,-0,0,32765
2.91552,2.15085,0.644981,24,32765
2.96238,2.17056,0.652625,25,32765
2.95369,2.14945,0.647815,24,32765
2.96117,2.13957,0.646378,25,32765
2.96858,2.12981,0.644633,24,32765
3.00006,2.13707,0.648206,24,32765
2.99133,2.11577,0.643322,24,32765
3.00675,2.11149,0.643386,25,32765
2.99804,2.09014,0.638103,25,32765
3.02953,2.09709,0.641671,24,32765
3.05291,2.09849,0.643179,26,32765
3.03556,2.07204,0.636339,25,32765
3.02618,2.05119,0.631611,26,32765
3.04958,2.0523,0.633235,26,32765
3.04839,2.03693,0.629779,24,32765
3.05534,2.02695,0.628326,27,32765
3.05407,2.01153,0.624918,24,32765
3.07737,2.01254,0.626374,25,32765
3.05113,1.98098,0.618398,25,32765
3.04124,1.96041,0.613603,24,32765
3.08955,1.97695,0.620274,25,32765
3.12123,1.9827,0.623921,27,32765
3.08624,1.94626,0.614146,26,32765
3.11792,1.95196,0.617524,27,32765
3.10779,1.93148,0.61248,26,32765
3.13953,1.93683,0.616148,28,32765
3.12934,1.91617,0.61151,27,32765
3.15268,1.91616,0.613634,27,32765
3.17631,1.91584,0.614987,29,32765
3.16584,1.89534,0.610528,27,32765
3.15538,1.87489,0.605631,28,32765
3.16177,1.86453,0.604261,26,32765
3.16802,1.8543,0.602988,28,32765
3.17427,1.84397,0.601788,28,32765
3.19758,1.84353,0.603729,28,32765
3.18668,1.82332,0.599128,27,32765
3.21869,1.82745,0.602454,28,32765
3.19904,1.80233,0.596756,24,32765
3.1966,1.78701,0.593665,20,32765
3.15943,1.75265,0.584636,19,32765
3.13084,1.72327,0.57671,21,32765
3.1974,1.74598,0.586747,19,32765
3.20338,1.73525,0.585974,21,32765
3.21812,1.72917,0.586236,26,32765
3.26751,1.74186,0.593122,30,32765
3.28198,1.73594,0.593917,28,32765
3.25278,1.70701,0.586482,27,32765
3.24971,1.69194,0.583778,28,32765
3.30815,1.70833,0.592136,29,32765
3.28759,1.68383,0.586563,28,32765
3.2671,1.65929,0.580434,28,32765
3.27291,1.64822,0.579243,27,32765
3.30505,1.65046,0.583256,30,32765
3.33733,1.65243,0.587043,29,32765
3.30747,1.62402,0.579758,28,32765
3.34853,1.63043,0.584773,29,32765
3.31848,1.60218,0.577618,26,32765
3.30604,1.58275,0.573695,28,32765
3.37395,1.60147,0.583257,28,32765
3.32571,1.56516,0.572993,28,32765
3.34,1.55835,0.57346,27,32765
3.39015,1.568,0.580204,30,32765
3.35056,1.53627,0.571451,28,32765
3.32882,1.51287,0.565819,27,32765
3.37002,1.5181,0.57088,28,32765
3.41132,1.52308,0.575781,30,32765
3.37138,1.49169,0.567068,27,32765
3.34925,1.46872,0.561615,27,32765
3.37249,1.46545,0.563156,29,32765
3.39563,1.46203,0.565504,29,32765
3.41883,1.45854,0.567333,29,32765
3.39648,1.43569,0.561821,29,32765
3.42877,1.43593,0.565018,31,32765
3.44289,1.42835,0.564992,30,32765
3.47513,1.42829,0.568716,31,32765
3.48004,1.41689,0.567204,32,32765
3.47562,1.40186,0.564774,32,32765
3.44359,1.37594,0.557665,29,32765
3.45751,1.36832,0.557598,28,32765
3.47132,1.36077,0.557795,29,32765
3.42985,1.33148,0.549267,28,32765
3.47131,1.33441,0.554013,28,32765
3.47583,1.32323,0.552481,30,32765
3.48036,1.31185,0.551108,30,32765
3.48474,1.30061,0.550064,31,32765
3.49844,1.29273,0.550171,31,32765
3.51218,1.28467,0.550097,30,32765
3.53505,1.2801,0.552098,32,32765
3.53015,1.2652,0.548984,30,32765
3.52501,1.25074,0.546219,29,32765
3.53859,1.2427,0.546034,30,32765
3.5428,1.23139,0.54435,29,32765
3.5563,1.22333,0.544256,29,32765
3.5511,1.20867,0.541225,29,32765
3.55507,1.19753,0.539896,29,32765
3.53097,1.1768,0.533843,28,32765
3.56306,1.17509,0.536538,28,32765
3.58576,1.17033,0.537336,29,32765
3.57086,1.15305,0.53247,30,32765
3.55582,1.13599,0.527804,28,32765
3.58801,1.13395,0.5295,28,32765
2.97464,2.19695,0.622449,27,32765
2.97398,2.18152,0.619664,27,32765
2.97329,2.16614,0.616686,28,32765
3.00479,2.17352,0.620187,30,32765
3.02833,2.1751,0.621704,29,32765
3.0118,2.14783,0.615123,28,32765
3.02724,2.14354,0.615327,29,32765
3.01048,2.11644,0.608749,28,32765
3.03412,2.11762,0.610157,28,32765
3.0414,2.10761,0.608558,30,32765
3.02418,2.08101,0.601782,29,32765
3.06377,2.09357,0.606528,30,32765
3.07077,2.08367,0.605191,30,32765
3.07793,2.07361,0.603393,30,32765
3.06859,2.05263,0.598412,30,32765
3.08381,2.04802,0.598544,30,32765
3.0661,2.02161,0.592029,29,32765
3.10598,2.0334,0.596464,30,32765
3.08804,2.00706,0.590429,29,32765
3.09481,1.99704,0.588959,28,32765
3.10171,1.98681,0.587263,30,32765
3.09179,1.96605,0.58277,29,32765
3.13185,1.97707,0.587575,30,32765
3.14691,1.97214,0.587524,29,32765
3.15359,1.96197,0.585765,31,32765
3.16026,1.95161,0.584471,30,32765
3.15009,1.93084,0.580009,30,32765
3.16506,1.92563,0.580391,30,32765
3.17182,1.91506,0.578464,32,32765
3.17827,1.90469,0.57727,31,32765
3.1848,1.89426,0.575622,30,32765
3.20827,1.89384,0.577301,31,32765
3.21462,1.88344,0.576008,32,32765
3.19533,1.85804,0.570215,32,32765
3.22727,1.86246,0.573482,31,32765
3.22498,1.84703,0.57057,30,32765
3.22273,1.83151,0.567545,31,32765
3.22028,1.81604,0.565146,31,32765
3.25237,1.81993,0.568166,25,32765
3.18933,1.77092,0.555071,20,32765
3.18672,1.7557,0.552001,23,32765
3.22745,1.76404,0.556875,24,32765
3.19872,1.73434,0.550115,23,32765
3.22217,1.73295,0.551775,24,32765
3.25418,1.73636,0.555217,31,32765
3.28612,1.73973,0.558894,31,32765
3.25689,1.71072,0.55183,31,32765
3.2889,1.71389,0.555138,31,32765
3.32113,1.71657,0.558491,32,32765
3.28296,1.68295,0.550242,32,32765
3.31533,1.68528,0.553223,32,32765
3.33889,1.68293,0.55495,31,32765
3.30925,1.654,0.548404,32,32765
3.34157,1.65596,0.55191,33,32765
3.34719,1.64493,0.55084,33,32765
3.37947,1.64689,0.554009,33,32765
3.36724,1.62709,0.550128,33,32765
3.35487,1.60747,0.546379,33,32765
3.38718,1.60909,0.54947,34,32765
3.35681,1.58109,0.542654,33,32765
3.38012,1.57836,0.544462,34,32765
3.39448,1.57128,0.544961,34,32765
3.38182,1.55185,0.540988,34,32765
3.37812,1.5365,0.538498,33,32765
3.39238,1.52938,0.53887,33,32765
3.39761,1.51814,0.53767,33,32765
3.41189,1.51079,0.537989,33,32765
3.41698,1.49957,0.537078,33,32765
3.43127,1.49213,0.536981,32,32765
3.40906,1.46892,0.532037,32,32765
3.43231,1.46539,0.533674,33,32765
3.42818,1.45016,0.531263,33,32765
3.46055,1.45031,0.534168,33,32765
3.45644,1.43501,0.531223,33,32765
3.47042,1.42738,0.531857,34,32765
3.47532,1.41598,0.530346,34,32765
3.48924,1.40835,0.530804,35,32765
3.47557,1.38969,0.526851,34,32765
3.47113,1.37466,0.523896,33,32765
3.49419,1.37067,0.525381,33,32765
3.49884,1.35919,0.524228,34,32765
3.48498,1.34056,0.520296,33,32765
3.51728,1.3399,0.522885,34,32765
3.52186,1.32836,0.521496,34,32765
3.53557,1.32044,0.521808,33,32765
3.52146,1.30207,0.517704,34,32765
3.53524,1.29392,0.517526,33,32765
3.54884,1.2859,0.517975,34,32765
3.5626,1.27762,0.517657,34,32765
3.54814,1.25971,0.513622,33,32765
3.58045,1.25816,0.516027,33,32765
3.56599,1.24019,0.511636,34,32765
3.58888,1.23527,0.512777,34,32765
3.57432,1.21728,0.50849,33,32765
3.58771,1.20922,0.508483,34,32765
3.59181,1.19775,0.506673,33,32765
3.59575,1.18654,0.505094,33,32765
3.58081,1.16936,0.500419,33,32765
3.60359,1.16427,0.500988,34,32765
3.62633,1.15915,0.501718,34,32765
3.6397,1.15091,0.500484,33,32765
2.97262,2.19227,0.587437,25,32765
2.97969,2.18268,0.587346,23,32765
2.97083,2.16141,0.583819,25,32765
2.97003,2.14592,0.581409,25,32765
2.99321,2.14761,0.584301,24,32765
3.02457,2.15487,0.588312,25,32765
2.99135,2.1165,0.579968,25,32765
3.03866,2.13525,0.58722,25,32765
3.05371,2.13123,0.587874,24,32765
3.02832,2.0988,0.580705,25,32765
3.01089,2.07214,0.575104,24,32765
3.0586,2.09009,0.582217,25,32765
3.02475,2.05234,0.573391,26,32765
3.08086,2.07545,0.581741,27,32765
3.06326,2.04876,0.576141,26,32765
3.07844,2.04412,0.576535,26,32765
3.08517,2.0342,0.575638,26,32765
3.10026,2.02951,0.576186,26,32765
3.08216,2.00326,0.57062,26,32765
3.05578,1.97162,0.563291,26,32765
3.11243,1.99349,0.571277,26,32765
3.08568,1.96218,0.564274,26,32765
3.09231,1.95209,0.563012,25,32765
3.13235,1.96302,0.56789,27,32765
3.15577,1.96317,0.569812,27,32765
3.14566,1.94226,0.565724,27,32765
3.13539,1.92149,0.561759,26,32765
3.15886,1.92138,0.563466,26,32765
3.17384,1.91618,0.563481,29,32765
3.17184,1.90068,0.560737,26,32765
3.16115,1.88026,0.556898,26,32765
3.16748,1.86988,0.555895,27,32765
3.18248,1.86432,0.555886,27,32765
3.21445,1.86866,0.559485,27,32765
3.19525,1.84308,0.553479,26,32765
3.2358,1.8523,0.558105,29,32765
3.25052,1.84678,0.558507,31,32765
3.22228,1.81671,0.55142,29,32765
3.16801,1.77236,0.539786,25,32765
3.11367,1.72806,0.52808,16,32765
3.14562,1.7319,0.531523,19,32765
3.19489,1.74529,0.537587,20,32765
3.14871,1.70634,0.527638,21,32765
3.1458,1.69137,0.524714,20,32765
3.23893,1.72742,0.537973,25,32765
3.25363,1.72128,0.538054,27,32765
3.31203,1.73825,0.545318,30,32765
3.27401,1.70452,0.536984,28,32765
3.2797,1.69395,0.5357,29,32765
3.28555,1.68312,0.534012,26,32765
3.30892,1.68119,0.535896,28,32765
3.28819,1.6567,0.530611,27,32765
3.31165,1.65441,0.532428,30,32765
3.31739,1.64331,0.531095,28,32765
3.30539,1.62335,0.526784,30,32765
3.31985,1.61667,0.527119,28,32765
3.31643,1.60149,0.524316,28,32765
3.34852,1.60353,0.527849,30,32765
3.38075,1.60539,0.530704,31,32765
3.38615,1.59429,0.529773,31,32765
3.34667,1.56224,0.521625,29,32765
3.36991,1.55956,0.523397,29,32765
3.39327,1.5567,0.524678,31,32765
3.36247,1.52912,0.51818,29,32765
3.36769,1.518,0.516938,27,32765
3.38187,1.51093,0.517373,27,32765
3.44125,1.52388,0.524944,31,32765
3.41014,1.49655,0.518519,28,32765
3.37884,1.4696,0.512005,29,32765
3.42942,1.47792,0.517428,30,32765
3.39791,1.45104,0.511459,29,32765
3.43018,1.45152,0.514367,30,32765
3.45328,1.44787,0.516669,32,32765
3.45805,1.43674,0.515798,31,32765
3.45381,1.42157,0.513065,31,32765
3.46763,1.41415,0.513942,32,32765
3.4447,1.3918,0.509332,30,32765
3.45853,1.38425,0.509942,29,32765
3.48154,1.38031,0.511856,29,32765
3.44924,1.35447,0.505746,28,32765
3.54608,1.37908,0.518717,32,32765
3.52286,1.35691,0.514157,30,32765
3.49963,1.33476,0.50931,29,32765
3.50398,1.32345,0.508907,30,32765
3.50837,1.31193,0.508496,28,32765
3.51266,1.30061,0.507946,29,32765
3.51688,1.28932,0.507538,30,32765
3.49321,1.26769,0.502905,29,32765
3.52539,1.26639,0.506259,29,32765
3.55757,1.26479,0.510015,31,32765
3.56167,1.25325,0.509862,29,32765
3.55623,1.23882,0.508464,30,32765
3.55078,1.22434,0.506996,30,32765
3.57336,1.21958,0.509693,31,32765
3.54914,1.19856,0.505397,30,32765
3.57181,1.19327,0.508167,30,32765
3.59452,1.18796,0.510455,29,32765
3.55116,1.16102,0.504169,30,32765
3.5736,1.15595,0.507204,29,32765
3.57716,1.14465,0.507715,28,32765
3.59008,1.13645,0.509702,29,32765
2.99936,2.21503,0.557083,28,32765
3.0145,2.21118,0.558468,27,32765
3.00573,2.18976,0.55512,28,32765
3.01303,2.17992,0.554266,29,32765
3.01225,2.16416,0.552547,28,32765
3.01149,2.1484,0.550386,29,32765
3.01856,2.13858,0.549859,28,32765
3.00937,2.11745,0.546358,28,32765
3.0487,2.13051,0.551325,30,32765
3.07203,2.13186,0.553311,29,32765
3.04655,2.09939,0.546513,29,32765
3.05357,2.08934,0.545854,29,32765
3.07696,2.09044,0.54769,31,32765
3.08404,2.08023,0.54674,31,32765
3.07466,2.05898,0.542868,29,32765
3.10636,2.06525,0.54606,30,32765
3.12968,2.06612,0.548045,31,32765
3.1035,2.03416,0.541268,30,32765
3.11857,2.02944,0.541742,30,32765
3.10887,2.00834,0.537645,30,32765
3.13237,2.00872,0.539313,30,32765
3.13069,1.99323,0.536971,30,32765
3.12068,1.97239,0.532833,31,32765
3.16083,1.98326,0.537326,30,32765
3.14232,1.95716,0.531939,29,32765
3.14901,1.94666,0.530879,30,32765
3.15562,1.93619,0.529931,30,32765
3.1707,1.93086,0.530029,31,32765
3.19418,1.93074,0.531353,31,32765
3.16676,1.89986,0.524475,30,32765
3.2156,1.91488,0.53065,30,32765
3.21352,1.89926,0.528227,31,32765
3.22862,1.89354,0.528102,32,32765
3.20937,1.86785,0.523039,31,32765
3.25016,1.8769,0.527048,32,32765
3.23072,1.85149,0.521567,31,32765
3.21962,1.83129,0.517724,31,32765
3.23441,1.82561,0.517926,31,32765
3.27516,1.83436,0.522092,32,32765
3.26426,1.81365,0.517857,28,32765
3.21845,1.77397,0.508634,27,32765
3.25922,1.7824,0.512834,29,32765
3.26536,1.7715,0.511606,28,32765
3.25393,1.75142,0.507359,28,32765
3.25122,1.73586,0.504717,27,32765
3.24844,1.72039,0.501992,28,32765
3.30689,1.73742,0.508698,33,32765
3.31275,1.72654,0.507562,33,32765
3.32732,1.72038,0.507605,34,32765
3.30679,1.6958,0.501877,33,32765
3.33905,1.69829,0.504903,33,32765
3.33606,1.68258,0.502553,34,32765
3.32417,1.6624,0.498847,32,32765
3.33881,1.65564,0.498834,33,32765
3.3713,1.65743,0.501313,34,32765
3.35916,1.63749,0.497572,33,32765
3.34687,1.61784,0.49353,33,32765
3.37904,1.61979,0.496775,34,32765
3.37554,1.60453,0.494095,34,32765
3.40783,1.60611,0.497088,35,32765
3.38631,1.58232,0.492009,35,32765
3.38265,1.567,0.489674,33,32765
3.40604,1.5641,0.490763,34,32765
3.39327,1.54464,0.487226,34,32765
3.42566,1.54563,0.489848,34,32765
3.43994,1.53836,0.490173,34,32765
3.43602,1.52302,0.488154,33,32765
3.44118,1.51161,0.487245,34,32765
3.43716,1.49637,0.484945,34,32765
3.42414,1.47703,0.480922,33,32765
3.46555,1.48129,0.485549,34,32765
3.47054,1.46995,0.484327,34,32765
3.49373,1.46617,0.486437,35,32765
3.48941,1.45108,0.484284,34,32765
3.48519,1.43578,0.481631,34,32765
3.47152,1.41699,0.478611,33,32765
3.48536,1.40947,0.479339,33,32765
3.49926,1.40177,0.479846,34,32765
3.49469,1.38672,0.477781,33,32765
3.51776,1.38256,0.479595,34,32765
3.50386,1.36381,0.476532,34,32765
3.52684,1.35958,0.478537,34,32765
3.51286,1.34092,0.475223,34,32765
3.55436,1.34358,0.479829,33,32765
3.54023,1.32492,0.476908,34,32765
3.53526,1.31003,0.475103,34,32765
3.53952,1.29865,0.474691,34,32765
3.5345,1.28368,0.472829,34,32765
3.54809,1.27553,0.473403,32,32765
3.55229,1.26388,0.473141,35,32765
3.5564,1.25233,0.472988,33,32765
3.56969,1.24442,0.474172,32,32765
3.57363,1.23312,0.474041,33,32765
3.57749,1.22186,0.474061,34,32765
3.60025,1.21667,0.476263,34,32765
3.58536,1.19863,0.473872,34,32765
3.58927,1.18703,0.473485,33,32765
3.60245,1.17857,0.475129,34,32765
3.62497,1.17333,0.477981,34,32765
3.6286,1.16185,0.478499,34,32765
3.62268,1.14747,0.477906,34,32765
2.96956,2.18501,0.566004,24,32765
2.98511,2.18126,0.56461,25,32765
2.9687,2.15411,0.557441,24,32765
2.99235,2.1558,0.557929,25,32765
2.99985,2.14601,0.5554,23,32765
3.00739,2.13612,0.552723,25,32765
2.9823,2.10357,0.544953,25,32765
3.00568,2.10528,0.545688,26,32765
2.99653,2.08434,0.540756,25,32765
3.03623,2.09699,0.544828,26,32765
3.04357,2.08693,0.542513,26,32765
3.07538,2.0935,0.544915,26,32765
3.04974,2.06134,0.537008,26,32765
3.05692,2.05122,0.534896,26,32765
3.07212,2.0468,0.534401,27,32765
3.08738,2.0422,0.533985,26,32765
3.0778,2.02128,0.529156,26,32765
3.08466,2.01124,0.527453,27,32765
3.11643,2.01733,0.529865,26,32765
3.1316,2.0125,0.52963,28,32765
3.13849,2.00227,0.527639,29,32765
3.13702,1.98663,0.524329,25,32765
3.14376,1.97631,0.52294,27,32765
3.14211,1.96072,0.519914,25,32765
3.15711,1.95568,0.520111,28,32765
3.12999,1.92465,0.512811,27,32765
3.16194,1.92988,0.515035,26,32765
3.16839,1.91962,0.513763,28,32765
3.16633,1.90423,0.510998,27,32765
3.18123,1.89908,0.510791,29,32765
3.17067,1.87846,0.506569,27,32765
3.22841,1.89797,0.513288,27,32765
3.18368,1.85716,0.503531,28,32765
3.22446,1.86624,0.507587,27,32765
3.22213,1.8508,0.504877,26,32765
3.21106,1.83063,0.500816,27,32765
3.22574,1.82514,0.501027,28,32765
3.23179,1.81473,0.499853,27,32765
3.22063,1.79447,0.495806,28,32765
3.18329,1.75991,0.488123,23,32765
3.18935,1.74931,0.486665,23,32765
3.2214,1.75303,0.489349,23,32765
3.20115,1.72831,0.484255,22,32765
3.20708,1.71759,0.483117,24,32765
3.2304,1.71642,0.484265,21,32765
3.27129,1.72422,0.488469,29,32765
3.30348,1.72726,0.491129,30,32765
3.30046,1.71188,0.488807,29,32765
3.30624,1.70106,0.487538,28,32765
3.28547,1.67662,0.482779,30,32765
3.33545,1.68805,0.488036,31,32765
3.31471,1.66348,0.482837,28,32765
3.31159,1.64794,0.480216,28,32765
3.31726,1.63677,0.47924,29,32765
3.34067,1.63441,0.480742,30,32765
3.3284,1.61466,0.477012,30,32765
3.32503,1.59924,0.474357,30,32765
3.35728,1.60095,0.477657,31,32765
3.38964,1.60256,0.480195,32,32765
3.38609,1.58722,0.477498,31,32765
3.38241,1.57195,0.475259,30,32765
3.39674,1.56493,0.475427,29,32765
3.34789,1.52898,0.466835,28,32765
3.40734,1.54241,0.473178,30,32765
3.40355,1.52703,0.470771,29,32765
3.39065,1.50771,0.46683,29,32765
3.43217,1.51229,0.470707,30,32765
3.42819,1.49695,0.468556,30,32765
3.42424,1.48155,0.466059,30,32765
3.47494,1.48965,0.471035,32,32765
3.44348,1.46268,0.464624,30,32765
3.43922,1.44754,0.462581,29,32765
3.46242,1.44395,0.463715,31,32765
3.44896,1.42504,0.459939,30,32765
3.4721,1.42135,0.461154,29,32765
3.4494,1.39856,0.456264,29,32765
3.47263,1.3945,0.457277,30,32765
3.46819,1.37934,0.454632,29,32765
3.49134,1.37519,0.45583,31,32765
3.52368,1.37474,0.458145,31,32765
3.51898,1.35977,0.455896,32,32765
3.48647,1.33427,0.449287,28,32765
3.51874,1.33362,0.451712,28,32765
3.49531,1.31178,0.446775,29,32765
3.49039,1.29708,0.444112,29,32765
3.51339,1.29259,0.445172,29,32765
3.5738,1.3014,0.450802,29,32765
3.55949,1.28307,0.447026,30,32765
3.53578,1.26154,0.441805,30,32765
3.54939,1.25342,0.441456,28,32765
3.5536,1.24197,0.43994,29,32765
3.54841,1.22714,0.437361,29,32765
3.56191,1.219,0.437005,30,32765
3.5848,1.21404,0.437486,30,32765
3.59822,1.20601,0.436773,30,32765
3.57384,1.18545,0.431811,30,32765
3.56835,1.17106,0.428802,28,32765
3.58167,1.1629,0.428257,29,32765
3.57612,1.14855,0.424952,29,32765
3.57987,1.13752,0.423041,29,32765
3.63102,1.14162,0.425759,30,32765
2.97222,2.1901,0.53129,27,32765
2.98778,2.18634,0.529799,28,32765
3.01139,2.18822,0.529951,29,32765
3.01107,2.17239,0.526007,29,32765
3.04276,2.17982,0.527648,30,32765
3.04233,2.16403,0.523542,28,32765
3.03348,2.14272,0.518889,29,32765
3.04889,2.13858,0.51802,30,32765
3.02357,2.10613,0.5105,27,32765
3.05522,2.11309,0.512814,29,32765
3.07893,2.11416,0.513205,30,32765
3.07811,2.09831,0.509879,30,32765
3.10168,2.09939,0.510443,29,32765
3.08431,2.0725,0.504259,30,32765
3.09133,2.06248,0.502313,30,32765
3.12317,2.06875,0.50446,30,32765
3.13022,2.05856,0.502451,31,32765
3.1372,2.04833,0.500718,31,32765
3.13584,2.0327,0.497538,31,32765
3.14273,2.02244,0.495882,33,32765
3.14128,2.00681,0.492573,30,32765
3.13982,1.99113,0.489353,31,32765
3.16335,1.99134,0.490563,31,32765
3.17015,1.98091,0.488915,31,32765
3.16837,1.96531,0.48642,31,32765
3.17502,1.95498,0.484641,32,32765
3.21555,1.96525,0.48784,31,32765
3.17972,1.92908,0.480143,32,32765
3.18618,1.91874,0.478741,30,32765
3.1841,1.90333,0.475885,30,32765
3.22472,1.91303,0.479457,32,32765
3.23133,1.90221,0.478003,33,32765
3.22939,1.88632,0.475104,34,32765
3.2188,1.86541,0.471226,32,32765
3.24226,1.86481,0.472369,34,32765
3.25706,1.85928,0.472233,34,32765
3.25459,1.84386,0.469841,32,32765
3.25205,1.82847,0.467412,33,32765
3.26691,1.8226,0.46726,33,32765
3.24699,1.79742,0.462501,30,32765
3.19229,1.75316,0.452384,24,32765
3.18951,1.73789,0.449868,23,32765
3.25648,1.76042,0.457326,25,32765
3.24503,1.74011,0.45372,25,32765
3.26844,1.73881,0.454663,27,32765
3.25677,1.71871,0.451183,26,32765
3.31534,1.73562,0.457206,33,32765
3.33877,1.73389,0.458602,34,32765
3.34462,1.72293,0.457317,34,32765
3.33274,1.70283,0.454031,34,32765
3.34743,1.69618,0.453998,34,32765
3.34443,1.68043,0.451469,34,32765
3.35024,1.66919,0.450122,33,32765
3.36489,1.66227,0.450325,34,32765
3.37057,1.65101,0.449247,34,32765
3.37619,1.6398,0.448062,33,32765
3.38185,1.62849,0.446662,33,32765
3.3963,1.62146,0.447311,35,32765
3.38387,1.60171,0.443668,33,32765
3.38031,1.58636,0.441066,33,32765
3.40363,1.58365,0.442432,34,32765
3.40899,1.57239,0.441331,34,32765
3.41431,1.5611,0.440284,33,32765
3.41059,1.54565,0.43791,34,32765
3.41586,1.5343,0.436753,33,32765
3.43018,1.52701,0.436457,33,32765
3.44454,1.51945,0.436491,34,32765
3.44057,1.50404,0.434429,33,32765
3.44575,1.49251,0.433166,34,32765
3.47826,1.49273,0.43538,35,32765
3.46507,1.47347,0.431619,34,32765
3.47914,1.46594,0.431937,35,32765
3.48408,1.45456,0.430601,35,32765
3.49818,1.44694,0.430392,34,32765
3.48463,1.42802,0.426896,34,32765
3.49874,1.42009,0.426774,34,32765
3.51284,1.41215,0.426459,35,32765
3.50845,1.39683,0.423891,33,32765
3.53167,1.39254,0.424886,35,32765
3.53631,1.38111,0.423578,35,32765
3.52235,1.36249,0.420312,34,32765
3.5455,1.35826,0.420683,35,32765
3.54069,1.34332,0.418414,33,32765
3.53588,1.32837,0.415937,34,32765
3.54963,1.32044,0.415532,34,32765
3.57272,1.31575,0.416381,34,32765
3.57721,1.30396,0.414924,34,32765
3.57224,1.28895,0.412414,35,32765
3.61405,1.29075,0.414992,35,32765
3.58089,1.2658,0.409159,34,32765
3.56636,1.24766,0.405495,34,32765
3.59876,1.24577,0.407258,35,32765
3.5841,1.22778,0.403607,35,32765
3.60703,1.22275,0.40389,35,32765
3.61104,1.21147,0.402021,34,32765
3.60552,1.19711,0.399426,33,32765
3.6095,1.1857,0.397533,34,32765
3.62286,1.17739,0.396875,34,32765
3.62681,1.16593,0.394668,34,32765
3.64956,1.16076,0.394781,34,32765
3.65336,1.14973,0.391885,35,32765
3.00253,2.20895,0.492917,23,32765
2.986,2.18126,0.488704,24,32765
3.00125,2.17723,0.489682,25,32765
2.95194,2.1271,0.479967,24,32765
3.03933,2.17555,0.492312,24,32765
3.03847,2.15989,0.490057,25,32765
3.03756,2.14417,0.488114,24,32765
3.061,2.14551,0.489858,25,32765
3.04375,2.11848,0.484998,25,32765
3.0589,2.11423,0.485436,25,32765
3.09045,2.12108,0.488441,28,32765
3.08926,2.10549,0.486091,26,32765
3.09633,2.09535,0.484925,28,32765
3.10341,2.08509,0.483874,26,32765
3.10219,2.06931,0.481622,27,32765
3.10104,2.05343,0.479017,28,32765
3.11624,2.04864,0.479302,27,32765
3.07318,2.006,0.470678,27,32765
3.09648,2.00679,0.472262,27,32765
3.11976,2.00755,0.473759,28,32765
3.11813,1.99199,0.471329,27,32765
3.14995,1.99772,0.473853,27,32765
3.13985,1.97684,0.470129,28,32765
3.1549,1.97184,0.470088,26,32765
3.16145,1.96155,0.469075,28,32765
3.15125,1.94062,0.465287,26,32765
3.16639,1.93527,0.465114,26,32765
3.16456,1.91947,0.46274,27,32765
3.16259,1.9039,0.460007,26,32765
3.19451,1.90881,0.46269,28,32765
3.21791,1.90854,0.464122,29,32765
3.21573,1.8931,0.461346,30,32765
3.23927,1.89249,0.462601,30,32765
3.22861,1.87171,0.45866,29,32765
3.21786,1.85092,0.455065,30,32765
3.2242,1.84017,0.453801,29,32765
3.265,1.84914,0.457007,29,32765
3.27119,1.83843,0.455916,29,32765
3.26001,1.8181,0.452148,28,32765
3.24015,1.79297,0.446749,25,32765
3.13306,1.72011,0.430323,17,32765
3.2523,1.77139,0.444543,18,32765
3.24086,1.75117,0.440803,20,32765
3.20306,1.71693,0.433768,21,32765
3.24395,1.72503,0.437087,24,32765
3.22349,1.7004,0.43204,22,32765
3.30841,1.73127,0.441308,27,32765
3.33193,1.72941,0.442445,29,32765
3.30254,1.70008,0.436562,29,32765
3.29069,1.67997,0.43292,28,32765
3.32309,1.68239,0.434927,30,32765
3.31112,1.6624,0.431083,29,32765
3.35234,1.66918,0.434209,29,32765
3.34904,1.65374,0.432097,29,32765
3.35468,1.64261,0.430787,30,32765
3.36926,1.63575,0.43047,32,32765
3.35698,1.6158,0.427038,31,32765
3.37147,1.60893,0.426762,29,32765
3.34995,1.58515,0.421949,30,32765
3.3912,1.59112,0.425418,29,32765
3.40554,1.58422,0.425339,30,32765
3.38382,1.56052,0.420784,30,32765
3.38913,1.54931,0.419424,30,32765
3.4034,1.54222,0.419558,29,32765
3.40872,1.53075,0.418367,29,32765
3.39582,1.5112,0.415081,26,32765
3.39183,1.49592,0.413065,27,32765
3.42417,1.49682,0.414941,29,32765
3.47474,1.50544,0.419467,31,32765
3.45241,1.4822,0.415155,28,32765
3.44831,1.46676,0.413146,29,32765
3.46248,1.4591,0.413125,30,32765
3.46742,1.44751,0.412402,28,32765
3.45387,1.42861,0.409228,29,32765
3.45861,1.41738,0.40821,29,32765
3.5093,1.42489,0.413013,31,32765
3.51405,1.41344,0.412008,32,32765
3.49101,1.39101,0.407844,29,32765
3.49557,1.3797,0.407254,31,32765
3.48162,1.36107,0.404214,29,32765
3.51392,1.36047,0.406934,29,32765
3.51837,1.34915,0.40613,29,32765
3.52285,1.33763,0.405403,30,32765
3.54583,1.33323,0.407079,29,32765
3.54092,1.31819,0.40529,29,32765
3.52663,1.29966,0.402721,29,32765
3.54023,1.29165,0.403118,30,32765
3.54449,1.28013,0.402468,30,32765
3.5767,1.27873,0.40553,31,32765
3.57148,1.26377,0.404366,31,32765
3.55687,1.24558,0.401622,30,32765
3.58909,1.24385,0.404558,31,32765
3.57427,1.2259,0.402177,30,32765
3.58758,1.21776,0.403008,29,32765
3.58201,1.20313,0.402135,29,32765
3.59531,1.19481,0.402878,29,32765
3.58022,1.17717,0.400489,30,32765
3.61218,1.17525,0.404158,31,32765
3.62525,1.16711,0.405344,30,32765
3.6194,1.15258,0.404867,30,32765
3.62311,1.14074,0.405211,31,32765
3.01232,2.21992,0.459077,28,32765
3.03588,2.22144,0.461226,29,32765
3.01113,2.18807,0.456023,29,32765
3.04232,2.19588,0.459102,29,32765
3.03318,2.17475,0.455939,28,32765
3.08892,2.19939,0.462248,29,32765
3.04762,2.15481,0.454343,29,32765
3.05486,2.14472,0.453484,29,32765
3.07017,2.14035,0.453718,29,32765
3.0854,2.13601,0.454052,29,32765
3.11704,2.14279,0.456769,30,32765
3.08312,2.10469,0.449716,29,32765
3.09019,2.09455,0.44855,29,32765
3.09727,2.08429,0.447499,29,32765
3.1043,2.07401,0.446528,30,32765
3.11144,2.06358,0.445198,30,32765
3.14326,2.06967,0.447747,31,32765
3.12518,2.04314,0.443209,31,32765
3.15694,2.04917,0.445764,32,32765
3.16368,2.03899,0.444706,32,32765
3.17052,2.0286,0.443521,34,32765
3.14379,1.9969,0.437573,32,32765
3.17569,2.00248,0.439855,33,32765
3.19082,1.99735,0.439704,33,32765
3.18903,1.98168,0.437521,33,32765
3.17888,1.96062,0.433906,32,32765
3.19409,1.95516,0.433626,31,32765
3.20081,1.94439,0.43248,31,32765
3.19892,1.92867,0.429821,31,32765
3.18832,1.90796,0.426509,30,32765
3.22028,1.91279,0.428892,30,32765
3.23522,1.9074,0.428474,31,32765
3.23309,1.89168,0.426142,32,32765
3.231,1.87586,0.423516,31,32765
3.23747,1.86494,0.422351,32,32765
3.20935,1.83438,0.416598,31,32765
3.25015,1.84342,0.419436,32,32765
3.26499,1.83761,0.419461,33,32765
3.29717,1.84149,0.421427,33,32765
3.27736,1.81619,0.416285,33,32765
3.26606,1.79572,0.413184,32,32765
3.28094,1.78955,0.412953,26,32765
3.25207,1.75973,0.407197,25,32765
3.24929,1.74419,0.404991,25,32765
3.2552,1.73346,0.403563,23,32765
3.2699,1.72732,0.403124,25,32765
3.28452,1.72119,0.40289,29,32765
3.31685,1.724,0.404923,32,32765
3.34926,1.72654,0.406934,32,32765
3.34635,1.71077,0.40453,33,32765
3.35226,1.69951,0.403031,34,32765
3.36698,1.69278,0.402546,33,32765
3.36383,1.67722,0.39998,33,32765
3.36055,1.6617,0.397957,33,32765
3.393,1.66364,0.399797,34,32765
3.38977,1.64795,0.397272,34,32765
3.39543,1.63653,0.39611,34,32765
3.40102,1.62523,0.394682,34,32765
3.4065,1.61408,0.393248,34,32765
3.41186,1.60296,0.392184,34,32765
3.41723,1.59178,0.390971,34,32765
3.41357,1.57634,0.388749,33,32765
3.42798,1.56915,0.3884,34,32765
3.41514,1.54958,0.385362,33,32765
3.45677,1.55437,0.388241,34,32765
3.44394,1.53463,0.385127,33,32765
3.46732,1.53121,0.386232,34,32765
3.45423,1.51191,0.382744,33,32765
3.48663,1.51254,0.384777,34,32765
3.47344,1.49315,0.381746,34,32765
3.47852,1.48151,0.380826,34,32765
3.47442,1.46599,0.378702,33,32765
3.49775,1.46202,0.37997,34,32765
3.5118,1.4544,0.379958,35,32765
3.49822,1.43541,0.376938,33,32765
3.51213,1.42782,0.377302,34,32765
3.53535,1.42377,0.378271,36,32765
3.51232,1.40123,0.374381,34,32765
3.53542,1.39714,0.375755,35,32765
3.53079,1.38197,0.373872,34,32765
3.53534,1.37042,0.373363,34,32765
3.55841,1.36615,0.374508,33,32765
3.57225,1.35801,0.374748,35,32765
3.54874,1.33591,0.371356,34,32765
3.57181,1.33126,0.372578,34,32765
3.56689,1.31604,0.371163,35,32765
3.56186,1.30105,0.369518,34,32765
3.58487,1.29621,0.370799,34,32765
3.58905,1.28462,0.370674,35,32765
3.60261,1.27623,0.371538,35,32765
3.59742,1.2612,0.369941,35,32765
3.61091,1.25281,0.370661,35,32765
3.60552,1.23799,0.36943,34,32765
3.63773,1.23614,0.372092,35,32765
3.62278,1.21814,0.370351,34,32765
3.6267,1.20654,0.370032,33,32765
3.64,1.19811,0.370716,34,32765
3.62474,1.18058,0.36929,34,32765
3.64732,1.17543,0.371347,33,32765
3.65098,1.16383,0.371933,35,32765
3.65474,1.15187,0.372278,34,32765
3.04643,2.23728,0.479509,28,32765
2.99832,2.1861,0.467592,26,32765
2.99808,2.17014,0.463562,25,32765
2.99748,2.15454,0.459838,25,32765
3.00474,2.14491,0.457505,23,32765
3.02824,2.14673,0.457078,25,32765
3.03559,2.1368,0.454821,25,32765
3.03474,2.1212,0.451425,25,32765
3.06637,2.12832,0.453007,25,32765
3.06548,2.11269,0.449302,26,32765
3.09721,2.11947,0.45119,26,32765
3.07982,2.0926,0.445214,25,32765
3.07054,2.07134,0.440697,27,32765
3.07768,2.06118,0.438535,27,32765
3.12614,2.07842,0.44252,27,32765
3.14158,2.0735,0.44175,28,32765
3.10712,2.03586,0.434345,27,32765
3.13067,2.0366,0.43449,28,32765
3.14583,2.03184,0.433903,30,32765
3.16099,2.02712,0.432817,28,32765
3.15095,2.00625,0.429022,30,32765
3.1493,1.9907,0.426083,28,32765
3.20651,2.01213,0.430942,29,32765
3.15423,1.96493,0.421261,29,32765
3.20316,1.98069,0.425127,29,32765
3.20987,1.97006,0.423942,26,32765
3.15718,1.92322,0.41451,26,32765
3.20626,1.93852,0.418258,29,32765
3.19573,1.91777,0.414679,29,32765
3.22787,1.92246,0.416437,30,32765
3.20877,1.89665,0.411117,31,32765
3.22379,1.89108,0.410571,29,32765
3.23884,1.88539,0.410013,29,32765
3.24511,1.87485,0.408768,29,32765
3.22559,1.84932,0.403952,29,32765
3.2491,1.84857,0.404668,29,32765
3.27268,1.84766,0.405128,30,32765
3.24428,1.81737,0.399225,28,32765
3.27643,1.82119,0.401499,29,32765
3.28262,1.81043,0.399593,29,32765
3.25375,1.78056,0.394446,27,32765
3.22474,1.75096,0.388988,19,32765
3.19563,1.72144,0.383501,18,32765
3.22778,1.72495,0.385226,20,32765
3.26879,1.73278,0.388386,21,32765
3.25709,1.71268,0.384814,21,32765
3.28936,1.7156,0.386941,25,32765
3.33062,1.72284,0.389501,29,32765
3.36306,1.72524,0.391617,29,32765
3.34237,1.70045,0.387235,30,32765
3.35707,1.69375,0.386875,29,32765
3.36292,1.6824,0.385589,30,32765
3.35967,1.66686,0.383541,30,32765
3.36529,1.65572,0.382494,31,32765
3.36195,1.64021,0.380236,30,32765
3.38541,1.63782,0.380718,32,32765
3.38208,1.62215,0.378297,29,32765
3.4055,1.61951,0.379277,30,32765
3.366,1.58695,0.373134,29,32765
3.37139,1.57578,0.371844,29,32765
3.39475,1.57298,0.372816,29,32765
3.40009,1.56179,0.371171,30,32765
3.40535,1.55053,0.37016,30,32765
3.42873,1.54749,0.370825,32,32765
3.44313,1.54012,0.370176,31,32765
3.40282,1.50854,0.364267,30,32765
3.408,1.49711,0.36298,28,32765
3.44045,1.49769,0.36483,30,32765
3.45469,1.49023,0.364326,30,32765
3.47806,1.48652,0.365134,32,32765
3.50149,1.48268,0.365502,31,32765
3.46984,1.45557,0.360512,29,32765
3.46565,1.44016,0.357875,31,32765
3.47046,1.42878,0.356906,30,32765
3.49369,1.42497,0.357364,30,32765
3.5077,1.41731,0.356774,31,32765
3.51237,1.40591,0.355875,30,32765
3.52634,1.39809,0.355488,30,32765
3.48469,1.36836,0.349492,29,32765
3.51712,1.36786,0.350609,30,32765
3.54958,1.3671,0.351988,32,32765
3.52623,1.3449,0.347945,29,32765
3.53071,1.33348,0.346466,29,32765
3.52582,1.31852,0.344197,29,32765
3.53963,1.31037,0.343581,30,32765
3.56281,1.30549,0.343761,32,32765
3.55788,1.29037,0.341258,30,32765
3.54341,1.2722,0.337892,30,32765
3.56643,1.26733,0.338281,30,32765
3.58944,1.26252,0.338182,30,32765
3.56538,1.24116,0.334214,30,32765
3.58833,1.23621,0.334332,29,32765
3.59238,1.22489,0.332519,29,32765
3.57742,1.20741,0.329106,29,32765
3.60025,1.20245,0.329206,30,32765
3.64208,1.20339,0.331066,30,32765
3.61777,1.18225,0.32627,29,32765
3.57427,1.15546,0.320049,29,32765
3.63485,1.16292,0.323069,31,32765
3.62903,1.14892,0.320176,30,32765
3.62327,1.13471,0.316982,29,32765
3.02404,2.22476,0.440477,28,32765
3.01595,2.20282,0.435017,29,32765
3.03987,2.20426,0.43451,29,32765
3.06356,2.20591,0.434271,29,32765
3.05482,2.18448,0.42961,30,32765
3.06224,2.17463,0.426689,29,32765
3.04531,2.14739,0.421036,29,32765
3.07704,2.15452,0.422192,31,32765
3.10063,2.15585,0.422352,31,32765
3.09982,2.14007,0.41871,31,32765
3.12345,2.14113,0.419196,33,32765
3.10611,2.11412,0.413478,32,32765
3.12983,2.11499,0.413479,33,32765
3.12886,2.09907,0.41019,33,32765
3.13609,2.08863,0.408289,31,32765
3.12669,2.06721,0.4042,31,32765
3.11712,2.0459,0.400471,30,32765
3.15736,2.05747,0.402545,30,32765
3.15588,2.04181,0.399732,31,32765
3.15434,2.0263,0.396441,31,32765
3.16944,2.02145,0.395976,32,32765
3.18463,2.01644,0.395203,32,32765
3.18301,2.00076,0.392215,33,32765
3.2066,2.00092,0.392494,33,32765
3.21338,1.99035,0.390722,34,32765
3.22013,1.97966,0.389531,35,32765
3.2014,1.95341,0.384828,33,32765
3.19954,1.93768,0.381986,32,32765
3.23163,1.94254,0.383656,32,32765
3.23823,1.93183,0.38209,32,32765
3.2277,1.911,0.378045,32,32765
3.25135,1.9104,0.378392,31,32765
3.25787,1.89959,0.37673,32,32765
3.24696,1.87899,0.373495,32,32765
3.27059,1.87818,0.37389,32,32765
3.25961,1.85758,0.370465,32,32765
3.28323,1.85663,0.370731,34,32765
3.28088,1.84085,0.368117,32,32765
3.26964,1.82035,0.365241,32,32765
3.28453,1.8144,0.364303,32,32765
3.2993,1.80839,0.364347,33,32765
3.29659,1.79284,0.362127,30,32765
3.24132,1.74884,0.354113,23,32765
3.24724,1.73811,0.352675,24,32765
3.27953,1.74123,0.354502,22,32765
3.25023,1.71177,0.349218,24,32765
3.26486,1.7055,0.349177,25,32765
3.32378,1.722,0.353251,31,32765
3.34738,1.71989,0.35415,33,32765
3.37101,1.71769,0.354721,34,32765
3.37689,1.7064,0.353324,34,32765
3.38278,1.69496,0.352028,34,32765
3.37956,1.67932,0.350067,34,32765
3.38523,1.66809,0.349012,33,32765
3.39087,1.65685,0.347756,33,32765
3.37854,1.63699,0.344382,34,32765
3.40213,1.63425,0.344785,33,32765
3.40762,1.62298,0.343756,34,32765
3.41313,1.6116,0.342599,33,32765
3.40958,1.59603,0.340389,34,32765
3.45109,1.60148,0.342956,34,32765
3.42938,1.5776,0.338602,33,32765
3.41657,1.55795,0.335799,32,32765
3.45812,1.56307,0.338045,35,32765
3.45439,1.54745,0.335521,35,32765
3.47782,1.54406,0.336238,35,32765
3.45576,1.52033,0.332291,35,32765
3.47004,1.51278,0.332095,34,32765
3.46604,1.49731,0.329744,35,32765
3.48029,1.48964,0.329492,34,32765
3.50374,1.48579,0.32967,34,32765
3.49962,1.47018,0.327633,34,32765
3.50467,1.45847,0.32593,35,32765
3.50033,1.44315,0.324095,34,32765
3.49594,1.42793,0.321804,32,32765
3.50996,1.42024,0.321118,34,32765
3.52389,1.41253,0.32106,34,32765
3.52862,1.40097,0.319735,34,32765
3.55185,1.39671,0.320055,34,32765
3.53796,1.3779,0.316701,34,32765
3.55188,1.3699,0.316135,34,32765
3.55644,1.35832,0.314843,34,32765
3.55163,1.34325,0.312531,34,32765
3.54677,1.3282,0.310346,34,32765
3.5793,1.32689,0.311251,35,32765
3.58383,1.31501,0.309608,34,32765
3.58828,1.30319,0.307992,35,32765
3.60197,1.295,0.307199,36,32765
3.59691,1.2799,0.304987,34,32765
3.58234,1.26175,0.301518,34,32765
3.61474,1.26005,0.302561,34,32765
3.6189,1.24844,0.300901,34,32765
3.60411,1.23055,0.297513,34,32765
3.63638,1.22897,0.298154,35,32765
3.63092,1.21433,0.295728,34,32765
3.63493,1.20264,0.294133,34,32765
3.62954,1.18769,0.291143,34,32765
3.65242,1.18231,0.290669,33,32765
3.64664,1.16824,0.287833,34,32765
3.69785,1.17227,0.289492,35,32765
3.65407,1.14588,0.283395,34,32765
3.029,2.22589,0.398708,24,32765
3.03649,2.21575,0.39821,26,32765
3.04385,2.20577,0.397417,26,32765
3.03509,2.18407,0.394561,26,32765
3.05041,2.17986,0.395093,27,32765
3.0172,2.14094,0.388968,25,32765
3.08935,2.17692,0.396165,27,32765
3.06382,2.14424,0.390994,27,32765
3.07909,2.1399,0.391064,28,32765
3.0944,2.13545,0.391058,27,32765
3.1098,2.13075,0.391329,28,32765
3.10059,2.10923,0.387749,27,32765
3.11585,2.10463,0.387874,26,32765
3.09813,2.07773,0.383559,26,32765
3.10498,2.06774,0.382149,25,32765
3.08692,2.04111,0.378416,25,32765
3.11872,2.04736,0.380031,26,32765
3.11736,2.03152,0.377612,28,32765
3.14936,2.03727,0.379427,27,32765
3.15631,2.02674,0.378025,29,32765
3.21344,2.04843,0.38294,31,32765
3.19507,2.02195,0.378494,29,32765
3.19331,2.00636,0.37604,30,32765
3.18303,1.98551,0.372776,28,32765
3.17266,1.96478,0.369251,28,32765
3.1539,1.93852,0.365326,27,32765
3.20295,1.9539,0.369172,28,32765
3.24361,1.96392,0.371654,31,32765
3.22469,1.93772,0.367459,28,32765
3.23122,1.92708,0.366043,29,32765
3.22913,1.9114,0.363542,28,32765
3.23565,1.90065,0.361917,27,32765
3.24196,1.89005,0.360998,28,32765
3.2139,1.8594,0.355527,28,32765
3.246,1.86371,0.357329,29,32765
3.22641,1.83808,0.353036,27,32765
3.25006,1.83707,0.35326,29,32765
3.27377,1.83586,0.353429,30,32765
3.24524,1.80554,0.348318,27,32765
3.27748,1.80922,0.349905,28,32765
3.31851,1.81756,0.352122,29,32765
3.26341,1.77336,0.34385,28,32765
3.26057,1.75798,0.341445,18,32765
3.25773,1.7425,0.33908,19,32765
3.25482,1.72705,0.336856,19,32765
3.25186,1.71157,0.334689,19,32765
3.2665,1.70538,0.334162,20,32765
3.34306,1.73109,0.340113,23,32765
3.32244,1.70621,0.335723,28,32765
3.3282,1.69517,0.334706,28,32765
3.32514,1.67944,0.332444,29,32765
3.33087,1.66828,0.33127,29,32765
3.31872,1.64833,0.327872,29,32765
3.36901,1.65929,0.330754,30,32765
3.37453,1.64832,0.32936,30,32765
3.39815,1.64559,0.32972,30,32765
3.38587,1.62547,0.326609,29,32765
3.39137,1.6142,0.325391,30,32765
3.40583,1.6072,0.32498,29,32765
3.42916,1.60465,0.325473,31,32765
3.43457,1.59334,0.324048,30,32765
3.40372,1.56532,0.319488,30,32765
3.3999,1.55001,0.317298,29,32765
3.42334,1.54683,0.317752,29,32765
3.46488,1.55188,0.319954,31,32765
3.4155,1.51603,0.313884,28,32765
3.44806,1.51661,0.314866,30,32765
3.42575,1.49325,0.311392,30,32765
3.46735,1.49775,0.313609,29,32765
3.49063,1.49428,0.314181,31,32765
3.46816,1.47101,0.31043,31,32765
3.46393,1.45565,0.308461,31,32765
3.50551,1.45972,0.311021,29,32765
3.52883,1.45577,0.311482,32,32765
3.50592,1.433,0.308259,30,32765
3.53846,1.43262,0.309454,32,32765
3.54325,1.42095,0.308478,31,32765
3.5109,1.39466,0.304259,30,32765
3.51554,1.38313,0.303338,29,32765
3.52007,1.37171,0.302766,29,32765
3.52461,1.36013,0.302084,31,32765
3.54779,1.35562,0.302644,31,32765
3.53361,1.33693,0.30059,30,32765
3.55668,1.3324,0.301352,32,32765
3.57969,1.32795,0.302093,31,32765
3.57466,1.31286,0.301002,31,32765
3.56961,1.29786,0.299239,30,32765
3.5738,1.2863,0.299105,30,32765
3.59687,1.28117,0.300091,30,32765
3.59158,1.26631,0.299004,30,32765
3.56748,1.24479,0.296091,29,32765
3.59043,1.23959,0.297168,30,32765
3.60387,1.23126,0.297515,29,32765
3.61724,1.22292,0.298271,30,32765
3.61161,1.20836,0.297478,30,32765
3.60605,1.19363,0.296254,29,32765
3.6288,1.18826,0.297859,30,32765
3.63255,1.17674,0.297915,28,32765
3.6552,1.17141,0.299674,29,32765
3.62077,1.14802,0.296965,29,32765
3.64331,1.14263,0.299326,29,32765
3.04577,2.24272,0.365337,30,32765
3.01315,2.20313,0.360033,28,32765
3.06075,2.22245,0.364033,30,32765
3.06012,2.20646,0.362313,29,32765
3.09172,2.21376,0.364653,30,32765
3.10729,2.20921,0.364694,30,32765
3.07397,2.17034,0.358767,29,32765
3.08917,2.16621,0.358705,30,32765
3.08818,2.15041,0.356783,30,32765
3.08716,2.13459,0.354796,31,32765
3.09436,2.12427,0.354033,32,32765
3.10157,2.11397,0.352515,32,32765
3.11685,2.10935,0.352544,31,32765
3.11567,2.0935,0.350365,31,32765
3.14742,2.10001,0.351721,32,32765
3.13776,2.07868,0.34918,31,32765
3.14474,2.06835,0.347729,31,32765
3.15179,2.05784,0.346306,30,32765
3.15882,2.04723,0.345085,31,32765
3.18256,2.04743,0.345495,30,32765
3.17263,2.0262,0.342587,32,32765
3.1794,2.01579,0.341145,30,32765
3.19448,2.01082,0.340586,31,32765
3.18421,1.98993,0.337507,32,32765
3.19924,1.9849,0.336839,32,32765
3.23142,1.98983,0.338515,32,32765
3.19568,1.95304,0.333009,31,32765
3.23634,1.96311,0.335117,33,32765
3.22594,1.94201,0.332082,31,32765
3.24104,1.93646,0.331538,32,32765
3.25611,1.93087,0.330865,32,32765
3.23694,1.90485,0.326625,31,32765
3.25187,1.89924,0.326568,32,32765
3.25829,1.88848,0.324902,32,32765
3.25596,1.87278,0.322979,32,32765
3.27966,1.87176,0.323224,33,32765
3.29475,1.86566,0.322383,33,32765
3.27513,1.8399,0.318121,33,32765
3.30753,1.84346,0.319262,33,32765
3.31375,1.83247,0.318032,34,32765
3.32865,1.82633,0.317357,33,32765
3.29981,1.7963,0.312218,33,32765
3.34088,1.80445,0.314009,32,32765
3.31183,1.77455,0.309238,21,32765
3.24742,1.72614,0.301368,22,32765
3.26209,1.71994,0.300922,23,32765
3.33858,1.74604,0.30596,24,32765
3.31798,1.72108,0.302265,22,32765
3.3239,1.70992,0.300572,29,32765
3.37407,1.72149,0.303546,33,32765
3.3622,1.70107,0.300563,33,32765
3.35018,1.68083,0.29779,33,32765
3.36484,1.6741,0.29693,33,32765
3.39736,1.6761,0.297754,33,32765
3.39397,1.66064,0.295567,35,32765
3.4266,1.66219,0.296505,34,32765
3.41437,1.64192,0.293568,33,32765
3.42892,1.63483,0.293107,34,32765
3.42543,1.61917,0.291055,34,32765
3.44881,1.61655,0.291351,34,32765
3.42712,1.59254,0.28764,34,32765
3.45965,1.5937,0.288747,35,32765
3.44684,1.57402,0.285875,34,32765
3.47946,1.5748,0.286871,35,32765
3.47562,1.55926,0.284948,34,32765
3.46268,1.53951,0.282409,34,32765
3.45883,1.52385,0.28013,34,32765
3.48222,1.52035,0.280616,34,32765
3.47817,1.50487,0.278769,34,32765
3.49232,1.49743,0.278418,34,32765
3.52492,1.49751,0.279311,36,32765
3.52996,1.4858,0.27814,36,32765
3.50722,1.46278,0.275252,34,32765
3.52134,1.45502,0.274804,35,32765
3.54457,1.45111,0.275449,35,32765
3.53097,1.43187,0.272777,34,32765
3.54501,1.42392,0.272512,35,32765
3.54972,1.41232,0.271503,34,32765
3.54514,1.39698,0.269864,34,32765
3.559,1.38906,0.26999,34,32765
3.545,1.37014,0.267894,35,32765
3.5589,1.36199,0.267557,35,32765
3.54474,1.34322,0.265689,34,32765
3.56784,1.33865,0.266259,34,32765
3.59088,1.33415,0.266808,36,32765
3.58587,1.319,0.265809,34,32765
3.59021,1.30734,0.264826,34,32765
3.61321,1.30246,0.266073,35,32765
3.58936,1.28043,0.263415,33,32765
3.59348,1.26888,0.26311,34,32765
3.62588,1.26707,0.264601,34,32765
3.61121,1.24862,0.262737,34,32765
3.62468,1.24021,0.262987,34,32765
3.65699,1.23818,0.265017,34,32765
3.64196,1.2203,0.263632,34,32765
3.6459,1.20858,0.26318,34,32765
3.65924,1.19996,0.263913,35,32765
3.68201,1.19448,0.265336,36,32765
3.66674,1.17679,0.264172,36,32765
3.67035,1.16539,0.264581,35,32765
3.6549,1.14787,0.264013,34,32765
3.04058,2.23043,0.379645,29,32765
3.05646,2.2261,0.377547,27,32765
3.03998,2.1985,0.371538,27,32765
3.0474,2.18861,0.369096,25,32765
3.0549,2.17865,0.366024,27,32765
3.03803,2.15124,0.360805,26,32765
3.05354,2.14695,0.359124,25,32765
3.06902,2.14259,0.357778,26,32765
3.09257,2.14403,0.35714,28,32765
3.08345,2.12257,0.352974,27,32765
3.10712,2.12366,0.352482,30,32765
3.10613,2.10777,0.34953,29,32765
3.10504,2.09197,0.346361,27,32765
3.12034,2.08742,0.345049,27,32765
3.11907,2.07174,0.341922,26,32765
3.15092,2.07809,0.342544,27,32765
3.12464,2.04588,0.336917,27,32765
3.165,2.05728,0.338312,26,32765
3.15521,2.03605,0.334728,26,32765
3.11188,1.99328,0.327354,26,32765
3.15217,2.00451,0.329018,26,32765
3.16731,1.99951,0.32817,27,32765
3.19938,2.00501,0.328644,27,32765
3.18908,1.98416,0.325194,26,32765
3.1788,1.96324,0.321556,28,32765
3.19385,1.95811,0.32047,28,32765
3.20045,1.94755,0.319071,28,32765
3.18146,1.92147,0.314905,27,32765
3.18791,1.91106,0.313042,29,32765
3.23721,1.92597,0.315475,28,32765
3.20937,1.89506,0.310378,28,32765
3.25878,1.9096,0.312804,27,32765
3.25668,1.89368,0.310461,28,32765
3.26306,1.88295,0.308787,30,32765
3.24353,1.8572,0.30469,30,32765
3.24979,1.84647,0.303151,28,32765
3.27338,1.8455,0.303305,28,32765
3.29705,1.84429,0.303553,29,32765
3.32066,1.84313,0.303672,29,32765
3.31816,1.82731,0.301244,29,32765
3.28058,1.79241,0.295957,28,32765
3.3041,1.79111,0.296155,30,32765
3.28389,1.76587,0.292221,25,32765
3.30738,1.76448,0.292317,17,32765
3.31337,1.75344,0.290901,19,32765
3.34574,1.75642,0.291738,26,32765
3.33396,1.73621,0.288445,20,32765
3.31327,1.71135,0.2848,19,32765
3.34558,1.71408,0.286159,28,32765
3.36919,1.7119,0.286497,30,32765
3.34834,1.68712,0.282506,29,32765
3.35416,1.67573,0.281366,30,32765
3.36,1.6642,0.280146,28,32765
3.37458,1.65736,0.2798,30,32765
3.3892,1.65041,0.279083,30,32765
3.39477,1.63916,0.277637,31,32765
3.38224,1.61938,0.27499,30,32765
3.38772,1.60807,0.274002,29,32765
3.40212,1.60121,0.273169,29,32765
3.44372,1.60669,0.274693,33,32765
3.42194,1.58272,0.271581,30,32765
3.40915,1.56304,0.268676,30,32765
3.37816,1.53509,0.264442,29,32765
3.41056,1.53628,0.265378,29,32765
3.46136,1.54514,0.267418,32,32765
3.43922,1.52152,0.263942,29,32765
3.45355,1.51395,0.263382,31,32765
3.48622,1.51415,0.264008,32,32765
3.46385,1.49071,0.260645,33,32765
3.51483,1.49862,0.262686,31,32765
3.50142,1.47939,0.259859,30,32765
3.51552,1.47179,0.259458,31,32765
3.47441,1.44108,0.254299,30,32765
3.51608,1.44491,0.255997,30,32765
3.50247,1.42576,0.253025,31,32765
3.4887,1.40686,0.250228,29,32765
3.52123,1.40639,0.250973,31,32765
3.52601,1.39465,0.249409,31,32765
3.54926,1.3903,0.249427,30,32765
3.49811,1.35699,0.243739,29,32765
3.55854,1.36697,0.246094,30,32765
3.55371,1.35192,0.244067,31,32765
3.56757,1.34378,0.2431,32,32765
3.56258,1.32888,0.241266,30,32765
3.59511,1.32759,0.24144,31,32765
3.58077,1.30902,0.238695,30,32765
3.59452,1.30073,0.237637,30,32765
3.6083,1.29226,0.23627,33,32765
3.54666,1.2573,0.230806,29,32765
3.59793,1.26232,0.232108,32,32765
3.59257,1.24764,0.230031,30,32765
3.59664,1.23621,0.228209,30,32765
3.63851,1.23751,0.228707,30,32765
3.63307,1.22276,0.226331,30,32765
3.62759,1.20798,0.224227,31,32765
3.62205,1.19337,0.221481,30,32765
3.62588,1.18201,0.219679,32,32765
3.62972,1.17057,0.217476,28,32765
3.69053,1.17751,0.218758,29,32765
3.6468,1.15069,0.213715,31,32765
3.66951,1.14544,0.21256,31,32765
3.04111,2.23545,0.344251,29,32765
3.04894,2.22524,0.341155,29,32765
3.05663,2.21513,0.338107,31,32765
3.08026,2.21681,0.33742,32,32765
3.05543,2.18354,0.330802,30,32765
3.07105,2.17912,0.329345,31,32765
3.0948,2.18045,0.328402,31,32765
3.11038,2.17594,0.326928,30,32765
3.1013,2.15451,0.322662,31,32765
3.12502,2.15561,0.322054,32,32765
3.1159,2.13404,0.317984,31,32765
3.12318,2.12369,0.31595,32,32765
3.13039,2.11337,0.313688,31,32765
3.15404,2.11427,0.313082,30,32765
3.16943,2.10949,0.311654,31,32765
3.1432,2.07722,0.306287,31,32765
3.14191,2.06137,0.303451,31,32765
3.15727,2.05641,0.30206,31,32765
3.1642,2.04599,0.300252,31,32765
3.17961,2.04078,0.298953,31,32765
3.20325,2.0411,0.298632,31,32765
3.21009,2.03059,0.29688,31,32765
3.21693,2.02005,0.294721,32,32765
3.19821,1.99383,0.290677,32,32765
3.22187,1.99382,0.290274,32,32765
3.22852,1.98331,0.288306,31,32765
3.25222,1.983,0.2884,33,32765
3.23335,1.95669,0.284486,33,32765
3.23991,1.94609,0.282589,32,32765
3.25507,1.94042,0.281559,33,32765
3.25301,1.92462,0.279034,33,32765
3.25953,1.91381,0.277306,33,32765
3.24882,1.89283,0.274327,33,32765
3.27246,1.89208,0.274101,35,32765
3.29621,1.89105,0.273872,34,32765
3.29392,1.87519,0.27159,33,32765
3.2655,1.84464,0.267269,32,32765
3.28917,1.84345,0.267331,32,32765
3.29534,1.83262,0.265858,33,32765
3.31027,1.82649,0.264932,34,32765
3.31642,1.81548,0.263591,34,32765
3.32249,1.80455,0.2622,32,32765
3.32866,1.79338,0.260599,33,32765
3.32585,1.77773,0.258435,29,32765
3.31425,1.75726,0.255649,20,32765
3.32898,1.75095,0.25485,23,32765
3.28179,1.71229,0.249065,22,32765
3.26101,1.68755,0.245721,22,32765
3.30213,1.69502,0.247476,23,32765
3.36124,1.71109,0.250288,31,32765
3.37601,1.70427,0.249211,33,32765
3.38189,1.69275,0.248059,33,32765
3.38778,1.6811,0.246826,34,32765
3.39347,1.66975,0.245727,33,32765
3.42607,1.67147,0.246195,35,32765
3.4407,1.66442,0.245372,35,32765
3.41925,1.64014,0.242257,34,32765
3.4248,1.62867,0.241256,34,32765
3.41218,1.60891,0.238418,33,32765
3.47189,1.62282,0.240814,35,32765
3.45016,1.5987,0.237975,34,32765
3.46463,1.59139,0.237105,34,32765
3.47006,1.57973,0.23569,33,32765
3.47532,1.5683,0.234469,35,32765
3.48979,1.56067,0.23357,34,32765
3.48594,1.54499,0.231575,33,32765
3.47293,1.52521,0.229093,35,32765
3.4965,1.52136,0.228828,34,32765
3.49247,1.50574,0.226932,34,32765
3.5068,1.49788,0.226122,35,32765
3.51176,1.48642,0.224662,35,32765
3.52589,1.47877,0.224162,35,32765
3.53087,1.46712,0.222368,35,32765
3.52647,1.45177,0.220782,35,32765
3.53136,1.44009,0.219139,35,32765
3.53615,1.42852,0.217656,34,32765
3.55949,1.42419,0.217534,35,32765
3.5736,1.41598,0.216514,35,32765
3.55975,1.39687,0.214089,35,32765
3.56443,1.38515,0.212283,35,32765
3.59702,1.38418,0.212394,35,32765
3.5829,1.36542,0.209898,36,32765
3.60614,1.3607,0.209363,35,32765
3.59185,1.34214,0.20707,35,32765
3.59633,1.33036,0.205342,35,32765
3.60074,1.31861,0.203845,35,32765
3.59573,1.30343,0.201629,36,32765
3.61892,1.29832,0.200687,35,32765
3.63256,1.28999,0.200022,35,32765
3.61799,1.27156,0.197216,34,32765
3.62209,1.26006,0.195732,34,32765
3.64507,1.25502,0.194904,35,32765
3.62083,1.23362,0.191499,34,32765
3.65322,1.23166,0.191206,35,32765
3.66671,1.22311,0.190169,35,32765
3.67068,1.21147,0.187978,35,32765
3.67456,1.19994,0.186151,35,32765
3.68795,1.19139,0.184392,35,32765
3.68223,1.17688,0.181786,34,32765
