x, y, z, intensity, ring
5.46127,2.77845,0.632724,43,32765
5.43526,2.74226,0.62637,40,32765
5.46252,2.73279,0.626327,41,32765
5.44498,2.70146,0.621602,38,32765
5.53443,2.72294,0.629036,39,32765
5.48106,2.67406,0.619907,39,32765
5.47218,2.64738,0.615393,39,32765
5.51718,2.64621,0.617116,38,32765
5.54405,2.63652,0.617451,44,32765
5.517,2.60108,0.611581,42,32765
5.5709,2.60383,0.614438,46,32765
5.60676,2.59792,0.615741,40,32765
5.6608,2.60022,0.61796,45,32765
5.64238,2.56909,0.613323,43,32765
5.66012,2.55458,0.612155,43,32765
5.66889,2.53571,0.609472,42,32765
5.65014,2.50482,0.60484,38,32765
5.69519,2.50186,0.606584,41,32765
5.74017,2.4988,0.608694,43,32765
5.72126,2.46795,0.603355,40,32765
5.71135,2.44103,0.599589,40,32765
5.74722,2.43362,0.59992,41,32765
5.77388,2.42209,0.599899,44,32765
5.75464,2.39136,0.594244,40,32765
5.80865,2.39141,0.597367,42,32765
5.82589,2.3762,0.59592,46,32765
5.77847,2.33483,0.587738,39,32765
5.82314,2.33086,0.590003,41,32765
5.84021,2.31547,0.588748,44,32765
5.89431,2.31457,0.591161,44,32765
5.8928,2.2918,0.587431,41,32765
5.85402,2.25464,0.580504,38,32765
5.93597,2.26397,0.585722,45,32765
5.91557,2.23419,0.58049,43,32765
5.95099,2.22544,0.580946,44,32765
5.97721,2.21276,0.580189,41,32765
5.97542,2.18953,0.576544,32,32765
0,0,0,0,32765
5.9338,2.13042,0.565835,13,32765
5.86585,2.08442,0.556383,23,32765
6.08889,2.14166,0.573669,43,32765
6.05832,2.10899,0.567899,44,32765
6.06531,2.08956,0.565118,42,32765
6.10987,2.08327,0.565544,44,32765
6.09766,2.05802,0.560956,43,32765
6.14217,2.05143,0.561637,40,32765
6.17734,2.04108,0.561522,42,32765
6.10853,1.99621,0.5509,42,32765
6.16253,1.99218,0.551808,41,32765
6.16881,1.97362,0.548289,40,32765
6.21305,1.967,0.548155,43,32765
6.23849,1.95372,0.545775,44,32765
4.78407,3.51959,0.696839,40,32765
4.7806,3.4917,0.689549,40,32765
4.78499,3.46967,0.683951,41,32765
4.79689,3.45398,0.679977,39,32765
4.83275,3.45586,0.679648,42,32765
4.82829,3.42879,0.672769,41,32765
4.84002,3.41292,0.669167,41,32765
4.8842,3.41987,0.670147,43,32765
4.87941,3.39263,0.664648,43,32765
4.87465,3.36539,0.658446,41,32765
4.89422,3.355,0.65685,42,32765
4.95499,3.37252,0.659595,44,32765
4.9336,3.33389,0.651773,42,32765
4.96985,3.33414,0.651542,43,32765
4.97306,3.31204,0.647444,43,32765
4.98445,3.29547,0.644361,44,32765
4.9957,3.2789,0.641822,42,32765
5.00678,3.26263,0.638337,43,32765
5.02604,3.25178,0.63661,43,32765
5.04527,3.24101,0.634095,45,32765
5.04763,3.21934,0.630629,44,32765
5.08365,3.21886,0.630865,43,32765
5.07766,3.19168,0.625676,43,32765
5.0968,3.18041,0.62386,45,32765
5.09913,3.15838,0.620013,44,32765
5.10983,3.14141,0.618124,45,32765
5.13753,3.13479,0.617563,45,32765
5.13118,3.1075,0.6126,43,32765
5.15015,3.09576,0.61142,46,32765
5.16921,3.08379,0.609933,46,32765
5.17974,3.06672,0.606676,44,32765
5.20731,3.05966,0.606026,46,32765
5.24354,3.05738,0.606347,45,32765
5.2451,3.0353,0.603338,49,32765
5.24675,3.01302,0.599802,47,32765
5.25688,2.99577,0.597461,44,32765
5.22371,2.95395,0.589845,27,32765
5.20774,2.92199,0.584312,19,32765
5.25229,2.92418,0.586717,20,32765
5.27093,2.9117,0.584625,32,32765
5.30681,2.90873,0.58604,45,32765
5.31651,2.89137,0.584014,44,32765
5.32628,2.87377,0.581893,45,32765
5.38867,2.88432,0.58525,48,32765
5.40727,2.87093,0.584501,46,32765
5.40824,2.84831,0.581083,48,32765
5.4532,2.84865,0.583219,49,32765
5.42766,2.812,0.576852,47,32765
5.46385,2.80733,0.57807,46,32765
5.46459,2.78446,0.575021,48,32765
5.46523,2.76167,0.571827,46,32765
5.51927,2.76546,0.574362,48,32765
5.51966,2.74274,0.571745,47,32765
5.54677,2.73321,0.571864,48,32765
5.57391,2.72353,0.571641,48,32765
5.58311,2.70517,0.569097,47,32765
5.58344,2.68206,0.565848,47,32765
5.59245,2.66357,0.564159,46,32765
5.59249,2.64065,0.561356,46,32765
5.61047,2.62627,0.560111,46,32765
5.65546,2.62441,0.562016,47,32765
5.6734,2.60991,0.560167,47,32765
5.68219,2.59108,0.558477,48,32765
5.69093,2.5723,0.556311,45,32765
5.69975,2.55329,0.55361,45,32765
5.69925,2.53032,0.551008,46,32765
5.73529,2.52318,0.55148,46,32765
5.75297,2.50804,0.550579,48,32765
5.73405,2.47708,0.545512,46,32765
5.78827,2.4775,0.547997,50,32765
5.78758,2.45427,0.544559,49,32765
5.80514,2.43873,0.543475,47,32765
5.82272,2.42313,0.541505,48,32765
5.83081,2.40398,0.539873,46,32765
5.86653,2.3962,0.54002,49,32765
5.86532,2.3733,0.536606,48,32765
5.8639,2.3505,0.534257,47,32765
5.91808,2.34966,0.536249,50,32765
5.92594,2.33028,0.533982,48,32765
5.93375,2.31097,0.53116,47,32765
5.95079,2.29513,0.52965,50,32765
5.9305,2.26505,0.525013,48,32765
5.99397,2.26695,0.527447,48,32765
6.00151,2.24745,0.525138,51,32765
6.03715,2.23804,0.524982,49,32765
5.99799,2.20083,0.518168,48,32765
6.02419,2.18785,0.517072,31,32765
5.96577,2.14484,0.508799,16,32765
5.95415,2.11869,0.504862,17,32765
6.03639,2.12609,0.508069,42,32765
6.09046,2.12306,0.509783,49,32765
6.12575,2.11324,0.509337,49,32765
6.14209,2.09709,0.507019,49,32765
6.09211,2.05892,0.499504,48,32765
6.16499,2.06183,0.502121,48,32765
6.19074,2.04825,0.500946,46,32765
6.21665,2.03427,0.498668,48,32765
6.23283,2.0176,0.496025,50,32765
6.25816,2.00488,0.493964,49,32765
6.24547,1.9799,0.488937,47,32765
6.28995,1.97246,0.487823,50,32765
4.7198,3.46838,0.621267,34,32765
4.73147,3.45258,0.620491,34,32765
4.75904,3.4487,0.621358,34,32765
4.77865,3.43874,0.621224,36,32765
4.8224,3.44615,0.624603,33,32765
4.81779,3.41859,0.621095,35,32765
4.82914,3.40286,0.619268,35,32765
4.85647,3.39885,0.619767,36,32765
4.84323,3.36595,0.615122,36,32765
4.85444,3.35006,0.613485,33,32765
4.84932,3.32262,0.610225,34,32765
4.84416,3.29533,0.605793,36,32765
4.92106,3.32398,0.612594,37,32765
4.90744,3.29113,0.607558,38,32765
4.89345,3.25876,0.602267,34,32765
4.93741,3.26468,0.605262,37,32765
4.94005,3.24301,0.601969,37,32765
5.00111,3.25913,0.605795,38,32765
4.97883,3.22072,0.599836,39,32765
5.01494,3.22021,0.600629,39,32765
5.03411,3.20903,0.599906,38,32765
5.04484,3.19256,0.597622,38,32765
5.05537,3.17629,0.595314,37,32765
5.04894,3.14943,0.5913,38,32765
5.0678,3.13841,0.589817,40,32765
5.05302,3.10581,0.585307,39,32765
5.07205,3.0941,0.584604,40,32765
5.09953,3.08763,0.584306,38,32765
5.11002,3.07061,0.582297,39,32765
5.12037,3.05377,0.580052,39,32765
5.1392,3.04202,0.578582,42,32765
5.15816,3.02995,0.576954,39,32765
5.18542,3.02307,0.577406,45,32765
5.16119,2.98601,0.57094,40,32765
5.18842,2.97896,0.571156,41,32765
5.25048,2.9912,0.574511,39,32765
5.16543,2.91972,0.561447,19,32765
5.12341,2.8731,0.553112,15,32765
0,0,0,0,32765
5.19516,2.8678,0.554637,33,32765
5.27468,2.88896,0.559689,44,32765
5.31945,2.89063,0.560485,41,32765
5.3554,2.88744,0.560814,45,32765
5.37394,2.87443,0.559345,43,32765
5.38364,2.85663,0.557179,44,32765
5.37571,2.82942,0.553281,41,32765
5.37648,2.80696,0.550013,42,32765
5.40373,2.79813,0.549759,38,32765
5.42223,2.78454,0.547899,40,32765
5.41386,2.75747,0.544454,41,32765
5.44114,2.74817,0.544,40,32765
5.47723,2.7433,0.544736,40,32765
5.41522,2.68962,0.534995,39,32765
5.52268,2.72,0.542191,42,32765
5.50487,2.68891,0.537285,43,32765
5.51414,2.67029,0.535034,41,32765
5.52336,2.65162,0.532796,44,32765
5.56832,2.65037,0.534262,46,32765
5.56827,2.62765,0.531316,45,32765
5.53178,2.58856,0.525039,39,32765
5.59473,2.59546,0.527858,44,32765
5.58536,2.56863,0.524266,41,32765
5.6121,2.55854,0.523754,43,32765
5.65714,2.55617,0.525091,40,32765
5.67476,2.54166,0.524019,42,32765
5.68339,2.52267,0.522304,45,32765
5.71029,2.51164,0.521445,40,32765
5.67304,2.47282,0.515666,40,32765
5.75452,2.4857,0.520475,43,32765
5.75359,2.46301,0.517862,42,32765
5.76192,2.44391,0.515741,41,32765
5.77935,2.42866,0.514648,44,32765
5.80571,2.41754,0.515103,44,32765
5.81381,2.39841,0.513173,43,32765
5.82168,2.37953,0.511872,47,32765
5.82045,2.35653,0.509024,43,32765
5.87458,2.35588,0.511445,42,32765
5.86386,2.32935,0.508169,43,32765
5.89943,2.32103,0.509032,44,32765
5.87916,2.291,0.505675,44,32765
5.89605,2.27525,0.505334,44,32765
5.91298,2.25936,0.504406,43,32765
5.9111,2.23644,0.502834,45,32765
5.9278,2.22067,0.502253,44,32765
5.92565,2.19822,0.500071,41,32765
5.95153,2.18581,0.501145,41,32765
5.91188,2.14947,0.495589,27,32765
0,0,0,0,32765
5.99165,2.13417,0.49989,14,32765
5.9891,2.11162,0.498601,33,32765
6.05248,2.11188,0.502339,43,32765
6.09714,2.10502,0.50464,45,32765
6.15111,2.10152,0.5078,43,32765
6.12002,2.06907,0.504646,44,32765
6.13596,2.05295,0.505401,44,32765
6.17098,2.04265,0.506975,43,32765
6.17749,2.02284,0.50706,43,32765
6.09851,1.97557,0.500155,40,32765
6.20909,1.98988,0.509057,47,32765
6.26269,1.98569,0.513648,44,32765
6.22121,1.95112,0.511121,39,32765
4.76102,3.50573,0.571079,40,32765
4.78087,3.49563,0.571252,41,32765
4.8086,3.49158,0.571914,42,32765
4.8203,3.47561,0.570714,42,32765
4.83182,3.45972,0.56989,41,32765
4.8516,3.44937,0.569418,43,32765
4.87119,3.43924,0.568523,41,32765
4.89865,3.43508,0.568817,42,32765
4.88553,3.40197,0.564435,41,32765
4.88868,3.38024,0.561839,42,32765
4.90008,3.36389,0.56063,42,32765
4.92796,3.3588,0.560097,42,32765
4.94738,3.34818,0.559593,44,32765
4.99995,3.35959,0.562257,46,32765
4.96133,3.31028,0.554424,44,32765
4.98058,3.29949,0.554254,43,32765
4.98333,3.27763,0.551031,44,32765
5.02785,3.28275,0.55244,45,32765
5.04743,3.27124,0.551406,46,32765
5.05022,3.24895,0.548246,45,32765
5.03592,3.21618,0.543788,43,32765
5.05508,3.20501,0.542402,44,32765
5.05722,3.18336,0.539187,44,32765
5.10149,3.18811,0.540727,45,32765
5.10354,3.16639,0.537339,45,32765
5.12278,3.15449,0.536649,45,32765
5.13348,3.13733,0.534939,45,32765
5.11853,3.10481,0.530014,44,32765
5.15468,3.10311,0.530629,44,32765
5.16513,3.08607,0.528361,46,32765
5.19264,3.07923,0.527643,45,32765
5.19455,3.05686,0.524159,46,32765
5.24772,3.06492,0.527,47,32765
5.24085,3.03755,0.522593,45,32765
5.25963,3.02526,0.521735,46,32765
5.25264,2.99778,0.517671,48,32765
5.29761,2.99978,0.518358,41,32765
5.29928,2.97702,0.514731,27,32765
5.27463,2.93983,0.509139,22,32765
5.28455,2.92231,0.507178,26,32765
5.30312,2.90967,0.505606,44,32765
5.34796,2.91124,0.506009,47,32765
5.36645,2.89848,0.504392,48,32765
5.38503,2.88541,0.50282,44,32765
5.36836,2.8535,0.498196,45,32765
5.41331,2.85418,0.499368,45,32765
5.44065,2.8454,0.498602,48,32765
5.43265,2.81798,0.494909,45,32765
5.42461,2.79058,0.490533,45,32765
5.4873,2.79969,0.493662,45,32765
5.51472,2.79012,0.492987,46,32765
5.49751,2.75818,0.488661,47,32765
5.51583,2.74428,0.486745,45,32765
5.55199,2.7391,0.486593,47,32765
5.51632,2.69908,0.480393,46,32765
5.55253,2.69345,0.480463,46,32765
5.56183,2.6746,0.478207,46,32765
5.58887,2.66465,0.477742,47,32765
5.6159,2.65458,0.477177,48,32765
5.63365,2.64065,0.475925,44,32765
5.61542,2.60942,0.471305,48,32765
5.67853,2.61583,0.473938,48,32765
5.69636,2.60128,0.472446,47,32765
5.65071,2.5575,0.465884,46,32765
5.70474,2.55932,0.467702,48,32765
5.71343,2.54018,0.465975,47,32765
5.73125,2.52501,0.464173,47,32765
5.74887,2.50998,0.463274,48,32765
5.78474,2.50284,0.463637,48,32765
5.75637,2.46821,0.458914,47,32765
5.79225,2.46076,0.458971,48,32765
5.81892,2.44925,0.458496,49,32765
5.82696,2.4303,0.457308,49,32765
5.84431,2.41487,0.456088,50,32765
5.86147,2.39963,0.455495,49,32765
5.86954,2.3802,0.453438,48,32765
5.85899,2.35336,0.450393,47,32765
5.88531,2.34158,0.450143,48,32765
5.90238,2.32586,0.449303,49,32765
5.97504,2.33203,0.453273,50,32765
5.93625,2.29436,0.448599,47,32765
5.95325,2.2783,0.447563,47,32765
5.98874,2.26934,0.448874,49,32765
5.99622,2.24978,0.447482,49,32765
5.98481,2.22359,0.444681,49,32765
6.02015,2.21441,0.446254,48,32765
6.01806,2.19142,0.443913,46,32765
5.99699,2.16175,0.441612,26,32765
5.96661,2.12847,0.437876,14,32765
6.02049,2.12588,0.440813,19,32765
6.08395,2.12604,0.443981,47,32765
6.13811,2.12233,0.446585,49,32765
6.14497,2.10254,0.445845,50,32765
6.14223,2.07964,0.445119,50,32765
6.15822,2.06342,0.445778,49,32765
6.16488,2.04361,0.445014,51,32765
6.21881,2.03931,0.448516,48,32765
6.26322,2.03184,0.451345,52,32765
6.22206,1.99688,0.44827,48,32765
6.26622,1.98962,0.451706,49,32765
6.2533,1.96394,0.45171,50,32765
4.73336,3.47217,0.591004,36,32765
4.73751,3.45046,0.585198,37,32765
4.74946,3.43478,0.580467,37,32765
4.80147,3.44837,0.581547,38,32765
4.80519,3.42689,0.575735,37,32765
4.80073,3.39941,0.57015,39,32765
4.82053,3.38932,0.566937,38,32765
4.83208,3.37344,0.563309,36,32765
4.82703,3.3465,0.557441,36,32765
4.8712,3.35322,0.557624,36,32765
4.88262,3.33719,0.553901,38,32765
4.87752,3.30982,0.548863,36,32765
4.94659,3.33269,0.551783,42,32765
4.9164,3.28893,0.543658,38,32765
4.91087,3.26189,0.538346,38,32765
4.9467,3.26244,0.537767,39,32765
4.96609,3.25159,0.535474,38,32765
5.00221,3.25148,0.534694,39,32765
4.99644,3.2242,0.53006,37,32765
4.98236,3.19139,0.524119,37,32765
5.02667,3.19652,0.524674,39,32765
4.98683,3.14817,0.516693,35,32765
5.03966,3.15828,0.517679,35,32765
5.03317,3.1315,0.513237,39,32765
5.0776,3.13596,0.513632,43,32765
5.08808,3.11943,0.510536,39,32765
5.06453,3.08189,0.504914,39,32765
5.12616,3.09599,0.507394,40,32765
5.09381,3.0536,0.500195,38,32765
5.12986,3.05199,0.499919,36,32765
5.14013,3.03513,0.497103,38,32765
5.15902,3.02312,0.495204,38,32765
5.18657,3.01587,0.494438,41,32765
5.23989,3.02367,0.495857,41,32765
5.22425,2.99132,0.490754,40,32765
5.243,2.97897,0.489083,39,32765
5.1228,2.88818,0.474668,20,32765
5.21961,2.91971,0.480558,20,32765
5.05507,2.80581,0.462283,15,32765
5.30906,2.92369,0.481991,35,32765
5.29267,2.89175,0.477477,42,32765
5.31111,2.87909,0.476047,43,32765
5.35607,2.88016,0.476617,41,32765
5.3569,2.85789,0.473461,42,32765
5.38422,2.84934,0.472714,39,32765
5.41145,2.84086,0.471861,42,32765
5.37678,2.80004,0.465184,40,32765
5.43058,2.80497,0.466798,42,32765
5.42215,2.778,0.463775,44,32765
5.44048,2.76434,0.462629,40,32765
5.47668,2.75952,0.462078,41,32765
5.48619,2.74088,0.460213,43,32765
5.46893,2.70874,0.455982,41,32765
5.48704,2.69486,0.454953,43,32765
5.53211,2.69392,0.45554,40,32765
5.55916,2.68423,0.45465,44,32765
5.53213,2.64873,0.449785,40,32765
5.56811,2.64305,0.450355,42,32765
5.54987,2.61205,0.445621,41,32765
5.62202,2.623,0.448449,42,32765
5.5946,2.58761,0.444014,42,32765
5.53987,2.53995,0.436599,39,32765
5.6666,2.57498,0.443581,45,32765
5.68427,2.56046,0.442297,41,32765
5.6657,2.52915,0.437722,40,32765
5.6925,2.51837,0.43687,42,32765
5.74677,2.51925,0.438274,46,32765
5.73717,2.49179,0.43447,43,32765
5.75475,2.47664,0.433029,43,32765
5.7724,2.46117,0.431408,43,32765
5.76219,2.43459,0.427643,41,32765
5.73343,2.40033,0.423148,41,32765
5.78761,2.40053,0.423607,41,32765
5.82321,2.39302,0.423974,42,32765
5.83128,2.37377,0.421262,44,32765
5.83918,2.35471,0.418817,43,32765
5.86563,2.34276,0.418068,43,32765
5.88287,2.32687,0.41612,42,32765
5.86278,2.29655,0.412012,43,32765
5.85189,2.27006,0.407744,43,32765
5.90607,2.26873,0.408439,47,32765
5.98814,2.27804,0.411263,44,32765
5.93972,2.23729,0.404742,48,32765
5.97503,2.22875,0.404642,49,32765
5.97312,2.20574,0.401142,44,32765
5.98044,2.18626,0.398659,44,32765
5.97835,2.16335,0.395235,26,32765
0,0,0,0,32765
5.99264,2.1244,0.389983,13,32765
6.03736,2.11818,0.38948,40,32765
6.08192,2.11214,0.389423,43,32765
6.06992,2.0863,0.38514,42,32765
6.16184,2.09573,0.387316,43,32765
6.12135,2.06022,0.381344,42,32765
6.10913,2.03433,0.377615,42,32765
6.14421,2.02435,0.375706,43,32765
6.18867,2.01746,0.37495,43,32765
6.22374,2.00712,0.372898,42,32765
6.21113,1.98173,0.368168,42,32765
6.21765,1.96189,0.364376,44,32765
6.2334,1.94576,0.361076,43,32765
4.78232,3.51538,0.541354,42,32765
4.81073,3.51106,0.538287,43,32765
4.80673,3.48342,0.531694,42,32765
4.83464,3.4794,0.529599,43,32765
4.83844,3.45775,0.523842,44,32765
4.84219,3.43586,0.519284,43,32765
4.87023,3.43135,0.516801,45,32765
4.85742,3.39813,0.510557,41,32765
4.89335,3.39947,0.509107,42,32765
4.90488,3.38335,0.505481,42,32765
4.90817,3.36154,0.500888,42,32765
4.95258,3.36764,0.501018,44,32765
4.93925,3.33455,0.494948,42,32765
4.96699,3.32956,0.493043,44,32765
4.98647,3.31886,0.490325,44,32765
4.9809,3.29168,0.485359,44,32765
5.00038,3.2807,0.482946,46,32765
5.01989,3.26959,0.480259,45,32765
5.03091,3.25302,0.477385,44,32765
5.05047,3.24156,0.474853,46,32765
5.07812,3.23576,0.473422,46,32765
5.06368,3.20312,0.468307,44,32765
5.08292,3.19179,0.465675,46,32765
5.11037,3.1859,0.464468,45,32765
5.09563,3.15339,0.459091,44,32765
5.13165,3.15243,0.458255,46,32765
5.13374,3.13023,0.455249,45,32765
5.14435,3.11315,0.452625,45,32765
5.16333,3.10142,0.450353,45,32765
5.18241,3.08936,0.448272,46,32765
5.20138,3.07736,0.446159,45,32765
5.21181,3.06007,0.443398,45,32765
5.21363,3.03756,0.440234,46,32765
5.23249,3.02533,0.438272,45,32765
5.23414,3.00285,0.434888,45,32765
5.2616,2.99537,0.433829,46,32765
5.25432,2.9681,0.430048,41,32765
5.25571,2.94562,0.427164,27,32765
5.30915,2.95255,0.428326,20,32765
5.21432,2.87708,0.41732,22,32765
5.30277,2.90286,0.421467,43,32765
5.35631,2.90918,0.422703,46,32765
5.35747,2.88644,0.419434,46,32765
5.37592,2.87352,0.417735,47,32765
5.42092,2.87425,0.418149,46,32765
5.38642,2.83311,0.412356,47,32765
5.40477,2.81997,0.410185,47,32765
5.43206,2.81106,0.409312,46,32765
5.4858,2.81592,0.411129,47,32765
5.45979,2.77939,0.406553,48,32765
5.46041,2.75651,0.403077,47,32765
5.53237,2.76915,0.405795,48,32765
5.5152,2.73678,0.401825,46,32765
5.56028,2.73593,0.402629,49,32765
5.56064,2.71286,0.399583,47,32765
5.5698,2.69436,0.397208,47,32765
5.62376,2.6976,0.398449,45,32765
5.59684,2.66159,0.394263,47,32765
5.5967,2.63895,0.391056,46,32765
5.62375,2.62864,0.390069,47,32765
5.63255,2.60995,0.388505,47,32765
5.64136,2.59122,0.386072,47,32765
5.66837,2.5805,0.385001,50,32765
5.71335,2.57825,0.385462,47,32765
5.73128,2.56308,0.383591,45,32765
5.73081,2.53993,0.380704,46,32765
5.7669,2.53265,0.380416,48,32765
5.73902,2.4971,0.37559,46,32765
5.80245,2.50167,0.377029,49,32765
5.79264,2.47425,0.373516,48,32765
5.82842,2.467,0.372868,48,32765
5.79976,2.43245,0.368725,47,32765
5.83561,2.42477,0.367517,48,32765
5.84361,2.40568,0.365851,49,32765
5.86095,2.39009,0.363702,48,32765
5.8689,2.3709,0.36124,50,32765
5.8954,2.35882,0.360291,49,32765
5.89412,2.33545,0.357107,48,32765
5.93911,2.33055,0.357188,51,32765
5.91901,2.30015,0.352512,49,32765
5.93601,2.28425,0.350505,48,32765
5.99016,2.28281,0.350922,49,32765
5.96041,2.24903,0.346046,49,32765
6.02383,2.25089,0.347273,50,32765
6.00324,2.22074,0.342771,48,32765
6.01998,2.20456,0.340804,49,32765
6.01793,2.18146,0.337453,46,32765
6.01587,2.15824,0.33361,24,32765
6.00408,2.13216,0.330607,19,32765
6.04883,2.12588,0.32972,24,32765
6.12171,2.12964,0.330808,49,32765
6.13807,2.11337,0.328205,49,32765
6.14501,2.09361,0.324998,49,32765
6.1518,2.07405,0.321978,49,32765
6.1775,2.06064,0.320388,50,32765
6.1842,2.04103,0.316696,51,32765
6.17174,2.01541,0.312656,48,32765
6.2353,2.01431,0.311755,48,32765
6.2988,2.01316,0.310963,53,32765
6.24825,1.97494,0.304332,49,32765
6.29262,1.96762,0.302291,52,32765
4.67634,3.43364,0.463048,33,32765
4.76808,3.47718,0.470111,35,32765
4.78766,3.46738,0.469622,39,32765
4.78299,3.43998,0.46653,33,32765
4.74586,3.38924,0.460863,36,32765
4.81415,3.41385,0.464739,39,32765
4.84182,3.40948,0.464588,38,32765
4.83664,3.38241,0.461144,39,32765
4.84784,3.36653,0.459745,41,32765
4.88347,3.36785,0.460208,39,32765
4.89485,3.35153,0.458482,42,32765
4.8649,3.30722,0.452801,35,32765
4.91731,3.31906,0.454295,37,32765
4.93661,3.3085,0.453149,38,32765
4.92274,3.2757,0.448734,36,32765
4.97531,3.28689,0.450585,38,32765
4.94472,3.24299,0.444573,37,32765
4.99738,3.25383,0.446368,38,32765
4.98314,3.22108,0.442142,36,32765
5.01902,3.22092,0.442181,37,32765
4.99604,3.18315,0.436762,38,32765
5.05711,3.19883,0.439477,37,32765
5.02545,3.15584,0.433631,40,32765
5.06136,3.15523,0.433117,39,32765
5.05498,3.12795,0.429816,38,32765
5.09099,3.1269,0.429429,37,32765
5.09316,3.10462,0.425923,38,32765
5.10365,3.08765,0.423835,38,32765
5.15704,3.09603,0.424741,39,32765
5.17604,3.08394,0.423729,43,32765
5.16934,3.05652,0.419441,41,32765
5.20549,3.05448,0.419032,45,32765
5.16411,3.00694,0.41274,39,32765
5.17431,2.98962,0.410852,39,32765
5.25355,3.01221,0.414354,41,32765
5.22909,2.97494,0.408924,42,32765
5.21313,2.94278,0.40409,35,32765
5.19696,2.91082,0.399535,18,32765
5.45102,3.02917,0.416014,14,32765
5.25131,2.89578,0.397852,20,32765
5.26107,2.87833,0.395558,40,32765
5.31467,2.88464,0.395934,40,32765
5.30702,2.85726,0.391478,40,32765
5.29909,2.83006,0.388279,38,32765
5.37033,2.84515,0.390915,45,32765
5.37995,2.8272,0.388906,42,32765
5.39841,2.81382,0.386792,43,32765
5.43453,2.8096,0.385844,42,32765
5.44424,2.79106,0.383545,41,32765
5.43573,2.7641,0.38034,42,32765
5.43608,2.74165,0.377314,44,32765
5.49,2.74587,0.377543,42,32765
5.48135,2.71886,0.373438,41,32765
5.49066,2.70036,0.370918,42,32765
5.49083,2.67759,0.368401,40,32765
5.50904,2.66333,0.36614,42,32765
5.54505,2.65784,0.36596,42,32765
5.60801,2.66531,0.367102,43,32765
5.58988,2.634,0.36251,44,32765
5.57148,2.60295,0.358974,42,32765
5.5803,2.58427,0.356908,43,32765
5.60735,2.57364,0.355439,41,32765
5.67046,2.57997,0.356696,45,32765
5.63368,2.5405,0.3516,38,32765
5.70592,2.55054,0.353305,42,32765
5.63225,2.49536,0.346191,41,32765
5.72292,2.51271,0.349406,45,32765
5.72211,2.48988,0.347037,44,32765
5.74883,2.47873,0.345978,41,32765
5.76621,2.46385,0.344553,42,32765
5.74686,2.43308,0.340954,43,32765
5.81025,2.43715,0.342654,47,32765
5.77233,2.39863,0.338194,45,32765
5.78958,2.38337,0.336521,44,32765
5.80675,2.36801,0.335637,42,32765
5.8701,2.37147,0.337202,48,32765
5.85019,2.3409,0.334056,44,32765
5.87647,2.32914,0.333353,48,32765
5.83773,2.29156,0.328819,42,32765
5.8917,2.29072,0.33072,42,32765
5.88998,2.26765,0.329058,42,32765
5.91612,2.25556,0.328059,45,32765
5.97949,2.25758,0.330131,44,32765
5.95887,2.22759,0.326562,42,32765
5.93798,2.19792,0.324279,45,32765
5.98279,2.19199,0.325278,48,32765
6.0089,2.17891,0.324807,42,32765
5.98776,2.14927,0.322943,19,32765
5.96659,2.11964,0.3202,14,32765
5.96395,2.09727,0.318915,19,32765
6.10273,2.12415,0.324916,50,32765
6.05302,2.08459,0.321746,43,32765
6.11648,2.08438,0.323904,45,32765
6.04747,2.03919,0.319293,40,32765
6.11074,2.03907,0.321861,42,32765
6.18355,2.04169,0.324933,49,32765
6.17106,2.01566,0.324257,47,32765
6.17747,1.99598,0.32387,47,32765
6.22185,1.98838,0.32641,43,32765
6.21858,1.9657,0.325932,42,32765
6.26275,1.95813,0.329452,45,32765
4.77221,3.51221,0.417106,42,32765
4.78369,3.49667,0.416205,41,32765
4.78719,3.47507,0.414216,42,32765
4.83112,3.48261,0.41548,42,32765
4.84282,3.46643,0.414525,43,32765
4.79754,3.40986,0.408027,42,32765
4.86595,3.4343,0.411132,42,32765
4.8772,3.41853,0.409232,44,32765
4.88034,3.39679,0.407132,42,32765
4.9407,3.41502,0.409337,44,32765
4.91934,3.37589,0.404877,43,32765
4.93071,3.35948,0.403018,43,32765
4.9337,3.33759,0.399988,42,32765
4.94479,3.32138,0.39807,44,32765
4.98077,3.32169,0.397906,44,32765
4.9919,3.30517,0.395963,44,32765
5.00307,3.28851,0.393686,43,32765
5.04752,3.29373,0.394332,46,32765
5.03342,3.26074,0.390362,44,32765
5.03586,3.23883,0.38751,44,32765
5.0634,3.23314,0.386302,44,32765
5.09092,3.22726,0.385873,45,32765
5.05936,3.18406,0.380475,44,32765
5.10382,3.18862,0.380288,44,32765
5.123,3.17691,0.379036,45,32765
5.13368,3.15993,0.376459,45,32765
5.15299,3.14787,0.374256,46,32765
5.15509,3.12548,0.371523,46,32765
5.16585,3.10798,0.368876,46,32765
5.17632,3.09071,0.367155,45,32765
5.18682,3.07341,0.364256,46,32765
5.23162,3.07635,0.364152,47,32765
5.21618,3.04371,0.360193,46,32765
5.21786,3.02118,0.357688,45,32765
5.2626,3.02378,0.358064,47,32765
5.25552,2.99628,0.354169,45,32765
5.29175,2.99346,0.353076,46,32765
5.29316,2.97093,0.34991,37,32765
5.28577,2.9435,0.346563,22,32765
5.21683,2.88279,0.33924,18,32765
5.27907,2.89421,0.340343,32,32765
5.37658,2.92432,0.343034,46,32765
5.36905,2.89667,0.338724,46,32765
5.39647,2.88805,0.337891,46,32765
5.39735,2.86539,0.335448,47,32765
5.42471,2.85661,0.334513,47,32765
5.45212,2.84768,0.332819,45,32765
5.45289,2.82489,0.329414,47,32765
5.47153,2.81081,0.327635,48,32765
5.52536,2.81543,0.328305,49,32765
5.50805,2.78363,0.32428,48,32765
5.50855,2.76077,0.320877,46,32765
5.51782,2.74253,0.317977,47,32765
5.53616,2.72828,0.315947,45,32765
5.56334,2.71846,0.315029,47,32765
5.56371,2.69521,0.311626,46,32765
5.58182,2.68088,0.31014,46,32765
5.59977,2.66677,0.308218,48,32765
5.66292,2.6738,0.308334,47,32765
5.64465,2.64244,0.305052,49,32765
5.63548,2.61507,0.301984,46,32765
5.65356,2.60005,0.299816,48,32765
5.65314,2.57724,0.297144,47,32765
5.72557,2.5871,0.29821,48,32765
5.72504,2.56418,0.295454,49,32765
5.76096,2.55746,0.294781,49,32765
5.75127,2.53017,0.291999,48,32765
5.76883,2.51518,0.290634,50,32765
5.75896,2.488,0.287534,47,32765
5.82227,2.49271,0.288283,50,32765
5.82141,2.46949,0.285845,49,32765
5.81126,2.44236,0.283366,49,32765
5.8379,2.43063,0.282496,48,32765
5.84602,2.41131,0.280258,49,32765
5.88178,2.40328,0.280143,51,32765
5.88969,2.38402,0.278493,49,32765
5.88837,2.36075,0.276491,49,32765
5.96114,2.36728,0.277749,51,32765
5.92252,2.32934,0.273654,51,32765
5.92078,2.30646,0.2725,49,32765
5.97504,2.30481,0.273484,50,32765
5.9733,2.28172,0.270994,49,32765
6.01809,2.2765,0.271645,51,32765
6.01622,2.25333,0.269179,51,32765
6.0329,2.2373,0.268839,52,32765
6.04971,2.22071,0.268194,50,32765
6.05714,2.20056,0.266689,51,32765
6.05488,2.17746,0.265927,41,32765
6.00556,2.13749,0.262216,17,32765
5.92759,2.08839,0.25774,18,32765
6.02864,2.10229,0.260795,34,32765
6.15832,2.1248,0.265938,53,32765
6.15574,2.10165,0.264668,54,32765
6.18143,2.08821,0.264859,50,32765
6.17854,2.0655,0.264016,52,32765
6.21353,2.05536,0.264805,53,32765
6.24857,2.04471,0.26634,52,32765
6.25509,2.02474,0.265945,51,32765
6.21394,1.98945,0.264468,52,32765
6.25831,1.98183,0.266108,50,32765
6.31211,1.9771,0.269666,52,32765
4.76875,3.49718,0.440073,39,32765
4.77252,3.47572,0.434489,39,32765
4.80081,3.47129,0.431201,41,32765
4.81284,3.45514,0.426791,41,32765
4.81632,3.43366,0.421899,36,32765
4.79515,3.39509,0.414697,34,32765
4.81468,3.38519,0.411467,35,32765
4.85061,3.38655,0.409524,39,32765
4.83754,3.3534,0.403667,35,32765
4.84891,3.33743,0.39953,36,32765
4.90131,3.34968,0.399135,39,32765
4.88785,3.31662,0.394223,36,32765
4.94052,3.32825,0.393583,40,32765
4.91861,3.28967,0.387605,39,32765
4.95471,3.28991,0.385947,38,32765
4.97411,3.27911,0.382788,39,32765
4.98503,3.26287,0.379542,37,32765
4.98764,3.24097,0.375744,38,32765
5.00681,3.23011,0.372956,37,32765
5.04298,3.2296,0.371526,42,32765
5.02006,3.19169,0.365646,38,32765
5.04761,3.18588,0.363669,38,32765
5.09201,3.19056,0.363581,45,32765
5.0686,3.15305,0.357682,40,32765
5.1047,3.15199,0.356472,43,32765
5.13234,3.14552,0.3545,42,32765
5.13447,3.12322,0.35084,41,32765
5.12792,3.09586,0.346504,41,32765
5.10403,3.05841,0.341425,38,32765
5.14858,3.062,0.340947,40,32765
5.15878,3.0451,0.338185,40,32765
5.17761,3.03304,0.336258,42,32765
5.18792,3.01572,0.333164,41,32765
5.1981,2.99839,0.330855,42,32765
5.23423,2.99594,0.329779,43,32765
5.22695,2.96873,0.325548,41,32765
5.2368,2.95154,0.323544,37,32765
5.23816,2.92904,0.320208,24,32765
5.28306,2.93079,0.319682,16,32765
5.31937,2.92735,0.318304,19,32765
5.28536,2.88577,0.313418,42,32765
5.35636,2.90182,0.314385,41,32765
5.33082,2.86523,0.310553,40,32765
5.31402,2.83348,0.30577,42,32765
5.3942,2.85307,0.307733,45,32765
5.43048,2.84877,0.306674,43,32765
5.40456,2.81223,0.303507,41,32765
5.37851,2.77604,0.298027,43,32765
5.45012,2.78993,0.29904,44,32765
5.47729,2.78081,0.298244,43,32765
5.4689,2.75337,0.294939,42,32765
5.48714,2.73954,0.292859,43,32765
5.49633,2.72125,0.291112,43,32765
5.47869,2.68954,0.28716,40,32765
5.54175,2.69728,0.28751,43,32765
5.50596,2.65688,0.28244,44,32765
5.55094,2.65576,0.282089,44,32765
5.57792,2.64577,0.281264,42,32765
5.56876,2.61864,0.277808,43,32765
5.62278,2.62133,0.277626,41,32765
5.63157,2.60261,0.275688,46,32765
5.58575,2.55896,0.271356,41,32765
5.70345,2.59006,0.274191,44,32765
5.69396,2.56281,0.270733,44,32765
5.71172,2.54791,0.268302,45,32765
5.65619,2.50082,0.263606,43,32765
5.71956,2.50596,0.263306,43,32765
5.77377,2.50681,0.263595,45,32765
5.72727,2.46356,0.258538,43,32765
5.77245,2.45983,0.257644,41,32765
5.7808,2.44037,0.255704,43,32765
5.82588,2.43658,0.254305,46,32765
5.79708,2.40199,0.250499,44,32765
5.80503,2.38294,0.248314,42,32765
5.79448,2.35621,0.244842,42,32765
5.8672,2.36323,0.244918,45,32765
5.88433,2.3476,0.243032,45,32765
5.8736,2.32071,0.239778,45,32765
5.85336,2.29051,0.23637,41,32765
5.8982,2.28577,0.235394,42,32765
5.92442,2.27359,0.23342,45,32765
5.95062,2.26128,0.231548,46,32765
5.91137,2.22405,0.227297,45,32765
6.01237,2.23962,0.22774,48,32765
5.94471,2.1924,0.222196,48,32765
5.99878,2.19036,0.221526,46,32765
6.02471,2.17781,0.219495,46,32765
5.95657,2.13125,0.214232,19,32765
5.9166,2.09486,0.209142,14,32765
6.02738,2.11156,0.209855,43,32765
6.03424,2.09217,0.207179,50,32765
6.0409,2.07311,0.204632,43,32765
6.12319,2.0799,0.203507,47,32765
6.12041,2.05719,0.200249,47,32765
6.14616,2.04354,0.197652,46,32765
6.1718,2.02999,0.19508,46,32765
6.15915,2.00465,0.191584,43,32765
6.16549,1.98537,0.188315,44,32765
6.21941,1.98127,0.185588,41,32765
6.17832,1.9459,0.17944,44,32765
6.25128,1.94738,0.178169,45,32765
4.7759,3.51082,0.385326,42,32765
4.78776,3.49517,0.380462,42,32765
4.83225,3.50239,0.37823,43,32765
4.85246,3.49192,0.37441,44,32765
4.85604,3.47025,0.369571,45,32765
4.85127,3.44302,0.363922,42,32765
4.8791,3.43866,0.361151,43,32765
4.89883,3.42836,0.357673,46,32765
4.91867,3.41775,0.354415,44,32765
4.9056,3.38446,0.348452,44,32765
4.92519,3.37398,0.34523,45,32765
4.93657,3.3576,0.342296,42,32765
4.95626,3.34675,0.33888,43,32765
4.93441,3.30802,0.33326,44,32765
4.99549,3.3248,0.332965,45,32765
5.02333,3.31934,0.330224,45,32765
5.02602,3.29743,0.326398,46,32765
5.02037,3.26988,0.322125,46,32765
5.03124,3.25346,0.318685,44,32765
5.06747,3.25287,0.316952,47,32765
5.07831,3.23625,0.313504,45,32765
5.07224,3.20888,0.309238,45,32765
5.08288,3.19224,0.306717,47,32765
5.11031,3.18638,0.304221,45,32765
5.12953,3.17466,0.301701,46,32765
5.14873,3.16286,0.299027,48,32765
5.13385,3.13005,0.294467,46,32765
5.1615,3.12332,0.292248,46,32765
5.18051,3.11139,0.289917,47,32765
5.19949,3.09938,0.287594,47,32765
5.2184,3.08736,0.285269,46,32765
5.24599,3.08013,0.283681,46,32765
5.2133,3.03739,0.278238,45,32765
5.24949,3.03494,0.277282,46,32765
5.26841,3.02236,0.274988,47,32765
5.27857,3.00486,0.271813,47,32765
5.27985,2.98255,0.269341,48,32765
5.29001,2.96474,0.26651,41,32765
5.29138,2.94203,0.263404,29,32765
5.24023,2.8903,0.257437,18,32765
5.3025,2.90165,0.257736,28,32765
5.36477,2.91291,0.257612,46,32765
5.38325,2.8999,0.256241,47,32765
5.41942,2.89616,0.254182,48,32765
5.39388,2.85928,0.25043,46,32765
5.40364,2.84101,0.247868,46,32765
5.43086,2.83221,0.2475,46,32765
5.45812,2.82339,0.244762,47,32765
5.47654,2.80967,0.242714,48,32765
5.48596,2.79138,0.240935,48,32765
5.50437,2.77735,0.238971,47,32765
5.49588,2.74995,0.235627,46,32765
5.54986,2.75381,0.235774,47,32765
5.55026,2.73066,0.232827,48,32765
5.55956,2.71188,0.230345,47,32765
5.59579,2.70614,0.228671,49,32765
5.60489,2.68743,0.226449,49,32765
5.62295,2.67295,0.225054,48,32765
5.61388,2.64561,0.22176,48,32765
5.64082,2.63546,0.220026,47,32765
5.65872,2.62083,0.218427,49,32765
5.66746,2.60202,0.216731,48,32765
5.70343,2.59566,0.215309,47,32765
5.7304,2.58478,0.213391,48,32765
5.7391,2.56565,0.210509,50,32765
5.73845,2.54266,0.20845,49,32765
5.77449,2.53548,0.206559,51,32765
5.77382,2.51222,0.20441,49,32765
5.7824,2.49261,0.201835,50,32765
5.83687,2.49261,0.200853,52,32765
5.81771,2.4612,0.197948,50,32765
5.83519,2.44568,0.195225,51,32765
5.85257,2.43015,0.193312,51,32765
5.86985,2.41468,0.191404,51,32765
5.88717,2.39899,0.188978,52,32765
5.91368,2.38702,0.186886,53,32765
5.87519,2.34894,0.183148,49,32765
5.90164,2.33673,0.181223,50,32765
5.94658,2.33192,0.180055,51,32765
5.92632,2.30153,0.176716,49,32765
5.97125,2.29641,0.175085,51,32765
5.97883,2.2768,0.172462,52,32765
5.98639,2.25703,0.169994,50,32765
6.01257,2.24442,0.167367,52,32765
6.0293,2.22828,0.164881,50,32765
6.05531,2.21566,0.162945,50,32765
6.10951,2.21311,0.161442,51,32765
6.04148,2.16618,0.156893,41,32765
6.07698,2.15617,0.154132,22,32765
6.07476,2.13263,0.150917,21,32765
6.07222,2.10976,0.147986,39,32765
6.17347,2.12306,0.147681,52,32765
6.16126,2.09723,0.143517,53,32765
6.14905,2.07116,0.140116,51,32765
6.20328,2.06687,0.137945,51,32765
6.172,2.03433,0.133916,48,32765
6.2544,2.03993,0.132621,48,32765
6.22277,2.00803,0.128513,51,32765
6.29579,2.00982,0.125654,53,32765
6.2929,1.98617,0.120646,53,32765
6.3087,1.96941,0.117587,54,32765
4.7162,3.46383,0.31451,38,32765
4.75981,3.47198,0.315595,36,32765
4.77126,3.45632,0.314556,39,32765
4.79085,3.44636,0.313867,37,32765
4.82689,3.44769,0.313277,36,32765
4.8057,3.40866,0.310288,39,32765
4.86587,3.42752,0.311508,39,32765
4.82815,3.37717,0.306194,38,32765
4.88863,3.39537,0.307207,41,32765
4.86722,3.35629,0.30308,39,32765
4.8701,3.33465,0.300519,39,32765
4.89772,3.32977,0.299894,39,32765
4.92534,3.3248,0.298743,39,32765
4.94465,3.3142,0.296852,39,32765
4.96401,3.30336,0.295509,36,32765
4.99167,3.29799,0.294187,40,32765
4.96916,3.25971,0.290169,39,32765
4.97999,3.24334,0.287969,40,32765
4.99923,3.23226,0.286041,40,32765
4.99337,3.20466,0.282759,41,32765
5.03783,3.20953,0.282039,38,32765
5.0233,3.17671,0.278358,37,32765
5.05928,3.17604,0.277249,41,32765
5.08691,3.16974,0.275941,40,32765
5.10605,3.15801,0.274422,42,32765
5.09954,3.13074,0.270743,40,32765
5.0331,3.06726,0.264269,39,32765
5.15454,3.11769,0.267686,41,32765
5.13072,3.08001,0.263338,42,32765
5.14118,3.06274,0.260675,38,32765
5.14294,3.04042,0.257762,38,32765
5.17038,3.0334,0.256212,37,32765
5.19778,3.02637,0.254126,41,32765
5.22525,3.01902,0.252772,46,32765
5.20065,2.98188,0.248288,41,32765
5.25406,2.98933,0.247471,42,32765
5.25533,2.96702,0.244822,41,32765
5.19562,2.91034,0.23881,32,32765
0,0,0,0,32765
0,0,0,0,32765
5.27772,2.88644,0.233497,26,32765
5.29619,2.87361,0.231568,39,32765
5.34103,2.8749,0.230794,44,32765
5.36812,2.86686,0.229038,45,32765
5.37773,2.849,0.226568,39,32765
5.41391,2.84488,0.225024,41,32765
5.37038,2.79897,0.21984,40,32765
5.38886,2.78532,0.217136,42,32765
5.42492,2.78094,0.215992,40,32765
5.46996,2.78086,0.214329,43,32765
5.43471,2.74,0.210722,42,32765
5.48871,2.74404,0.20948,46,32765
5.48021,2.7165,0.205656,40,32765
5.4804,2.6937,0.203327,42,32765
5.51645,2.68847,0.201395,40,32765
5.52549,2.66998,0.199421,44,32765
5.57043,2.66898,0.19801,42,32765
5.59756,2.65878,0.195486,45,32765
5.59744,2.6358,0.193319,44,32765
5.58826,2.60844,0.190462,43,32765
5.67867,2.62755,0.190565,42,32765
5.62381,2.57961,0.18577,43,32765
5.68696,2.58586,0.18521,44,32765
5.66828,2.55455,0.18236,42,32765
5.67678,2.53575,0.180281,43,32765
5.69432,2.52107,0.178327,43,32765
5.72102,2.51023,0.176586,46,32765
5.72939,2.49122,0.174328,47,32765
5.73766,2.47226,0.172371,47,32765
5.73675,2.44916,0.170041,45,32765
5.78191,2.44524,0.169419,45,32765
5.84545,2.44905,0.168723,47,32765
5.75211,2.38735,0.163536,40,32765
5.82471,2.39498,0.163822,45,32765
5.82338,2.37197,0.161753,41,32765
5.84029,2.35697,0.160168,46,32765
5.87584,2.34904,0.159285,47,32765
5.91143,2.34086,0.15812,48,32765
5.89121,2.31048,0.155797,45,32765
5.9175,2.2982,0.154863,46,32765
5.93433,2.2825,0.153343,48,32765
5.9419,2.26282,0.151958,45,32765
6.00546,2.26444,0.152221,45,32765
6.00357,2.24109,0.151033,44,32765
6.06726,2.24199,0.150759,49,32765
6.00888,2.19811,0.147386,47,32765
6.05362,2.19216,0.147571,47,32765
6.02304,2.15913,0.145256,35,32765
0,0,0,0,32765
6.07471,2.13324,0.144365,15,32765
6.11945,2.12652,0.143848,38,32765
6.09804,2.09667,0.142854,46,32765
6.12368,2.0835,0.143133,45,32765
6.13038,2.06376,0.142082,44,32765
6.1465,2.04718,0.141511,46,32765
6.20053,2.04307,0.142215,44,32765
6.17853,2.01387,0.141602,46,32765
6.22296,2.00655,0.14172,46,32765
6.18157,1.97186,0.14149,45,32765
6.28316,1.98228,0.143575,45,32765
6.27015,1.95682,0.144693,47,32765
4.81051,3.54247,0.265113,45,32765
4.82213,3.52673,0.26403,42,32765
4.82569,3.50495,0.262531,42,32765
4.82114,3.47725,0.260415,41,32765
4.85729,3.47847,0.259524,42,32765
4.83623,3.43925,0.256897,42,32765
4.85568,3.42923,0.255391,44,32765
4.89979,3.43616,0.254891,44,32765
4.88666,3.40277,0.251508,42,32765
4.91461,3.3977,0.25026,44,32765
4.9094,3.37019,0.247351,43,32765
4.95365,3.37642,0.247344,46,32765
4.93178,3.33764,0.243523,43,32765
4.9843,3.34929,0.243147,47,32765
4.97053,3.31611,0.240084,42,32765
4.99824,3.3107,0.238565,45,32765
4.99248,3.28329,0.235701,42,32765
5.03686,3.28865,0.235046,45,32765
5.03947,3.26648,0.232217,45,32765
5.08416,3.27112,0.231392,47,32765
5.06988,3.23804,0.227598,46,32765
5.09765,3.23179,0.226048,46,32765
5.09152,3.20425,0.222765,46,32765
5.11924,3.19782,0.22125,46,32765
5.113,3.17015,0.21853,44,32765
5.12355,3.15327,0.215745,45,32765
5.14248,3.14167,0.21364,45,32765
5.15305,3.12448,0.211228,45,32765
5.17208,3.11249,0.20898,46,32765
5.19123,3.10016,0.206631,46,32765
5.20171,3.0827,0.204119,45,32765
5.2379,3.08053,0.202682,47,32765
5.21365,3.04303,0.198394,44,32765
5.27577,3.05564,0.19814,48,32765
5.2513,3.01825,0.193997,48,32765
5.27008,3.00574,0.191416,46,32765
5.3062,3.00301,0.190096,48,32765
5.32507,2.99007,0.187564,48,32765
5.29152,2.94784,0.183397,36,32765
5.31914,2.93944,0.181184,22,32765
5.25019,2.8783,0.176187,17,32765
5.33887,2.90373,0.176493,38,32765
5.3926,2.90963,0.175607,48,32765
5.40217,2.89196,0.173069,48,32765
5.42069,2.87863,0.170856,47,32765
5.41274,2.85106,0.167636,48,32765
5.4667,2.85597,0.165968,49,32765
5.44985,2.82356,0.162054,47,32765
5.47714,2.8144,0.160338,47,32765
5.48666,2.79597,0.157244,48,32765
5.49608,2.77752,0.155357,47,32765
5.55019,2.78135,0.153607,47,32765
5.55971,2.76243,0.150416,48,32765
5.56006,2.73931,0.148147,49,32765
5.5693,2.72063,0.145183,47,32765
5.56945,2.69757,0.142954,49,32765
5.60546,2.69209,0.140915,50,32765
5.6146,2.67315,0.137736,49,32765
5.61453,2.65005,0.135652,47,32765
5.64162,2.63952,0.13383,51,32765
5.65956,2.62484,0.131374,48,32765
5.66827,2.60609,0.128685,49,32765
5.67692,2.58733,0.126324,49,32765
5.74936,2.59713,0.125747,52,32765
5.74888,2.57394,0.123438,51,32765
5.76654,2.55898,0.121357,51,32765
5.7842,2.54385,0.119206,53,32765
5.78352,2.52059,0.116733,51,32765
5.80106,2.50537,0.114935,50,32765
5.79107,2.47807,0.112494,51,32765
5.81792,2.46615,0.111124,50,32765
5.81698,2.44275,0.10864,49,32765
5.88057,2.44629,0.107358,52,32765
5.8794,2.42303,0.10562,51,32765
5.88742,2.40356,0.103787,50,32765
5.8859,2.38083,0.101763,49,32765
5.90296,2.36529,0.100266,50,32765
5.93859,2.357,0.0988065,51,32765
5.94635,2.33743,0.09721,50,32765
5.97273,2.32494,0.0960703,51,32765
5.95233,2.29464,0.0938476,52,32765
5.97862,2.28198,0.0927446,52,32765
5.99548,2.26581,0.0917169,51,32765
6.0217,2.25295,0.0910454,50,32765
6.04792,2.2399,0.0896425,53,32765
6.06464,2.22352,0.0880197,49,32765
6.09067,2.21055,0.0875477,52,32765
6.08839,2.18747,0.0859959,53,32765
6.01068,2.13753,0.0839888,30,32765
5.99876,2.1113,0.0827495,20,32765
6.08121,2.11796,0.0823825,20,32765
6.10705,2.10446,0.0823058,47,32765
6.17059,2.10414,0.0829021,52,32765
6.18684,2.08739,0.081965,52,32765
6.20303,2.0706,0.0812891,51,32765
6.21917,2.05375,0.0810213,52,32765
6.20673,2.02753,0.0808109,52,32765
6.26072,2.02317,0.0806683,52,32765
6.28608,2.0096,0.0817783,52,32765
6.28292,1.98655,0.0815553,52,32765
6.31768,1.97596,0.0834889,54,32765
4.75916,3.49241,0.285577,37,32765
4.80344,3.49996,0.282391,40,32765
4.81529,3.48404,0.277465,40,32765
4.8027,3.45065,0.271117,38,32765
4.80605,3.42916,0.266153,37,32765
4.84181,3.43093,0.262925,39,32765
4.80421,3.38058,0.256169,40,32765
4.8646,3.39916,0.254929,38,32765
4.91748,3.41094,0.252873,39,32765
4.87163,3.3546,0.245578,38,32765
4.91596,3.36095,0.242933,38,32765
4.87752,3.31115,0.236875,38,32765
4.9297,3.32342,0.235498,39,32765
4.94066,3.30737,0.231555,40,32765
4.91844,3.26891,0.226388,40,32765
4.97115,3.28006,0.2247,39,32765
4.98226,3.2634,0.221149,38,32765
4.95961,3.2252,0.216066,38,32765
4.99558,3.22508,0.213486,39,32765
4.99783,3.20331,0.209887,38,32765
5.0168,3.1924,0.206781,40,32765
5.06974,3.20242,0.205626,40,32765
5.05493,3.16989,0.20084,39,32765
5.07398,3.15847,0.197923,43,32765
5.11852,3.1627,0.196147,43,32765
5.10344,3.13019,0.192235,42,32765
5.09683,3.10287,0.188204,39,32765
5.13291,3.10137,0.186385,41,32765
5.14336,3.08419,0.183175,41,32765
5.15367,3.06712,0.180164,41,32765
5.18968,3.06534,0.178263,41,32765
5.18271,3.03796,0.174527,42,32765
5.18413,3.01585,0.171565,41,32765
5.21151,3.00865,0.169259,44,32765
5.23908,3.00094,0.16733,43,32765
5.23179,2.97356,0.163572,41,32765
5.28533,2.98059,0.162135,41,32765
5.26041,2.94347,0.157911,36,32765
5.13048,2.84819,0.151343,18,32765
0,0,0,0,32765
5.29864,2.8954,0.150738,21,32765
5.32582,2.88744,0.147937,41,32765
5.37082,2.88838,0.146851,43,32765
5.40693,2.8846,0.145312,44,32765
5.39885,2.85732,0.142507,45,32765
5.41739,2.84373,0.139664,44,32765
5.4182,2.8208,0.135253,42,32765
5.3742,2.77547,0.131331,38,32765
5.46372,2.79824,0.131194,44,32765
5.4554,2.77069,0.12776,46,32765
5.47378,2.7566,0.12562,47,32765
5.48312,2.73809,0.123401,48,32765
5.52807,2.73758,0.122158,47,32765
5.56417,2.73231,0.120332,50,32765
5.56431,2.70936,0.117925,44,32765
5.54648,2.67751,0.114632,42,32765
5.51946,2.64146,0.112692,40,32765
5.55558,2.63542,0.112261,42,32765
5.60064,2.6338,0.109558,43,32765
5.59135,2.60657,0.106951,44,32765
5.6273,2.6005,0.104728,46,32765
5.62683,2.57766,0.102761,44,32765
5.63543,2.55891,0.0999889,44,32765
5.6896,2.56054,0.0983971,46,32765
5.71645,2.54958,0.0967904,45,32765
5.69758,2.51825,0.0941679,43,32765
5.72441,2.50704,0.0916681,47,32765
5.73281,2.48786,0.0892494,46,32765
5.74114,2.46867,0.0866967,43,32765
5.77695,2.46132,0.0846972,42,32765
5.79438,2.44589,0.0825094,44,32765
5.80247,2.42675,0.0798273,43,32765
5.81982,2.41117,0.0771215,43,32765
5.80011,2.38036,0.0741549,44,32765
5.84504,2.37621,0.072352,44,32765
5.85288,2.35693,0.0696508,47,32765
5.86077,2.33729,0.0669865,45,32765
5.87773,2.32176,0.0638998,46,32765
5.89483,2.30567,0.0613843,44,32765
5.91171,2.28994,0.0592532,44,32765
6.00328,2.30265,0.0574266,49,32765
5.93611,2.25436,0.053955,47,32765
5.97145,2.2458,0.0511789,48,32765
5.98811,2.22987,0.0487365,45,32765
6.01398,2.21766,0.0464946,49,32765
6.03991,2.2051,0.0435434,43,32765
6.05653,2.18869,0.040798,51,32765
6.03543,2.15876,0.0376002,34,32765
6.0615,2.14522,0.0345299,14,32765
6.05908,2.12202,0.0320936,13,32765
6.04705,2.09579,0.0282809,31,32765
6.08223,2.08585,0.0258469,43,32765
6.1457,2.08565,0.02286,45,32765
6.15237,2.06592,0.0195681,48,32765
6.13043,2.03695,0.0160624,48,32765
6.18445,2.03285,0.0128927,49,32765
6.16234,2.00398,0.00903953,43,32765
6.23531,2.00584,0.00550016,45,32765
6.23209,1.98309,0.00156573,44,32765
6.23822,1.96371,-0.00197017,46,32765
6.28245,1.95631,-0.0062263,46,32765
4.78073,3.51776,0.231573,43,32765
4.80084,3.50756,0.226838,43,32765
4.78034,3.46813,0.220416,43,32765
4.82444,3.47566,0.216929,43,32765
4.86037,3.4773,0.213458,43,32765
4.84738,3.44416,0.207795,44,32765
4.88332,3.44553,0.204668,45,32765
4.88659,3.42373,0.200447,44,32765
4.92311,3.42405,0.19724,46,32765
4.91844,3.39594,0.192194,44,32765
4.91341,3.36823,0.187242,43,32765
4.93284,3.3577,0.183896,44,32765
4.97687,3.3642,0.181704,45,32765
4.96305,3.33125,0.176829,43,32765
4.98251,3.32034,0.17346,43,32765
5.00201,3.30923,0.170118,46,32765
5.0132,3.29243,0.166537,46,32765
5.02416,3.27587,0.162885,46,32765
5.03509,3.25923,0.159173,44,32765
5.0795,3.2643,0.156936,46,32765
5.05652,3.2262,0.152402,44,32765
5.09265,3.2254,0.150252,47,32765
5.10331,3.20869,0.146452,47,32765
5.10552,3.18648,0.142928,46,32765
5.13312,3.18009,0.140288,48,32765
5.15217,3.1684,0.137551,47,32765
5.14569,3.14085,0.133669,47,32765
5.14768,3.11845,0.130668,46,32765
5.19245,3.12179,0.128289,48,32765
5.20288,3.10451,0.125243,47,32765
5.20459,3.08217,0.12222,46,32765
5.22353,3.06988,0.119246,48,32765
5.26824,3.07277,0.117311,49,32765
5.27849,3.05524,0.114391,49,32765
5.25419,3.01741,0.111136,48,32765
5.2817,3.00971,0.108261,47,32765
5.30922,3.00182,0.105803,48,32765
5.31055,2.97921,0.102438,49,32765
5.3031,2.95162,0.0996383,41,32765
5.29538,2.92441,0.0965692,21,32765
5.31404,2.91129,0.0944592,19,32765
5.27977,2.86983,0.0904029,26,32765
5.3775,2.8994,0.0898353,46,32765
5.39601,2.88614,0.0877199,49,32765
5.41443,2.8729,0.0855202,48,32765
5.45956,2.87319,0.0829721,48,32765
5.46932,2.85468,0.0787444,48,32765
5.46097,2.82747,0.0758473,49,32765
5.45279,2.79976,0.0735083,49,32765
5.52466,2.81301,0.0712975,50,32765
5.52534,2.78963,0.0688062,51,32765
5.52584,2.76642,0.0664527,50,32765
5.57088,2.76577,0.0648134,49,32765
5.5622,2.73825,0.0621801,50,32765
5.54439,2.70648,0.0596691,49,32765
5.58956,2.70511,0.0573082,49,32765
5.60773,2.69046,0.0561796,49,32765
5.6079,2.66692,0.0550915,48,32765
5.644,2.66086,0.0518928,49,32765
5.63481,2.63342,0.0494505,50,32765
5.65268,2.61877,0.04677,48,32765
5.71589,2.62501,0.0453886,47,32765
5.72464,2.60592,0.0425673,50,32765
5.67868,2.56201,0.0397613,47,32765
5.75118,2.57147,0.0382691,50,32765
5.75982,2.5521,0.0360819,50,32765
5.78674,2.54064,0.0333588,50,32765
5.77691,2.51323,0.030811,50,32765
5.83123,2.51364,0.0284578,51,32765
5.8212,2.48634,0.0259292,48,32765
5.8295,2.46682,0.0235877,51,32765
5.85609,2.45525,0.0209506,51,32765
5.81812,2.41644,0.0179491,51,32765
5.86316,2.4122,0.0154307,50,32765
5.8804,2.3965,0.0131607,49,32765
5.90684,2.38454,0.0104714,52,32765
5.91482,2.36468,0.00777792,51,32765
5.95045,2.3563,0.00457777,49,32765
5.99558,2.35087,0.00194051,51,32765
5.97531,2.32029,-0.000325021,51,32765
6.00162,2.3077,-0.00299751,50,32765
5.99055,2.28065,-0.0057749,53,32765
6.01659,2.26836,-0.00885105,51,32765
6.03331,2.25225,-0.0114107,52,32765
6.01234,2.22253,-0.0137555,51,32765
6.04767,2.21338,-0.0169242,52,32765
6.09251,2.20712,-0.0198634,52,32765
6.0997,2.18713,-0.0229072,49,32765
6.08814,2.15997,-0.0260423,33,32765
6.02915,2.11676,-0.028135,18,32765
6.04543,2.10041,-0.0318946,19,32765
6.11843,2.10345,-0.0348292,44,32765
6.16299,2.0967,-0.0382857,51,32765
6.20759,2.08962,-0.0418461,52,32765
6.21418,2.06989,-0.0453118,52,32765
6.22079,2.04986,-0.0486289,52,32765
6.23674,2.03321,-0.0525464,53,32765
6.25266,2.01642,-0.0562773,50,32765
6.30661,2.01181,-0.0606822,55,32765
6.28421,1.98311,-0.0639727,52,32765
6.29982,1.96662,-0.068329,52,32765
4.75133,3.49406,0.162498,38,32765
4.77904,3.49012,0.161839,38,32765
4.79874,3.48012,0.160503,37,32765
4.79403,3.45257,0.158588,39,32765
4.83827,3.45958,0.157943,37,32765
4.80896,3.41467,0.154853,38,32765
4.87725,3.4394,0.154526,39,32765
4.79846,3.36035,0.149893,37,32765
4.89163,3.40158,0.150923,41,32765
4.87027,3.36234,0.146969,38,32765
4.94752,3.39124,0.146837,40,32765
4.90929,3.34094,0.143602,38,32765
4.94534,3.34131,0.142091,39,32765
4.91491,3.2971,0.13847,38,32765
4.92602,3.28057,0.136136,39,32765
4.97016,3.28648,0.134607,40,32765
4.98086,3.27031,0.132999,41,32765
4.99153,3.2541,0.130713,38,32765
5.00221,3.23777,0.127937,41,32765
4.94577,3.17779,0.124297,41,32765
5.04905,3.22056,0.123465,42,32765
5.01767,3.1768,0.120767,40,32765
5.09623,3.20227,0.119485,43,32765
5.09007,3.17453,0.116126,45,32765
5.10087,3.15726,0.113255,41,32765
5.0943,3.1299,0.110571,41,32765
5.1559,3.14426,0.109183,46,32765
5.14066,3.11168,0.105893,43,32765
5.14243,3.08946,0.10306,41,32765
5.16147,3.0772,0.100765,42,32765
5.18031,3.06513,0.0984678,43,32765
5.19926,3.05277,0.0957573,44,32765
5.21814,3.04037,0.0934667,40,32765
5.19368,3.00295,0.0897324,42,32765
5.23857,3.00521,0.0877533,46,32765
5.2488,2.98738,0.0853669,44,32765
5.29334,2.99,0.0827667,46,32765
5.2685,2.95267,0.0793086,46,32765
5.22579,2.90613,0.0767828,28,32765
5.14803,2.84024,0.0721342,17,32765
0,0,0,0,32765
5.30781,2.88168,0.0681397,34,32765
5.36161,2.88737,0.0659376,44,32765
5.35352,2.8602,0.0634987,44,32765
5.37179,2.84722,0.0598125,44,32765
5.46091,2.87123,0.0588012,45,32765
5.43503,2.83448,0.0549715,45,32765
5.44458,2.81619,0.0504222,47,32765
5.4451,2.79339,0.0482573,47,32765
5.50795,2.80228,0.0460333,46,32765
5.43691,2.74343,0.0418024,41,32765
5.52651,2.76558,0.0403454,42,32765
5.509,2.7335,0.0372059,42,32765
5.5631,2.73691,0.0348681,45,32765
5.54546,2.70477,0.0319314,43,32765
5.58171,2.69882,0.029907,45,32765
5.54558,2.65863,0.0265283,45,32765
5.5547,2.63953,0.0256453,40,32765
5.58162,2.62942,0.0230149,43,32765
5.5904,2.61073,0.0203605,45,32765
