x, y, z, intensity, ring
8.1517,5.32939,0.122619,20,32765
8.21113,5.32986,0.11868,19,32765
8.2206,5.29688,0.115351,18,32765
8.2803,5.29653,0.110751,21,32765
8.33194,5.28998,0.108421,20,32765
8.45151,5.32551,0.104902,18,32765
8.5373,5.3394,0.100762,19,32765
8.52147,5.28926,0.0955534,17,32765
8.50496,5.23998,0.0913102,17,32765
8.55646,5.23261,0.0875187,16,32765
8.63363,5.24056,0.0835035,17,32765
8.66819,5.22213,0.0791791,18,32765
8.72018,5.21329,0.075313,16,32765
8.81493,5.23014,0.0717733,17,32765
8.77222,5.1649,0.0664223,15,32765
8.78955,5.13541,0.0622849,14,32765
8.8586,5.1361,0.0573268,15,32765
8.97139,5.16079,0.0535171,14,32765
9.00633,5.14008,0.049514,13,32765
9.13615,5.17483,0.0446598,12,32765
0,0,0,0,32765
0,0,0,0,32765
0,0,0,0,32765
0,0,0,0,32765
7.0702,3.84897,0.0154373,11,32765
6.95126,3.75365,0.0115549,12,32765
6.97249,3.73529,0.00866689,13,32765
7.03778,3.74039,0.00375799,22,32765
7.05906,3.72158,0.00130283,20,32765
7.08034,3.70256,-0.00319617,13,32765
7.01288,3.63723,-0.00902807,12,32765
6.99836,3.59996,-0.0116784,12,32765
13.5131,6.8937,-0.0291434,12,32765
13.5895,6.87574,-0.0381733,13,32765
12.6024,6.32355,-0.0400859,17,32765
12.579,6.25843,-0.0466792,23,32765
12.2684,6.052,-0.0512862,23,32765
6.97992,3.41359,-0.0326212,28,32765
6.99158,3.38961,-0.0353591,32,32765
6.95776,3.34462,-0.0390752,26,32765
6.9512,3.31199,-0.0400865,27,32765
6.93514,3.2758,-0.0433094,26,32765
6.94607,3.25252,-0.0466146,26,32765
6.92076,3.21209,-0.0491983,26,32765
6.89502,3.1724,-0.0522134,23,32765
6.92401,3.15708,-0.0555487,27,32765
6.92528,3.13003,-0.0588123,35,32765
6.85363,3.06986,-0.0613345,28,32765
6.81805,3.02683,-0.0638055,30,32765
6.56256,2.88749,-0.0639103,18,32765
6.38884,2.78558,-0.0645823,17,32765
6.33379,2.73656,-0.0659463,18,32765
6.16844,2.64006,-0.0671805,17,32765
6.12203,2.59586,-0.0688096,17,32765
5.92776,2.49036,-0.0684513,16,32765
5.77913,2.4051,-0.0690272,16,32765
5.72235,2.35921,-0.0702761,16,32765
5.60982,2.29097,-0.0705898,17,32765
5.53385,2.23881,-0.0712979,18,32765
5.40194,2.16481,-0.0711353,18,32765
5.4555,2.16542,-0.0731902,19,32765
5.42534,2.13286,-0.0742261,21,32765
5.35779,2.08587,-0.0755481,19,32765
5.23399,2.01787,-0.0752191,19,32765
5.1658,1.97225,-0.0751286,20,32765
5.17224,1.95526,-0.0764653,23,32765
5.07557,1.89979,-0.0762918,22,32765
4.99746,1.85158,-0.0768989,22,32765
4.966,1.82127,-0.0769198,20,32765
4.91557,1.78444,-0.0767203,21,32765
4.6391,1.66681,-0.0736921,17,32765
4.78587,1.70175,-0.0768276,21,32765
4.6405,1.63295,-0.0751412,17,32765
4.69294,1.63443,-0.0768318,17,32765
4.63195,1.5966,-0.0765607,18,32765
4.76955,1.62689,-0.0788562,21,32765
4.63264,1.56358,-0.0771393,18,32765
4.61876,1.54206,-0.0775238,19,32765
4.4908,1.4832,-0.0757756,18,32765
4.53361,1.48105,-0.0761585,17,32765
4.49077,1.4511,-0.0757567,18,32765
4.51439,1.44295,-0.0757702,17,32765
4.43321,1.4013,-0.0745988,18,32765
4.65707,1.45604,-0.077416,18,32765
7.87124,5.78357,0.216253,18,32765
7.85816,5.73409,0.206114,17,32765
7.88523,5.71415,0.198273,15,32765
7.90436,5.68794,0.189932,20,32765
7.92323,5.66185,0.182961,14,32765
7.98305,5.66429,0.175443,32,32765
8.01017,5.64346,0.169173,17,32765
8.0126,5.60542,0.161119,19,32765
7.99847,5.55595,0.153189,27,32765
8.01662,5.52989,0.147366,45,32765
8.04292,5.50945,0.141039,49,32765
8.05278,5.47743,0.134317,46,32765
8.07905,5.45667,0.127375,30,32765
8.09779,5.42896,0.121237,23,32765
8.10768,5.39629,0.1147,22,32765
8.1426,5.37995,0.109045,22,32765
8.15196,5.34767,0.102731,19,32765
8.19448,5.33755,0.0973489,18,32765
8.17855,5.28871,0.0913519,16,32765
8.25475,5.29978,0.0864408,15,32765
8.23885,5.25051,0.0801716,14,32765
8.21414,5.19624,0.0737839,14,32765
8.34156,5.23794,0.0696077,15,32765
8.48627,5.28951,0.0652664,14,32765
8.43557,5.21959,0.0588313,14,32765
8.53805,5.24396,0.053925,13,32765
8.52124,5.19486,0.0486068,13,32765
8.58126,5.1924,0.0433956,12,32765
8.64157,5.18923,0.0383075,12,32765
8.90805,5.30871,0.0336154,12,32765
9.14108,5.40594,0.0289668,12,32765
9.04715,5.30929,0.0235417,12,32765
9.17703,5.34473,0.0183238,12,32765
9.19466,5.31437,0.0126925,12,32765
9.22954,5.29388,0.0072139,12,32765
9.19509,5.23323,0.00255946,11,32765
0,0,-0,0,32765
0,0,-0,0,32765
0,0,-0,0,32765
0,0,-0,0,32765
0,0,-0,0,32765
0,0,-0,0,32765
0,0,-0,0,32765
6.9947,3.73609,-0.0273032,12,32765
7.03362,3.72678,-0.0300306,19,32765
7.0372,3.69854,-0.0337754,15,32765
7.07595,3.68914,-0.0395598,11,32765
7.026,3.6334,-0.0421551,11,32765
0,0,-0,0,32765
0,0,-0,0,32765
12.2501,6.17776,-0.0927174,32,32765
12.1549,6.07757,-0.0973935,29,32765
12.3188,6.10723,-0.103552,25,32765
11.9894,5.89337,-0.107003,26,32765
6.93025,3.37807,-0.0660635,28,32765
6.87846,3.32439,-0.0696112,23,32765
6.90756,3.30999,-0.0724143,20,32765
6.65683,3.16201,-0.0720604,18,32765
6.67665,3.14351,-0.0710468,20,32765
0,0,-0,0,32765
0,0,-0,17,32765
0,0,-0,0,32765
0,0,-0,18,32765
0,0,-0,0,32765
0,0,-0,16,32765
0,0,-0,0,32765
0,0,-0,19,32765
0,0,-0,18,32765
0,0,-0,16,32765
0,0,-0,0,32765
0,0,-0,18,32765
0,0,-0,0,32765
0,0,-0,17,32765
0,0,-0,0,32765
4.8346,1.96664,-0.0856711,17,32765
4.60921,1.85719,-0.083523,17,32765
4.59674,1.83443,-0.0857215,18,32765
4.39809,1.73859,-0.0836719,15,32765
4.52485,1.7713,-0.0884353,16,32765
4.36275,1.69152,-0.0871642,16,32765
4.35889,1.67363,-0.0893843,17,32765
4.10269,1.55971,-0.0857936,14,32765
4.15457,1.56374,-0.0887527,15,32765
4.04726,1.50808,-0.0882046,15,32765
3.98646,1.4706,-0.0890264,16,32765
4.01004,1.46429,-0.0912884,16,32765
3.92079,1.41704,-0.0912433,16,32765
3.91589,1.401,-0.0928319,16,32765
3.7508,1.32802,-0.0907927,16,32765
3.81164,1.33572,-0.0940479,16,32765
3.72145,1.29061,-0.0937091,17,32765
3.78227,1.29806,-0.0971732,15,32765
3.70113,1.25711,-0.0969315,17,32765
3.6293,1.21967,-0.097214,16,32765
3.59518,1.19548,-0.0979971,16,32765
3.44703,1.13388,-0.0959147,16,32765
3.31751,1.07952,-0.0942545,17,32765
3.454,1.11208,-0.100246,17,32765
3.23834,1.03147,-0.0959766,17,32765
3.27969,1.03313,-0.0993161,16,32765
3.26385,1.0166,-0.101132,16,32765
7.92855,5.84334,0.126215,25,32765
7.92371,5.79945,0.116485,27,32765
7.91051,5.74983,0.107917,28,32765
7.92972,5.72346,0.0995346,29,32765
7.95681,5.70304,0.0926208,30,32765
7.97596,5.67636,0.0841561,31,32765
7.98676,5.64394,0.0776257,31,32765
7.99735,5.61163,0.069838,34,32765
7.99966,5.57352,0.0624078,33,32765
8.00963,5.54168,0.0565131,32,32765
8.03594,5.5212,0.0500841,29,32765
8.04583,5.48912,0.0434475,25,32765
8.05553,5.4571,0.0363302,23,32765
8.09086,5.44055,0.0302576,20,32765
8.09246,5.40226,0.023781,18,32765
8.14404,5.39697,0.0179734,16,32765
8.19521,5.39207,0.0117982,14,32765
8.34668,5.45288,0.00617374,12,32765
8.39827,5.44695,0.000435664,12,32765
8.52536,5.48979,-0.00532228,12,32765
8.61965,5.50948,-0.0115736,12,32765
8.79002,5.57703,-0.0181877,12,32765
8.91862,5.61687,-0.023949,12,32765
9.08144,5.67721,-0.0301295,13,32765
9.15949,5.68426,-0.0367607,14,32765
9.26343,5.70626,-0.0430823,14,32765
9.40173,5.74852,-0.049281,15,32765
9.38661,5.6964,-0.0550829,17,32765
9.3629,5.63891,-0.0605932,15,32765
9.39892,5.61768,-0.0668316,18,32765
9.40919,5.58081,-0.0724035,17,32765
9.4452,5.5591,-0.0778433,16,32765
9.51537,5.55798,-0.0839958,16,32765
9.42987,5.46624,-0.0888697,12,32765
0,0,-0,0,32765
0,0,-0,12,32765
0,0,-0,0,32765
0,0,-0,0,32765
5.86948,3.27149,-0.0705911,11,32765
5.8365,3.22782,-0.0730278,12,32765
5.82098,3.19375,-0.0757637,14,32765
6.06866,3.30345,-0.0818463,13,32765
5.93007,3.20235,-0.08294,15,32765
5.74688,3.07845,-0.0834546,15,32765
5.74828,3.05452,-0.0854785,16,32765
5.62578,2.96525,-0.0865401,16,32765
5.45829,2.85393,-0.0881892,18,32765
5.38786,2.79427,-0.0891637,18,32765
5.28164,2.71657,-0.0899661,18,32765
5.21949,2.66234,-0.0918885,21,32765
5.28212,2.67142,-0.0954309,20,32765
5.1661,2.5905,-0.0955413,19,32765
4.96895,2.47047,-0.0937673,19,32765
4.87862,2.40493,-0.0945137,18,32765
4.74281,2.31844,-0.0946909,18,32765
0,0,-0,16,32765
4.58695,2.20426,-0.0957958,18,32765
0,0,-0,16,32765
0,0,-0,17,32765
0,0,-0,17,32765
0,0,-0,17,32765
4.02405,1.85038,-0.0897575,17,32765
4.10298,1.87001,-0.0933138,17,32765
4.01813,1.81494,-0.0932442,17,32765
3.9694,1.77696,-0.0938401,18,32765
3.93873,1.74745,-0.0945138,17,32765
3.9629,1.74213,-0.0965885,18,32765
3.81283,1.66102,-0.0946359,18,32765
3.80919,1.64417,-0.0962547,17,32765
3.66754,1.56855,-0.0943195,18,32765
3.71877,1.57572,-0.0974113,18,32765
3.7056,1.5554,-0.098355,18,32765
3.75691,1.56213,-0.101427,17,32765
3.60498,1.4847,-0.0989576,18,32765
3.66543,1.49525,-0.102136,19,32765
3.54058,1.43063,-0.10003,18,32765
3.48031,1.39282,-0.100119,18,32765
3.50338,1.38882,-0.102059,19,32765
3.51725,1.38075,-0.104248,19,32765
3.37262,1.31132,-0.101388,18,32765
3.2929,1.26791,-0.100688,18,32765
3.29704,1.25697,-0.102112,19,32765
3.27309,1.23544,-0.102808,19,32765
3.24903,1.21407,-0.103416,19,32765
3.28107,1.21381,-0.106165,19,32765
3.14423,1.15139,-0.103063,19,32765
3.13858,1.13755,-0.104433,19,32765
3.04812,1.09363,-0.102716,20,32765
3.04224,1.0802,-0.104005,19,32765
2.95138,1.0372,-0.102249,18,32765
3.00188,1.04402,-0.105489,18,32765
2.87288,0.988767,-0.102394,19,32765
2.9138,0.992508,-0.105275,19,32765
2.85064,0.96073,-0.104664,19,32765
2.84416,0.94845,-0.105741,20,32765
2.84716,0.939234,-0.10744,19,32765
2.79309,0.911481,-0.10701,19,32765
2.67223,0.862842,-0.103991,19,32765
2.72245,0.869645,-0.107593,19,32765
2.66798,0.842861,-0.107136,19,32765
2.63246,0.822308,-0.107538,18,32765
7.95401,5.86071,0.0142101,12,32765
7.85258,5.74541,0.0116793,12,32765
7.96043,5.7842,0.00899318,12,32765
7.88972,5.69431,0.00560213,12,32765
8.0306,5.75533,0.00272341,12,32765
8.05001,5.72816,-0.000720474,12,32765
8.06903,5.70134,-0.00389299,12,32765
8.02241,5.62858,-0.00775871,11,32765
0,0,-0,0,32765
8.16593,5.64998,-0.0144996,12,32765
8.26679,5.67985,-0.0191834,12,32765
8.26895,5.64128,-0.0224014,11,32765
8.42867,5.70868,-0.028628,11,32765
8.44797,5.68007,-0.032421,11,32765
8.58385,5.72875,-0.0364859,12,32765
8.63654,5.72171,-0.0414982,12,32765
0,0,-0,0,32765
8.74945,5.71375,-0.0509464,11,32765
0,0,-0,0,32765
0,0,-0,0,32765
9.09259,5.80899,-0.067217,12,32765
9.39067,5.95519,-0.0737755,13,32765
9.35956,5.89202,-0.0790016,15,32765
9.43831,5.89817,-0.0829384,17,32765
9.45786,5.86668,-0.0881088,18,32765
9.47742,5.83495,-0.0934378,19,32765
9.43719,5.76659,-0.0971614,16,32765
9.40526,5.70357,-0.101656,15,32765
9.4243,5.67195,-0.107554,15,32765
9.52913,5.69145,-0.113911,17,32765
0,0,-0,0,32765
0,0,-0,0,32765
0,0,-0,0,32765
0,0,-0,0,32765
0,0,-0,0,32765
0,0,-0,0,32765
0,0,-0,0,32765
5.71979,3.21081,-0.0912115,15,32765
0,0,-0,0,32765
5.45222,3.0129,-0.0928874,18,32765
5.47984,3.00412,-0.0957264,18,32765
5.34048,2.90455,-0.096251,18,32765
0,0,-0,0,32765
5.25426,2.81148,-0.0995593,17,32765
0,0,-0,0,32765
4.83948,2.54776,-0.0963465,18,32765
4.75932,2.4852,-0.0977792,17,32765
4.74097,2.45538,-0.0996278,16,32765
4.45573,2.28856,-0.0954734,18,32765
4.43667,2.25983,-0.0974844,16,32765
0,0,-0,15,32765
0,0,-0,16,32765
0,0,-0,16,32765
0,0,-0,16,32765
0,0,-0,15,32765
0,0,-0,16,32765
3.93868,1.89045,-0.0993945,15,32765
3.91785,1.86439,-0.100508,16,32765
3.81549,1.80015,-0.0994011,16,32765
3.72182,1.74081,-0.0987014,15,32765
3.7367,1.73239,-0.10134,16,32765
3.69711,1.69884,-0.101037,15,32765
3.62098,1.64887,-0.100446,16,32765
3.58999,1.62027,-0.101446,16,32765
3.46772,1.55084,-0.0991997,15,32765
3.51859,1.55937,-0.102015,17,32765
3.55113,1.55978,-0.104548,16,32765
3.49212,1.51998,-0.104125,18,32765
3.56133,1.53615,-0.107457,16,32765
3.38263,1.44552,-0.103289,16,32765
3.38743,1.43415,-0.104594,16,32765
3.36448,1.4113,-0.105002,15,32765
3.32295,1.38094,-0.104919,17,32765
3.30892,1.36246,-0.105459,16,32765
3.22082,1.31374,-0.103781,15,32765
3.28996,1.32938,-0.106942,17,32765
3.22009,1.28872,-0.105516,16,32765
3.15,1.24851,-0.104012,15,32765
3.18198,1.24907,-0.105878,16,32765
3.065,1.19133,-0.102963,17,32765
3.00355,1.15615,-0.10183,16,32765
3.08202,1.17478,-0.105163,17,32765
3.14195,1.1858,-0.107955,15,32765
3.03339,1.13365,-0.10484,17,32765
2.92461,1.08199,-0.101805,16,32765
3.04076,1.11356,-0.106692,17,32765
2.99742,1.08647,-0.105646,16,32765
2.85044,1.02259,-0.100985,17,32765
2.89145,1.02658,-0.102859,16,32765
2.90422,1.02032,-0.104021,16,32765
2.86032,0.994424,-0.102946,16,32765
2.89187,0.994869,-0.104415,17,32765
2.87615,0.979042,-0.104025,17,32765
2.84138,0.957058,-0.103008,16,32765
2.84448,0.947731,-0.103698,17,32765
2.81902,0.929209,-0.102936,17,32765
2.86946,0.935727,-0.104826,17,32765
2.84387,0.917436,-0.103919,18,32765
2.81821,0.899279,-0.102783,17,32765
2.85929,0.901969,-0.104412,17,32765
2.87171,0.895791,-0.104644,17,32765
8.03303,5.93839,-0.0785611,16,32765
7.98039,5.85806,-0.0802223,14,32765
8.05622,5.87293,-0.0836576,13,32765
8.0912,5.85875,-0.0872156,12,32765
8.12696,5.84332,-0.090407,13,32765
8.25249,5.89127,-0.0951281,12,32765
8.39443,5.95043,-0.099852,12,32765
8.43049,5.93397,-0.104158,12,32765
8.49069,5.93515,-0.108584,11,32765
8.69913,6.03822,-0.11409,12,32765
8.71885,6.00963,-0.118893,11,32765
0,0,-0,13,32765
8.92414,6.06355,-0.130867,11,32765
6.86392,4.62971,-0.103519,11,32765
6.91301,4.62831,-0.106947,12,32765
7.00359,4.65459,-0.112067,12,32765
6.91873,4.56533,-0.113963,12,32765
6.90033,4.52043,-0.117126,13,32765
6.94879,4.51925,-0.121788,13,32765
6.93024,4.47422,-0.124877,12,32765
7.01248,4.49414,-0.129568,12,32765
4.96902,3.16103,-0.0940067,12,32765
4.95409,3.12846,-0.0965133,13,32765
4.97286,3.11734,-0.098497,14,32765
4.94075,3.07429,-0.100367,15,32765
4.90847,3.0314,-0.102273,16,32765
4.83336,2.9626,-0.102717,16,32765
4.92873,2.99817,-0.107168,18,32765
4.74187,2.86271,-0.105871,17,32765
4.58849,2.74905,-0.104838,18,32765
4.70077,2.79493,-0.109609,19,32765
4.21933,2.48941,-0.100335,15,32765
4.43479,2.59629,-0.107412,20,32765
4.19279,2.43562,-0.103584,17,32765
4.21831,2.43134,-0.10635,17,32765
4.10493,2.34761,-0.105775,17,32765
4.02574,2.28456,-0.105529,16,32765
3.79812,2.13861,-0.101349,16,32765
3.80517,2.12592,-0.10343,17,32765
3.821,2.11794,-0.105983,16,32765
3.85436,2.11946,-0.108503,18,32765
3.72097,2.02991,-0.106742,19,32765
3.63115,1.96482,-0.105748,18,32765
3.66419,1.96662,-0.108371,17,32765
3.48544,1.85559,-0.104734,16,32765
3.52701,1.86245,-0.107576,17,32765
3.55091,1.85982,-0.110503,18,32765
3.37969,1.75567,-0.106704,18,32765
3.43891,1.77165,-0.109934,18,32765
3.38253,1.72812,-0.109919,17,32765
3.3527,1.69848,-0.110258,19,32765
3.28692,1.65121,-0.109873,17,32765
3.23874,1.61336,-0.109806,19,32765
3.17244,1.56696,-0.108805,18,32765
3.14178,1.5386,-0.109311,18,32765
3.14689,1.52798,-0.110987,18,32765
3.01688,1.45237,-0.107539,17,32765
3.10285,1.48101,-0.111855,18,32765
3.02643,1.43216,-0.110258,18,32765
2.94066,1.37958,-0.108465,18,32765
3.09026,1.437,-0.115792,19,32765
2.94988,1.35956,-0.111102,18,32765
2.90903,1.32865,-0.110716,19,32765
2.93162,1.3271,-0.113052,19,32765
2.86317,1.28431,-0.111369,18,32765
2.75787,1.2259,-0.108299,19,32765
2.86246,1.26107,-0.113648,19,32765
2.80252,1.22348,-0.112284,18,32765
2.76065,1.19436,-0.111553,19,32765
2.71872,1.16529,-0.110804,19,32765
2.70419,1.14831,-0.1111,18,32765
2.65269,1.11606,-0.10983,18,32765
2.66557,1.11106,-0.111301,18,32765
2.67839,1.10614,-0.112598,18,32765
2.682,1.09724,-0.113657,19,32765
2.61148,1.05838,-0.111376,18,32765
2.57787,1.03478,-0.110587,18,32765
2.52557,1.00401,-0.108947,18,32765
2.59392,1.02127,-0.112524,19,32765
2.57868,1.0053,-0.112653,20,32765
2.526,0.975234,-0.111106,19,32765
2.5105,0.959787,-0.110942,18,32765
2.53231,0.958567,-0.112479,20,32765
2.50731,0.939836,-0.111848,19,32765
2.50101,0.928036,-0.112158,19,32765
2.4759,0.90941,-0.111692,19,32765
2.45071,0.890951,-0.110915,19,32765
2.51942,0.906537,-0.114456,20,32765
2.47532,0.881454,-0.112786,19,32765
2.48762,0.876565,-0.113925,19,32765
2.40555,0.83881,-0.110559,18,32765
2.45548,0.847255,-0.113112,20,32765
2.40148,0.819897,-0.110748,20,32765
2.41355,0.815373,-0.111485,19,32765
2.36882,0.791598,-0.109875,19,32765
2.3998,0.793377,-0.11143,19,32765
2.40231,0.785718,-0.111563,19,32765
2.40479,0.778091,-0.111679,19,32765
2.4358,0.77956,-0.112924,19,32765
2.39074,0.756402,-0.110921,19,32765
2.39316,0.748729,-0.110826,19,32765
7.93125,5.84093,-0.0356812,13,32765
7.91034,5.78485,-0.0451822,12,32765
7.99391,5.80593,-0.0542345,12,32765
8.08604,5.83206,-0.0631274,12,32765
8.1051,5.80545,-0.0706036,12,32765
8.30354,5.90599,-0.0810548,12,32765
0,0,-0,0,32765
8.58832,6.02255,-0.0989413,11,32765
8.7312,6.0798,-0.108735,11,32765
8.59458,5.94327,-0.114903,12,32765
0,0,-0,0,32765
0,0,-0,0,32765
0,0,-0,0,32765
0,0,-0,0,32765
0,0,-0,0,32765
0,0,-0,0,32765
0,0,-0,0,32765
0,0,-0,0,32765
0,0,-0,0,32765
0,0,-0,14,32765
0,0,-0,0,32765
4.79601,3.04124,-0.10755,16,32765
0,0,-0,0,32765
4.63802,2.89785,-0.110131,18,32765
0,0,-0,0,32765
4.36762,2.68865,-0.109198,16,32765
0,0,-0,0,32765
4.31696,2.6179,-0.113671,17,32765
4.14586,2.49498,-0.11171,16,32765
4.12841,2.46567,-0.113191,16,32765
4.11082,2.43645,-0.115172,14,32765
4.01549,2.36182,-0.114917,15,32765
3.96286,2.31311,-0.11553,16,32765
3.76293,2.17953,-0.111775,15,32765
3.93482,2.26157,-0.118925,15,32765
3.53425,2.01547,-0.108852,15,32765
3.57577,2.02321,-0.112194,16,32765
3.51277,1.97201,-0.111949,15,32765
3.4669,1.93102,-0.112507,15,32765
3.47325,1.91947,-0.114372,15,32765
3.36565,1.84537,-0.112356,16,32765
3.39805,1.84848,-0.11527,17,32765
3.18418,1.71855,-0.109494,15,32765
3.18105,1.70316,-0.110741,14,32765
3.30138,1.75356,-0.116359,15,32765
3.19221,1.68192,-0.114051,17,32765
3.01181,1.57389,-0.109125,15,32765
3.10585,1.60959,-0.113717,15,32765
3.11131,1.5989,-0.115334,15,32765
2.91188,1.4839,-0.109144,15,32765
3.06855,1.5505,-0.116353,15,32765
2.94866,1.47737,-0.113216,16,32765
2.84619,1.41398,-0.110676,16,32765
2.88677,1.42201,-0.113453,16,32765
2.85554,1.39477,-0.113476,16,32765
2.78825,1.35024,-0.111959,15,32765
2.70266,1.29754,-0.10967,16,32765
2.63481,1.25405,-0.107529,15,32765
2.72031,1.28352,-0.112231,16,32765
2.70642,1.26594,-0.112992,15,32765
2.69248,1.2484,-0.113667,17,32765
2.64217,1.21424,-0.11243,16,32765
2.67343,1.21785,-0.115012,16,32765
2.64107,1.19232,-0.11461,18,32765
2.59941,1.16303,-0.113833,16,32765
2.65807,1.17855,-0.117531,17,32765
2.52476,1.1093,-0.112457,16,32765
2.47346,1.07686,-0.111161,16,32765
2.44033,1.05268,-0.110771,17,32765
2.4346,1.04058,-0.111366,16,32765
2.41046,1.02061,-0.111649,17,32765
2.34013,0.981578,-0.109108,16,32765
2.43564,1.01199,-0.114654,16,32765
2.40201,0.98861,-0.114107,17,32765
2.29421,0.935376,-0.109919,15,32765
2.37135,0.957695,-0.114489,17,32765
2.30021,0.920252,-0.112167,18,32765
2.31248,0.916307,-0.113604,18,32765
2.35269,0.923129,-0.116552,18,32765
2.29052,0.889946,-0.11449,17,32765
2.1909,0.842771,-0.110472,17,32765
2.22163,0.846188,-0.112899,17,32765
2.18695,0.824767,-0.112242,17,32765
2.22702,0.831584,-0.115072,18,32765
2.22968,0.824257,-0.116259,17,32765
2.20419,0.806583,-0.116038,16,32765
2.20682,0.799233,-0.116894,17,32765
2.10597,0.754862,-0.112571,16,32765
2.11782,0.75119,-0.114314,17,32765
2.17671,0.764179,-0.118648,16,32765
2.09422,0.727589,-0.115083,16,32765
2.03037,0.698152,-0.112528,16,32765
2.13654,0.727046,-0.119253,17,32765
2.04417,0.688249,-0.115216,16,32765
1.99898,0.665746,-0.113806,16,32765
2.01058,0.662271,-0.115677,17,32765
1.95568,0.637224,-0.113448,17,32765
2.04314,0.658636,-0.119523,18,32765
1.98803,0.634067,-0.117451,17,32765
1.9804,0.624853,-0.118203,19,32765
1.88698,0.588868,-0.113805,18,32765
8.04194,5.94226,-0.129196,14,32765
0,0,-0,0,32765
0,0,-0,0,32765
0,0,-0,12,32765
0,0,-0,14,32765
0,0,-0,14,32765
0,0,-0,14,32765
0,0,-0,13,32765
0,0,-0,14,32765
4.57545,3.17449,-0.113067,15,32765
4.54456,3.13113,-0.115731,16,32765
0,0,-0,17,32765
0,0,-0,18,32765
0,0,-0,15,32765
0,0,-0,18,32765
3.97181,2.63894,-0.116616,16,32765
3.94714,2.60363,-0.118868,16,32765
3.85522,2.52494,-0.118489,17,32765
3.77964,2.4577,-0.118816,17,32765
3.6197,2.33674,-0.116207,16,32765
3.57679,2.29245,-0.117245,16,32765
3.5844,2.28039,-0.120056,17,32765
3.39749,2.1457,-0.115732,17,32765
3.45546,2.16605,-0.120152,17,32765
3.28436,2.04364,-0.115721,17,32765
3.35915,2.07461,-0.120883,17,32765
3.22115,1.97452,-0.117696,17,32765
3.11666,1.89617,-0.116172,17,32765
3.13157,1.89072,-0.118585,17,32765
3.0264,1.81338,-0.115972,16,32765
3.03244,1.80314,-0.117959,18,32765
3.03841,1.79292,-0.119959,17,32765
2.94084,1.72212,-0.117622,18,32765
2.89471,1.68208,-0.117316,17,32765
2.84833,1.6424,-0.116861,17,32765
2.8278,1.61781,-0.117591,18,32765
2.80712,1.59342,-0.118297,18,32765
2.76017,1.55452,-0.117628,18,32765
2.78276,1.55496,-0.12016,18,32765
2.67426,1.48267,-0.116704,18,32765
2.73169,1.50259,-0.120399,18,32765
2.73662,1.49346,-0.122043,18,32765
2.62726,1.42253,-0.118341,18,32765
2.62316,1.40897,-0.119227,19,32765
2.61895,1.39555,-0.120124,19,32765
2.57939,1.3634,-0.119509,18,32765
2.5397,1.33143,-0.118907,19,32765
2.50873,1.3043,-0.11837,18,32765
2.45098,1.26359,-0.11672,18,32765
2.48192,1.26884,-0.119176,20,32765
2.40603,1.21961,-0.116539,18,32765
2.41904,1.21588,-0.118285,19,32765
2.41416,1.20317,-0.11919,19,32765
2.3913,1.1817,-0.119016,20,32765
2.36829,1.16046,-0.11887,19,32765
2.32724,1.13058,-0.117739,19,32765
2.331,1.12267,-0.118882,18,32765
2.27166,1.08464,-0.116348,17,32765
2.31137,1.09403,-0.119377,18,32765
2.22453,1.04384,-0.115955,18,32765
2.25516,1.04895,-0.11857,19,32765
2.19516,1.01201,-0.11612,19,32765
2.15305,0.983912,-0.11487,18,32765
2.18363,0.988937,-0.117288,19,32765
2.21424,0.993837,-0.119778,19,32765
2.21753,0.986335,-0.120867,19,32765
2.1751,0.958699,-0.119231,19,32765
2.16912,0.947353,-0.119739,18,32765
2.08976,0.904313,-0.116271,18,32765
2.12027,0.9091,-0.118684,18,32765
2.08652,0.886248,-0.117968,18,32765
2.04343,0.859841,-0.11613,19,32765
2.07392,0.864435,-0.118767,19,32765
2.0583,0.849834,-0.118733,18,32765
2.04257,0.835423,-0.118631,18,32765
2.05454,0.832379,-0.120057,19,32765
2.03866,0.818202,-0.120091,20,32765
2.03203,0.807738,-0.120413,19,32765
2.0161,0.793575,-0.120277,20,32765
1.99078,0.775945,-0.119628,20,32765
1.99333,0.769212,-0.120632,20,32765
1.97716,0.755472,-0.120412,20,32765
1.9609,0.741872,-0.12039,20,32765
1.95393,0.731934,-0.120618,20,32765
1.92818,0.715075,-0.119915,20,32765
1.86488,0.684597,-0.116895,19,32765
1.89525,0.688589,-0.119395,19,32765
1.90686,0.685679,-0.121028,19,32765
1.89025,0.672622,-0.120944,20,32765
1.83586,0.646589,-0.11842,19,32765
1.86618,0.650446,-0.121186,19,32765
1.83045,0.631435,-0.119708,19,32765
1.8513,0.632015,-0.121782,20,32765
1.82491,0.61641,-0.121026,19,32765
1.77953,0.594576,-0.119012,19,32765
1.7814,0.588686,-0.120193,20,32765
1.77375,0.579823,-0.120503,20,32765
1.785,0.577293,-0.122127,20,32765
1.7582,0.562594,-0.121296,19,32765
1.75987,0.557088,-0.122465,20,32765
1.68537,0.527676,-0.118319,18,32765
0,0,-0,14,32765
0,0,-0,0,32765
0,0,-0,16,32765
0,0,-0,15,32765
0,0,-0,14,32765
0,0,-0,0,32765
0,0,-0,14,32765
0,0,-0,15,32765
0,0,-0,14,32765
0,0,-0,15,32765
0,0,-0,14,32765
0,0,-0,15,32765
0,0,-0,15,32765
3.38179,2.2794,-0.119102,14,32765
3.48905,2.33475,-0.124511,14,32765
3.3554,2.22877,-0.121411,15,32765
3.27941,2.16239,-0.120169,14,32765
3.21141,2.10194,-0.119386,14,32765
3.21833,2.09125,-0.120935,15,32765
3.16645,2.04254,-0.120591,14,32765
3.2237,2.06428,-0.124202,15,32765
3.07868,1.95699,-0.119978,16,32765
2.94988,1.86139,-0.116415,15,32765
3.00676,1.88345,-0.120437,16,32765
2.93662,1.82585,-0.118973,15,32765
2.95117,1.82123,-0.120935,16,32765
2.88905,1.7695,-0.119751,15,32765
2.74972,1.67157,-0.115358,15,32765
2.84934,1.71917,-0.120821,15,32765
2.78646,1.66847,-0.119671,16,32765
2.81782,1.67433,-0.122179,15,32765
2.78035,1.63941,-0.122132,15,32765
2.64778,1.5493,-0.117611,15,32765
2.75658,1.60063,-0.123828,16,32765
2.65801,1.53142,-0.120859,14,32765
2.64576,1.51251,-0.121567,15,32765
2.57258,1.45914,-0.119696,17,32765
2.473,1.39152,-0.116289,15,32765
2.57364,1.43665,-0.122253,16,32765
2.53468,1.40377,-0.121639,17,32765
2.46049,1.35197,-0.119366,17,32765
2.42109,1.31979,-0.11876,16,32765
2.36392,1.27839,-0.117042,16,32765
2.34174,1.25625,-0.117011,16,32765
2.35471,1.25303,-0.11897,17,32765
2.23526,1.17962,-0.114048,16,32765
2.32775,1.21825,-0.119829,17,32765
2.27864,1.18265,-0.118403,16,32765
2.27366,1.17041,-0.119336,16,32765
2.22415,1.13548,-0.117651,17,32765
2.24573,1.13696,-0.119979,16,32765
2.23169,1.12031,-0.120285,16,32765
2.17288,1.08146,-0.118004,17,32765
2.03319,1.00333,-0.111252,15,32765
2.1262,1.04039,-0.117334,15,32765
2.07572,1.00706,-0.115419,16,32765
2.09704,1.00871,-0.11766,17,32765
2.10937,1.00593,-0.119446,16,32765
2.03146,0.960348,-0.115767,16,32765
1.98037,0.928088,-0.113515,15,32765
2.11924,0.984596,-0.122362,15,32765
2.03172,0.935821,-0.118138,17,32765
2.04383,0.933255,-0.119545,17,32765
2.01051,0.90991,-0.118384,16,32765
2.07734,0.931639,-0.122988,16,32765
2.00746,0.892063,-0.119753,17,32765
2.03783,0.897329,-0.122335,17,32765
1.98589,0.866463,-0.119889,18,32765
2.00704,0.867769,-0.121856,17,32765
2.00989,0.861042,-0.122636,17,32765
2.00357,0.850277,-0.122962,17,32765
1.97878,0.831854,-0.122219,18,32765
1.92625,0.802139,-0.119231,16,32765
1.98423,0.818556,-0.12362,18,32765
1.96838,0.804488,-0.12324,19,32765
1.95248,0.790468,-0.122749,18,32765
1.88092,0.754267,-0.118785,17,32765
1.89266,0.751691,-0.119992,17,32765
1.86725,0.734401,-0.118881,17,32765
1.86966,0.728176,-0.119333,17,32765
1.86271,0.71838,-0.119318,17,32765
1.83704,0.701598,-0.118057,17,32765
1.84864,0.69909,-0.119215,17,32765
1.8322,0.68601,-0.118434,17,32765
1.84378,0.683434,-0.119611,17,32765
1.88347,0.691112,-0.122493,17,32765
1.83881,0.667818,-0.119998,16,32765
1.86917,0.67182,-0.122243,18,32765
1.84311,0.655702,-0.120811,15,32765
1.80757,0.63639,-0.118672,18,32765
1.81907,0.633717,-0.11949,17,32765
1.82108,0.62782,-0.119983,18,32765
1.8231,0.621885,-0.12026,19,32765
1.76833,0.596874,-0.116788,18,32765
1.83652,0.613272,-0.121157,17,32765
1.80058,0.59479,-0.118869,18,32765
1.77406,0.579556,-0.117166,18,32765
1.81394,0.585972,-0.11979,19,32765
1.79683,0.573985,-0.118551,17,32765
1.77961,0.562235,-0.117326,17,32765
1.7909,0.559668,-0.117696,16,32765
2.93771,2.17951,-0.123183,15,32765
3.12217,2.29981,-0.131653,16,32765
2.98489,2.18275,-0.12654,15,32765
2.95987,2.14914,-0.126361,17,32765
2.967,2.13921,-0.12756,16,32765
2.84408,2.03619,-0.123077,16,32765
2.84259,2.02097,-0.124404,17,32765
2.81661,1.9884,-0.124267,17,32765
2.86417,2.00757,-0.127206,17,32765
2.79702,1.94656,-0.125293,17,32765
2.77878,1.92014,-0.125901,16,32765
2.71916,1.86568,-0.124148,16,32765
2.68402,1.82845,-0.123718,18,32765
2.66521,1.80269,-0.123906,17,32765
2.70438,1.81599,-0.126928,17,32765
2.65232,1.7679,-0.125742,17,32765
2.63324,1.74235,-0.125987,17,32765
2.59734,1.70592,-0.125592,17,32765
2.536,1.65359,-0.123586,17,32765
2.56663,1.66135,-0.126324,18,32765
2.46284,1.58252,-0.122254,17,32765
2.45964,1.56888,-0.12313,18,32765
2.45636,1.55531,-0.124126,18,32765
2.40222,1.50993,-0.12276,17,32765
2.36484,1.47539,-0.121882,17,32765
2.32726,1.44113,-0.120979,18,32765
2.31503,1.42278,-0.121386,18,32765
2.30267,1.40459,-0.121848,18,32765
2.27311,1.37618,-0.121261,17,32765
2.25199,1.35304,-0.121314,17,32765
2.25652,1.34538,-0.122443,17,32765
2.20081,1.30211,-0.120624,18,32765
2.23096,1.30985,-0.12333,18,32765
2.22665,1.29731,-0.124167,19,32765
2.17908,1.25975,-0.122668,17,32765
2.13129,1.22253,-0.120955,18,32765
2.17008,1.23502,-0.124374,18,32765
2.10466,1.18827,-0.121628,18,32765
2.09122,1.1713,-0.121812,19,32765
2.11255,1.17394,-0.124046,19,32765
2.09017,1.15237,-0.123788,19,32765
2.0852,1.14053,-0.124581,19,32765
1.98364,1.07635,-0.119389,19,32765
2.03116,1.09331,-0.123139,19,32765
2.02596,1.08172,-0.123916,18,32765
1.96785,1.04199,-0.121306,18,32765
1.99789,1.04913,-0.124035,18,32765
1.96599,1.02381,-0.122971,19,32765
1.89838,0.980513,-0.119706,18,32765
1.9194,0.983189,-0.121788,19,32765
1.92265,0.976665,-0.122978,19,32765
1.94376,0.97904,-0.125216,19,32765
1.84882,0.923258,-0.119825,18,32765
1.87874,0.930224,-0.122505,18,32765
1.86388,0.915086,-0.122377,18,32765
1.84895,0.900043,-0.122143,18,32765
1.90585,0.919812,-0.126832,19,32765
1.89987,0.909052,-0.12739,20,32765
1.88486,0.894026,-0.127034,19,32765
1.85167,0.87068,-0.125387,18,32765
1.83642,0.85605,-0.125095,18,32765
1.82106,0.841596,-0.124766,19,32765
1.77841,0.814776,-0.12243,19,32765
1.772,0.80465,-0.122658,18,32765
1.7747,0.798574,-0.12339,19,32765
1.75914,0.784331,-0.123073,19,32765
1.76174,0.778351,-0.123896,20,32765
1.76432,0.772362,-0.12465,19,32765
1.77599,0.770437,-0.126061,18,32765
1.75101,0.752645,-0.124794,20,32765
1.74434,0.742739,-0.124913,19,32765
1.72842,0.729033,-0.12443,20,32765
1.74926,0.730869,-0.12614,19,32765
1.72398,0.713569,-0.12499,19,32765
1.71703,0.704108,-0.124995,19,32765
1.73781,0.705908,-0.126935,19,32765
1.72159,0.69268,-0.126218,20,32765
1.69604,0.675855,-0.124741,19,32765
1.73537,0.684815,-0.128078,20,32765
1.66328,0.649966,-0.123002,19,32765
1.71192,0.662432,-0.126971,19,32765
1.6861,0.646103,-0.125389,19,32765
1.69751,0.644084,-0.126597,19,32765
1.63422,0.613929,-0.122107,18,32765
1.6923,0.629386,-0.126821,19,32765
1.6569,0.610009,-0.124419,19,32765
1.65888,0.604488,-0.124919,19,32765
1.65148,0.595563,-0.124576,19,32765
1.66278,0.593528,-0.125655,19,32765
1.63649,0.578085,-0.123823,19,32765
1.63837,0.572677,-0.124005,18,32765
1.62134,0.56083,-0.12302,19,32765
1.60427,0.549072,-0.121835,19,32765
1.6249,0.5503,-0.123516,19,32765
1.59831,0.535514,-0.12136,19,32765
1.67577,0.555416,-0.127302,19,32765
1.63019,0.534342,-0.123868,20,32765
1.64143,0.532022,-0.124696,19,32765
1.61467,0.517524,-0.122549,20,32765
1.5973,0.506327,-0.121136,20,32765
1.61792,0.507305,-0.122346,20,32765
0,0,-0,14,32765
0,0,-0,13,32765
3.19045,2.32542,-0.12624,14,32765
3.22231,2.3324,-0.130368,15,32765
3.15696,2.26906,-0.130614,15,32765
2.96918,2.11909,-0.126197,15,32765
2.90282,2.05704,-0.125845,15,32765
2.91771,2.0531,-0.128938,14,32765
2.85878,1.99772,-0.12886,16,32765
2.79957,1.94266,-0.12877,15,32765
2.68247,1.84831,-0.125315,15,32765
2.6308,1.79982,-0.125051,15,32765
2.62024,1.77966,-0.12657,16,32765
2.54322,1.71503,-0.124798,15,32765
2.48239,1.6621,-0.12352,16,32765
2.44622,1.62617,-0.123205,14,32765
2.3848,1.57397,-0.122224,16,32765
2.43176,1.59335,-0.125928,17,32765
2.29465,1.49253,-0.120516,16,32765
2.25764,1.45766,-0.119933,15,32765
2.30454,1.47693,-0.124039,16,32765
2.25038,1.43167,-0.12258,16,32765
2.23814,1.4135,-0.123478,16,32765
2.19198,1.37419,-0.122102,15,32765
2.23883,1.3933,-0.126314,17,32765
2.14994,1.32801,-0.122579,16,32765
2.13728,1.31033,-0.12306,15,32765
2.14165,1.30307,-0.124242,17,32765
2.06903,1.24932,-0.121296,17,32765
2.03034,1.21663,-0.120111,15,32765
2.07732,1.23523,-0.123988,16,32765
2.05559,1.21298,-0.123841,16,32765
1.96479,1.15054,-0.119304,16,32765
1.90811,1.10886,-0.116757,16,32765
1.98963,1.1473,-0.122748,17,32765
1.95875,1.12074,-0.12177,17,32765
1.85824,1.05498,-0.116509,15,32765
1.92265,1.08295,-0.121446,16,32765
1.90879,1.06672,-0.121339,15,32765
1.9123,1.06029,-0.122475,17,32765
1.91578,1.05386,-0.123513,15,32765
1.89295,1.0331,-0.122759,17,32765
1.89637,1.02667,-0.123852,17,32765
1.89979,1.02019,-0.124906,16,32765
1.8415,0.980895,-0.121756,16,32765
1.81825,0.96068,-0.121081,16,32765
1.83025,0.959214,-0.122503,16,32765
1.8511,0.962282,-0.124736,17,32765
1.76556,0.910255,-0.119664,16,32765
1.77754,0.908672,-0.121035,17,32765
1.82514,0.925049,-0.125106,17,32765
1.81938,0.914198,-0.125344,17,32765
1.75993,0.876752,-0.121895,16,32765
1.7628,0.870845,-0.12278,17,32765
1.76569,0.864855,-0.123571,16,32765
1.75058,0.850165,-0.123248,17,32765
1.73539,0.835589,-0.122917,17,32765
1.72017,0.821063,-0.122305,17,32765
1.74994,0.828066,-0.125018,18,32765
1.69847,0.796683,-0.121991,17,32765
1.74633,0.811975,-0.126146,17,32765
1.72182,0.793526,-0.125068,17,32765
1.72445,0.787683,-0.12581,17,32765
1.73615,0.78596,-0.127149,18,32765
1.6932,0.759657,-0.124828,18,32765
1.66835,0.741778,-0.123608,17,32765
1.70732,0.752172,-0.127251,16,32765
1.65492,0.72247,-0.123971,16,32765
1.58402,0.685242,-0.11923,15,32765
1.66879,0.715255,-0.126263,17,32765
1.6344,0.694043,-0.124248,16,32765
1.61829,0.680782,-0.123547,17,32765
1.64817,0.686739,-0.126606,18,32765
1.60429,0.662201,-0.123854,17,32765
1.59724,0.652945,-0.124009,17,32765
1.56238,0.632621,-0.12196,16,32765
1.60144,0.642276,-0.125562,17,32765
1.53862,0.611165,-0.121306,17,32765
1.55911,0.613445,-0.123484,18,32765
1.55177,0.604673,-0.123577,17,32765
1.5444,0.59594,-0.123625,18,32765
1.53699,0.587257,-0.123663,16,32765
1.52023,0.575073,-0.122905,18,32765
1.53139,0.573538,-0.124511,18,32765
1.52388,0.564946,-0.124634,18,32765
1.52568,0.559884,-0.125418,18,32765
1.55558,0.564993,-0.128676,18,32765
1.45418,0.522737,-0.120862,17,32765
1.46522,0.521281,-0.122485,18,32765
1.48569,0.522995,-0.124867,18,32765
1.49674,0.521383,-0.126586,18,32765
1.47953,0.509971,-0.125734,18,32765
1.48109,0.505199,-0.126615,19,32765
1.44484,0.487731,-0.124268,18,32765
1.46523,0.489406,-0.126774,18,32765
1.4478,0.478421,-0.126007,17,32765
1.43032,0.467548,-0.12529,17,32765
1.38433,0.447575,-0.122107,18,32765
1.41412,0.452299,-0.125647,17,32765
1.40596,0.444811,-0.125821,18,32765
1.3597,0.425507,-0.122662,17,32765
2.63237,1.95255,-0.128841,17,32765
2.47785,1.8252,-0.123767,16,32765
2.46761,1.80516,-0.126147,16,32765
2.44923,1.77932,-0.127325,17,32765
2.32545,1.67752,-0.122961,16,32765
2.37967,1.70457,-0.128456,17,32765
2.27948,1.62122,-0.124929,17,32765
2.23581,1.57902,-0.124357,17,32765
2.24905,1.57738,-0.127028,16,32765
2.21317,1.54135,-0.126988,17,32765
2.23462,1.54533,-0.129774,17,32765
2.14087,1.46997,-0.126028,17,32765
2.13749,1.45706,-0.127428,17,32765
2.10916,1.42749,-0.127306,17,32765
2.11381,1.42045,-0.128992,17,32765
2.0603,1.37458,-0.12693,17,32765
2.00648,1.32907,-0.125347,17,32765
2.02754,1.3333,-0.127698,18,32765
1.99848,1.30459,-0.127295,17,32765
1.99443,1.29236,-0.128194,18,32765
1.97353,1.26935,-0.12819,17,32765
1.97768,1.26271,-0.129697,18,32765
1.92275,1.21869,-0.127398,18,32765
1.87603,1.18034,-0.125264,17,32765
1.87138,1.16881,-0.126255,19,32765
1.84128,1.14144,-0.125282,18,32765
1.83654,1.12999,-0.125954,18,32765
1.8403,1.12373,-0.126974,17,32765
1.85257,1.12262,-0.128917,18,32765
1.82207,1.09574,-0.12773,18,32765
1.80858,1.07927,-0.127703,18,32765
1.78637,1.05788,-0.127099,19,32765
1.72962,1.01645,-0.123849,18,32765
1.77605,1.0358,-0.127972,17,32765
1.78811,1.03477,-0.129707,19,32765
1.77422,1.01876,-0.129505,18,32765
1.76889,1.00782,-0.130024,19,32765
1.78094,1.00669,-0.131708,18,32765
1.67981,0.942092,-0.124874,18,32765
1.70907,0.950966,-0.127833,19,32765
1.65978,0.916272,-0.124823,18,32765
1.69779,0.929867,-0.128295,18,32765
1.6921,0.91932,-0.128611,18,32765
1.68639,0.908787,-0.128884,18,32765
1.6542,0.884241,-0.127009,19,32765
1.6483,0.873959,-0.127308,19,32765
1.66883,0.877701,-0.129433,19,32765
1.63632,0.853628,-0.127624,19,32765
1.60371,0.829719,-0.125682,18,32765
1.6509,0.846905,-0.129871,20,32765
1.65377,0.841143,-0.130822,19,32765
1.63883,0.826373,-0.130182,19,32765
1.60593,0.802847,-0.128132,19,32765
1.59069,0.78858,-0.127509,19,32765
1.5933,0.783159,-0.128225,18,32765
1.61381,0.786495,-0.130527,19,32765
1.60742,0.776685,-0.130669,18,32765
1.54705,0.74102,-0.126157,18,32765
1.57652,0.74862,-0.129073,18,32765
1.55193,0.730497,-0.12763,18,32765
1.59048,0.7421,-0.13143,19,32765
1.59292,0.736693,-0.132249,19,32765
1.55004,0.710496,-0.129161,19,32765
1.55239,0.705234,-0.129769,19,32765
1.5456,0.695866,-0.129932,19,32765
1.54789,0.690631,-0.13067,19,32765
1.50457,0.665175,-0.127659,18,32765
1.52501,0.668091,-0.129948,19,32765
1.57291,0.68282,-0.134575,18,32765
1.49273,0.642037,-0.128277,19,32765
1.50399,0.640907,-0.129766,18,32765
1.49692,0.631932,-0.12962,20,32765
1.48981,0.622936,-0.129688,19,32765
1.50103,0.621756,-0.131225,20,32765
1.4662,0.601481,-0.128802,21,32765
1.45891,0.592803,-0.128758,19,32765
1.47931,0.595381,-0.131051,20,32765
1.47196,0.586745,-0.131022,20,32765
1.45527,0.574607,-0.130044,21,32765
1.47566,0.577043,-0.132491,20,32765
1.44033,0.557746,-0.129894,20,32765
1.45141,0.556521,-0.131473,19,32765
1.4532,0.551664,-0.132183,20,32765
1.39899,0.525809,-0.127879,20,32765
1.43802,0.535009,-0.132124,19,32765
1.37429,0.506118,-0.126826,18,32765
1.41333,0.515157,-0.131141,19,32765
1.37749,0.496935,-0.128344,19,32765
1.35091,0.482329,-0.126504,19,32765
1.35245,0.477793,-0.127244,19,32765
1.38215,0.483189,-0.130755,20,32765
1.3366,0.462357,-0.126977,19,32765
1.33801,0.458035,-0.127775,20,32765
1.34882,0.456957,-0.129496,19,32765
1.33132,0.446284,-0.128488,20,32765
1.32323,0.438839,-0.128372,19,32765
1.33402,0.437653,-0.130158,19,32765
1.31641,0.427163,-0.129231,19,32765
1.2987,0.416898,-0.12832,19,32765
1.29993,0.412771,-0.129262,20,32765
1.31062,0.411651,-0.131259,19,32765
2.11739,1.571,-0.135043,15,32765
2.00202,1.47499,-0.128053,15,32765
2.06331,1.50959,-0.132315,14,32765
1.97139,1.43216,-0.127047,15,32765
2.00042,1.44308,-0.129359,15,32765
1.96457,1.40731,-0.12783,15,32765
1.94484,1.38332,-0.126954,15,32765
1.9412,1.3711,-0.127446,15,32765
1.96201,1.37615,-0.129438,15,32765
1.95009,1.35826,-0.129127,15,32765
1.93819,1.34029,-0.12902,15,32765
1.92618,1.32241,-0.129037,15,32765
1.92234,1.31025,-0.129474,16,32765
1.90192,1.28691,-0.128813,16,32765
1.90617,1.28049,-0.129839,16,32765
1.81905,1.2131,-0.124702,15,32765
1.87302,1.24,-0.12914,16,32765
1.76032,1.15693,-0.121992,15,32765
1.7892,1.16738,-0.124843,15,32765
1.79305,1.16139,-0.12559,17,32765
1.78006,1.14455,-0.125561,16,32765
1.78395,1.13838,-0.126544,16,32765
1.77932,1.12695,-0.126878,17,32765
1.75773,1.10493,-0.12619,16,32765
1.79522,1.12019,-0.129458,17,32765
1.79038,1.10894,-0.129933,16,32765
1.76007,1.08192,-0.128506,17,32765
1.72953,1.05522,-0.127006,16,32765
1.79286,1.08542,-0.132369,16,32765
1.71093,1.02789,-0.12709,17,32765
1.68007,1.00162,-0.125477,17,32765
1.67482,0.990787,-0.125814,17,32765
1.65224,0.970002,-0.124844,17,32765
1.70716,0.994557,-0.129858,17,32765
1.64999,0.953813,-0.125967,18,32765
1.67913,0.963061,-0.129035,17,32765
1.64766,0.93754,-0.1274,17,32765
1.63342,0.922078,-0.12699,17,32765
1.65393,0.926162,-0.129341,16,32765
1.65697,0.920598,-0.130187,16,32765
1.62506,0.895695,-0.128457,18,32765
1.63677,0.894961,-0.130086,17,32765
1.63091,0.88471,-0.130433,17,32765
1.59866,0.860313,-0.128631,17,32765
1.60146,0.854965,-0.129517,17,32765
1.56022,0.826132,-0.126982,17,32765
1.54531,0.811509,-0.12641,17,32765
1.54804,0.806144,-0.127334,17,32765
1.48871,0.768757,-0.123069,16,32765
1.52675,0.781879,-0.126934,17,32765
1.56494,0.794676,-0.130647,17,32765
1.53194,0.771364,-0.128654,17,32765
1.54343,0.770555,-0.130267,17,32765
1.55495,0.769628,-0.131924,16,32765
1.52165,0.746816,-0.12982,16,32765
1.46136,0.7111,-0.125208,17,32765
1.48164,0.714842,-0.127427,16,32765
1.46596,0.701268,-0.126861,18,32765
1.47728,0.700533,-0.128479,17,32765
1.4886,0.699755,-0.130006,17,32765
1.4819,0.690394,-0.130086,17,32765
1.42989,0.660254,-0.126019,18,32765
1.45013,0.663792,-0.128476,16,32765
1.47044,0.667151,-0.130871,18,32765
1.49078,0.670399,-0.13318,17,32765
1.45657,0.649113,-0.130566,17,32765
1.44047,0.636089,-0.129744,17,32765
1.43343,0.627185,-0.129669,17,32765
1.43549,0.622335,-0.130284,18,32765
1.42833,0.613623,-0.130131,18,32765
1.42117,0.604879,-0.129996,17,32765
1.38641,0.584613,-0.127281,18,32765
1.41589,0.591476,-0.130455,18,32765
1.4178,0.586737,-0.131124,16,32765
1.38282,0.566914,-0.128121,18,32765
1.44004,0.58479,-0.133844,18,32765
1.36799,0.550185,-0.12763,17,32765
1.37902,0.54931,-0.129044,17,32765
1.36226,0.537415,-0.127791,17,32765
1.36399,0.5329,-0.128239,17,32765
1.34713,0.521139,-0.127054,19,32765
1.33022,0.509511,-0.125732,18,32765
1.30392,0.49451,-0.123519,17,32765
1.32415,0.49717,-0.125917,17,32765
1.38178,0.513597,-0.131521,18,32765
1.34605,0.495217,-0.128487,18,32765
1.34767,0.490715,-0.128798,18,32765
1.31174,0.472819,-0.125607,18,32765
1.35077,0.481908,-0.12953,18,32765
1.33353,0.470884,-0.127957,18,32765
1.31622,0.459922,-0.126603,19,32765
1.33656,0.461991,-0.128754,17,32765
1.3192,0.451154,-0.127189,18,32765
1.30176,0.440484,-0.125626,19,32765
1.28424,0.43005,-0.123986,18,32765
1.32342,0.438392,-0.127924,18,32765
1.31538,0.430951,-0.127156,18,32765
1.33572,0.432791,-0.129015,18,32765
1.28021,0.410248,-0.123502,18,32765
1.3005,0.412199,-0.125283,17,32765
1.27329,0.399133,-0.122549,18,32765
1.76112,1.3118,-0.132844,17,32765
1.7655,1.30583,-0.13345,17,32765
1.72959,1.27038,-0.130977,16,32765
1.78222,1.29979,-0.135482,17,32765
1.73802,1.25867,-0.13246,17,32765
1.75026,1.25866,-0.134051,18,32765
1.71384,1.22374,-0.131577,18,32765
1.72598,1.2238,-0.133115,17,32765
1.72996,1.21807,-0.133931,18,32765
1.70939,1.19519,-0.132713,17,32765
1.70517,1.18369,-0.132943,17,32765
1.70089,1.17222,-0.133289,18,32765
1.6801,1.14952,-0.132226,17,32765
1.65918,1.12695,-0.131163,17,32765
1.66291,1.12134,-0.132062,18,32765
1.65833,1.11014,-0.132386,17,32765
1.69526,1.12659,-0.135964,18,32765
1.64902,1.08789,-0.1328,18,32765
1.61086,1.055,-0.130455,18,32765
1.58924,1.03327,-0.129093,18,32765
1.59263,1.0279,-0.130121,17,32765
1.62973,1.04388,-0.133762,18,32765
1.59954,1.0169,-0.131844,18,32765
1.6198,1.02206,-0.134265,19,32765
1.55552,0.974271,-0.129403,17,32765
1.56717,0.974324,-0.13106,18,32765
1.55344,0.958481,-0.130561,17,32765
1.58209,0.968879,-0.133605,19,32765
1.5598,0.947848,-0.132308,19,32765
1.55442,0.937347,-0.132519,19,32765
1.5661,0.93715,-0.134117,18,32765
1.56922,0.931776,-0.135036,18,32765
1.52072,0.896109,-0.131501,18,32765
1.55809,0.911088,-0.135491,18,32765
1.56975,0.910794,-0.136909,19,32765
1.52956,0.880534,-0.134143,18,32765
1.54117,0.880194,-0.135863,18,32765
1.48338,0.840485,-0.131369,18,32765
1.49491,0.840209,-0.133044,18,32765
1.43671,0.801175,-0.128366,18,32765
1.46553,0.810747,-0.131614,18,32765
1.47694,0.81055,-0.133248,18,32765
1.46206,0.796043,-0.132608,18,32765
1.50851,0.814793,-0.137528,19,32765
1.44087,0.77207,-0.131931,18,32765
1.45223,0.771786,-0.133691,19,32765
1.44598,0.762146,-0.133691,18,32765
1.43971,0.752494,-0.133738,19,32765
1.44224,0.747498,-0.134543,18,32765
1.4181,0.728913,-0.132937,19,32765
1.42943,0.728534,-0.134466,19,32765
1.41405,0.714622,-0.133699,18,32765
1.38079,0.691894,-0.131112,17,32765
1.42773,0.709257,-0.136173,19,32765
1.42109,0.70003,-0.136192,18,32765
1.41445,0.690807,-0.136048,19,32765
1.40775,0.681686,-0.135839,18,32765
1.34708,0.646768,-0.130683,18,32765
1.3582,0.646434,-0.132329,18,32765
1.39636,0.658808,-0.136534,19,32765
1.37149,0.641304,-0.134697,18,32765
1.3465,0.624036,-0.132693,18,32765
1.35755,0.623699,-0.134392,18,32765
1.34144,0.610864,-0.133323,19,32765
1.34343,0.606355,-0.133949,18,32765
1.32724,0.593652,-0.132719,19,32765
1.32008,0.585073,-0.132555,17,32765
1.31289,0.576556,-0.132326,17,32765
1.31478,0.572102,-0.132891,19,32765
1.35319,0.583481,-0.137226,18,32765
1.32763,0.567147,-0.1351,18,32765
1.29279,0.547148,-0.131971,19,32765
1.29457,0.542789,-0.132563,18,32765
1.26874,0.526988,-0.130343,18,32765
1.26124,0.518976,-0.129768,18,32765
1.26291,0.514755,-0.130294,18,32765
1.26459,0.510475,-0.130897,19,32765
1.27548,0.509941,-0.132364,19,32765
1.26787,0.502026,-0.131852,19,32765
1.26948,0.497811,-0.132271,19,32765
1.27109,0.493543,-0.132801,19,32765
1.26341,0.485711,-0.132243,19,32765
1.25567,0.477975,-0.131681,19,32765
1.27582,0.480801,-0.134243,19,32765
1.27738,0.476554,-0.134508,19,32765
1.25091,0.461926,-0.132047,20,32765
1.25243,0.45773,-0.132339,20,32765
1.26323,0.457026,-0.133699,20,32765
1.24595,0.446167,-0.132029,19,32765
1.26614,0.448752,-0.13423,20,32765
1.24879,0.437984,-0.132668,20,32765
1.25963,0.437022,-0.133991,19,32765
1.25162,0.429641,-0.133228,19,32765
1.26241,0.428762,-0.134477,20,32765
1.26374,0.424765,-0.134657,19,32765
1.23677,0.41122,-0.131916,19,32765
1.22865,0.404044,-0.131046,19,32765
1.23942,0.403093,-0.132083,19,32765
1.25019,0.402129,-0.13307,20,32765
1.23251,0.392114,-0.131009,19,32765
1.24324,0.391174,-0.132027,20,32765
1.85211,1.37439,-0.129684,16,32765
1.84055,1.35624,-0.130706,16,32765
1.79663,1.31464,-0.129384,16,32765
1.82516,1.32618,-0.132817,15,32765
1.78092,1.28495,-0.131255,16,32765
1.72833,1.23822,-0.128748,16,32765
1.7161,1.22079,-0.129506,15,32765
1.71191,1.20927,-0.130475,16,32765
1.69945,1.19213,-0.130693,15,32765
1.69511,1.18075,-0.131642,15,32765
1.6907,1.16942,-0.13255,16,32765
1.66158,1.14119,-0.131267,16,32765
1.68173,1.1469,-0.134195,17,32765
1.56979,1.06292,-0.126363,16,32765
1.63955,1.10208,-0.133067,16,32765
1.61832,1.07984,-0.132288,16,32765
1.6385,1.08534,-0.135058,15,32765
1.60873,1.05785,-0.133594,16,32765
1.57037,1.02523,-0.131352,16,32765
1.59047,1.03075,-0.134011,17,32765
1.51827,0.976915,-0.128863,16,32765
1.58028,1.00941,-0.134973,17,32765
1.55829,0.98804,-0.13414,17,32765
1.51088,0.950917,-0.130746,16,32765
1.49712,0.935145,-0.130541,16,32765
1.51715,0.940563,-0.133057,17,32765
1.52023,0.935395,-0.134251,15,32765
1.51481,0.925023,-0.134487,16,32765
1.46663,0.888958,-0.131014,17,32765
1.43532,0.863497,-0.128944,16,32765
1.42952,0.853633,-0.129213,16,32765
1.43228,0.848858,-0.1301,16,32765
1.43505,0.843998,-0.131148,16,32765
1.42923,0.834081,-0.131182,17,32765
1.42338,0.824125,-0.131519,17,32765
1.43472,0.824272,-0.13321,16,32765
1.41143,0.804623,-0.131682,17,32765
1.40538,0.794942,-0.131809,16,32765
1.41664,0.795131,-0.133405,16,32765
1.37571,0.766069,-0.130272,16,32765
1.41312,0.780662,-0.13441,16,32765
1.38948,0.761468,-0.132722,17,32765
1.35698,0.737637,-0.130325,17,32765
1.32433,0.714099,-0.127668,16,32765
1.40575,0.751883,-0.136149,17,32765
1.37298,0.728474,-0.133581,16,32765
1.32246,0.695992,-0.129218,16,32765
1.34238,0.700735,-0.131865,16,32765
1.36238,0.705344,-0.134163,16,32765
1.35583,0.696123,-0.134305,17,32765
1.31376,0.668851,-0.130627,17,32765
1.2982,0.65536,-0.129562,16,32765
1.35384,0.677575,-0.13568,17,32765
1.35608,0.672939,-0.136428,16,32765
1.34044,0.659459,-0.135451,16,32765
1.35153,0.659281,-0.137159,16,32765
1.29096,0.624317,-0.131388,17,32765
1.26607,0.606963,-0.129465,17,32765
1.24107,0.58985,-0.127328,16,32765
1.29706,0.611051,-0.133636,16,32765
1.29,0.602487,-0.13341,18,32765
1.24678,0.577216,-0.129429,17,32765
1.21247,0.556362,-0.12636,16,32765
1.26864,0.577002,-0.13272,16,32765
1.27055,0.572639,-0.133329,18,32765
1.24516,0.556126,-0.131194,17,32765
1.23786,0.547875,-0.130946,17,32765
1.2761,0.559649,-0.135462,17,32765
1.23228,0.535501,-0.131243,17,32765
1.23402,0.531309,-0.131898,17,32765
1.23574,0.527125,-0.132567,17,32765
1.21912,0.515168,-0.13133,18,32765
1.19327,0.499466,-0.129039,16,32765
1.21326,0.503053,-0.131664,17,32765
1.1965,0.491326,-0.130329,17,32765
1.17043,0.476045,-0.127949,16,32765
1.23655,0.498144,-0.135663,18,32765
1.21044,0.482879,-0.133271,17,32765
1.20271,0.475196,-0.132973,17,32765
1.19497,0.467498,-0.132617,18,32765
1.22428,0.474308,-0.136301,18,32765
1.19792,0.459523,-0.133858,18,32765
1.15289,0.437848,-0.129315,17,32765
1.18219,0.444533,-0.133069,16,32765
1.17429,0.437087,-0.132677,17,32765
1.16633,0.429757,-0.132213,17,32765
1.10229,0.402003,-0.125484,16,32765
1.15966,0.418593,-0.132506,17,32765
1.19843,0.42813,-0.13738,17,32765
1.10602,0.391039,-0.127318,16,32765
1.14476,0.400515,-0.132308,17,32765
1.11783,0.386974,-0.129679,18,32765
1.10023,0.376799,-0.128133,16,32765
1.12962,0.382778,-0.13202,16,32765
1.10251,0.369598,-0.129511,17,32765
1.04703,0.347282,-0.123363,18,32765
1.1236,0.368703,-0.132978,18,32765
1.06799,0.346662,-0.127,18,32765
1.06903,0.343233,-0.127522,17,32765
1.07002,0.339787,-0.128425,17,32765
1.03311,0.324488,-0.124479,18,32765
1.67241,1.24599,-0.136607,17,32765
1.63638,1.21061,-0.135252,17,32765
1.62424,1.19323,-0.135831,17,32765
1.55559,1.13481,-0.131226,17,32765
1.62393,1.17634,-0.138461,17,32765
1.59539,1.14752,-0.137251,17,32765
1.56665,1.1189,-0.136265,17,32765
1.5296,1.08478,-0.134153,18,32765
1.54123,1.08543,-0.136195,17,32765
1.54473,1.08026,-0.137637,18,32765
1.51544,1.05234,-0.136112,17,32765
1.51063,1.04161,-0.136554,17,32765
1.50573,1.03093,-0.137273,18,32765
1.4761,1.00343,-0.135572,17,32765
1.49594,1.00951,-0.138354,18,32765
1.47445,0.987715,-0.137191,17,32765
1.44449,0.960588,-0.135358,18,32765
1.42268,0.939189,-0.134159,17,32765
1.44238,0.945369,-0.136851,17,32765
1.42041,0.924151,-0.135608,18,32765
1.42336,0.919435,-0.136736,18,32765
