x, y, z, intensity, ring
0.904767,-0.349393,-0.0149004,18,32765
0.912887,-0.356122,-0.0146279,18,32765
0.893063,-0.351909,-0.0140998,18,32765
0.891879,-0.35491,-0.0138151,18,32765
0.918527,-0.369073,-0.0139226,19,32765
0.889481,-0.3609,-0.013213,18,32765
0.888283,-0.363847,-0.0129911,18,32765
0.896303,-0.37064,-0.0128831,18,32765
0.931965,-0.389063,-0.0130618,18,32765
0.958291,-0.403863,-0.0131359,17,32765
1.00293,-0.426682,-0.0135541,12,32765
0.937171,-0.402442,-0.0122948,13,32765
0.899101,-0.389725,-0.0115091,20,32765
0.89779,-0.392742,-0.0112458,19,32765
0.869008,-0.383678,-0.0107545,19,32765
0.840308,-0.374408,-0.0100743,19,32765
0.866423,-0.389497,-0.0101334,19,32765
0.865121,-0.392387,-0.00985944,18,32765
0.845599,-0.387008,-0.009348,19,32765
0.844272,-0.3899,-0.00914497,19,32765
0.833872,-0.388562,-0.00877387,18,32765
0.85971,-0.40413,-0.00881705,18,32765
0.840301,-0.398405,-0.00827367,18,32765
0.838958,-0.401226,-0.00820708,19,32765
0.846629,-0.408356,-0.00801819,19,32765
0.827274,-0.402445,-0.00750152,19,32765
0.8259,-0.405257,-0.0075474,19,32765
0.815576,-0.403588,-0.00725254,18,32765
0.805267,-0.401871,-0.00674849,18,32765
0.821791,-0.413539,-0.00674186,19,32765
0.820409,-0.416277,-0.00649352,19,32765
0.801192,-0.409945,-0.00605842,19,32765
0.808674,-0.417268,-0.00588158,19,32765
0.798366,-0.415428,-0.00556468,18,32765
0.788104,-0.41348,-0.00514384,18,32765
0.81323,-0.430153,-0.00499622,17,32765
0.802961,-0.428173,-0.0046735,16,32765
0.792665,-0.426222,-0.00412776,16,32765
0.756079,-0.409794,-0.00371618,16,32765
0.763471,-0.417133,-0.00343361,17,32765
0.77959,-0.429335,-0.00324441,18,32765
0.760656,-0.422249,-0.0028882,18,32765
0.767975,-0.42966,-0.00265468,19,32765
0.775252,-0.437125,-0.00239174,18,32765
0.773814,-0.439668,-0.00208499,19,32765
0.75498,-0.432323,-0.00177371,18,32765
0.779525,-0.449821,-0.00145419,19,32765
0.769379,-0.447387,-0.00111116,19,32765
0.759262,-0.444882,-0.000795645,19,32765
0.757761,-0.447435,-0.00049282,19,32765
0.756257,-0.449973,-0.000100952,19,32765
0.763333,-0.457628,0.000231015,19,32765
0.753246,-0.454994,0.000580184,19,32765
0.751743,-0.457473,0.00094916,19,32765
0.741702,-0.454727,0.00129045,19,32765
0.74871,-0.462418,0.00166087,18,32765
0.747185,-0.464876,0.00205294,19,32765
0.745668,-0.467304,0.0025021,19,32765
0.72722,-0.459067,0.00282189,18,32765
0.725717,-0.461437,0.00321454,18,32765
0.724173,-0.463855,0.00352281,18,32765
0.739456,-0.477062,0.00406624,18,32765
0.7295,-0.474036,0.00444213,19,32765
0.727938,-0.476427,0.00486942,19,32765
0.718011,-0.473321,0.00524452,19,32765
0.724764,-0.481232,0.00578294,19,32765
0.71485,-0.478072,0.00608766,19,32765
0.713267,-0.480424,0.00654265,19,32765
0.711689,-0.482753,0.00700017,19,32765
0.701866,-0.479405,0.00739015,19,32765
0.683822,-0.470349,0.00767563,19,32765
0.698732,-0.483947,0.00831619,19,32765
0.697154,-0.486207,0.00884625,19,32765
0.703733,-0.494237,0.00949771,19,32765
0.693946,-0.490757,0.0098567,19,32765
0.684171,-0.487241,0.0103004,19,32765
0.6907,-0.495291,0.0109995,19,32765
0.67286,-0.485831,0.0113001,19,32765
0.679377,-0.493863,0.0120571,19,32765
0.701986,-0.513754,0.0131492,19,32765
1.03201,-0.317646,-0.0212439,18,32765
1.04052,-0.323974,-0.0216497,19,32765
1.0013,-0.315346,-0.0211186,18,32765
1.01933,-0.324655,-0.021502,19,32765
0.999224,-0.32187,-0.0212461,18,32765
0.998156,-0.325165,-0.0212741,18,32765
1.01607,-0.33471,-0.0218186,18,32765
0.977,-0.325464,-0.0210615,18,32765
0.985406,-0.331855,-0.0211343,17,32765
0.965378,-0.328653,-0.0207819,16,32765
0.954859,-0.32852,-0.0204685,15,32765
0.972669,-0.338195,-0.0209536,14,32765
1.01871,-0.357986,-0.0216629,13,32765
1.06461,-0.378144,-0.0226286,13,32765
1.02569,-0.368232,-0.0217642,14,32765
1.05264,-0.381906,-0.0222238,14,32765
1.07954,-0.395695,-0.0227035,14,32765
1.05011,-0.388834,-0.0219921,14,32765
1.0301,-0.385273,-0.0214676,15,32765
0.925927,-0.349843,-0.01921,15,32765
0.962121,-0.367195,-0.0197977,16,32765
0.932894,-0.359642,-0.0191312,17,32765
0.950321,-0.370025,-0.0192487,18,32765
0.921177,-0.362203,-0.0185063,18,32765
0.910677,-0.361575,-0.0181834,18,32765
0.9002,-0.360868,-0.017712,19,32765
0.926793,-0.375133,-0.0181542,18,32765
0.907028,-0.370664,-0.0175533,18,32765
0.896544,-0.369885,-0.017156,18,32765
0.886049,-0.369098,-0.0168378,18,32765
1.00461,-0.422487,-0.0188484,15,32765
1.21487,-0.515747,-0.0224732,12,32765
0.854713,-0.366227,-0.0156096,14,32765
0.844318,-0.365095,-0.0152729,18,32765
0.879751,-0.383914,-0.0157342,19,32765
0.887614,-0.390896,-0.015532,19,32765
0.868013,-0.385784,-0.0149899,19,32765
0.857581,-0.384636,-0.0144948,19,32765
0.847176,-0.383403,-0.0139821,18,32765
0.845875,-0.386272,-0.0137837,18,32765
0.853658,-0.393299,-0.013561,18,32765
0.852351,-0.396127,-0.0134355,18,32765
0.841972,-0.394733,-0.0129914,18,32765
0.822564,-0.389015,-0.0124925,18,32765
0.803195,-0.383193,-0.0118728,18,32765
0.819926,-0.394563,-0.011892,18,32765
0.818621,-0.397272,-0.0116071,18,32765
0.835248,-0.408806,-0.0118,18,32765
0.806978,-0.398327,-0.0110289,18,32765
0.832476,-0.414436,-0.0112111,18,32765
0.795312,-0.399336,-0.0104621,18,32765
0.802876,-0.406555,-0.0101523,19,32765
0.810387,-0.413854,-0.00988521,19,32765
0.782322,-0.402845,-0.00935201,18,32765
0.78984,-0.410082,-0.00920817,18,32765
0.788461,-0.412732,-0.00900879,17,32765
0.769406,-0.406008,-0.00849344,17,32765
0.829829,-0.441481,-0.00883946,17,32765
0.801863,-0.430178,-0.00789132,16,32765
0.800439,-0.43283,-0.0074785,16,32765
0.807747,-0.440332,-0.00721727,17,32765
0.762454,-0.418953,-0.00651109,17,32765
0.778545,-0.431193,-0.00633912,19,32765
0.759632,-0.424057,-0.00590653,18,32765
0.766929,-0.431494,-0.00570101,18,32765
0.774194,-0.43897,-0.00543411,19,32765
0.772713,-0.441575,-0.00514654,18,32765
0.779907,-0.449133,-0.00492094,19,32765
0.752465,-0.436665,-0.00444256,19,32765
0.785532,-0.45937,-0.00439837,19,32765
0.732309,-0.43152,-0.00379194,18,32765
0.756662,-0.449277,-0.00358472,19,32765
0.712251,-0.426132,-0.0031507,18,32765
0.736512,-0.444006,-0.00296966,18,32765
0.735012,-0.446486,-0.0026763,19,32765
0.707952,-0.433241,-0.00234659,18,32765
0.732059,-0.451315,-0.00211,18,32765
0.705077,-0.437908,-0.00185688,19,32765
0.703655,-0.440191,-0.00155968,19,32765
0.727579,-0.458506,-0.0013539,18,32765
0.726076,-0.460883,-0.0010654,19,32765
0.724555,-0.463271,-0.000887605,18,32765
0.697801,-0.449415,-0.000572486,19,32765
0.713103,-0.462584,-0.00032689,19,32765
0.711568,-0.464942,-7.87012e-05,19,32765
0.726748,-0.478265,0.000125396,19,32765
0.700162,-0.464083,0.000382973,19,32765
0.715276,-0.477472,0.000602973,19,32765
0.705409,-0.474233,0.000815758,19,32765
0.695572,-0.470934,0.000996981,19,32765
0.702304,-0.478818,0.00129268,19,32765
0.676018,-0.46411,0.0014475,20,32765
0.690968,-0.477662,0.00160813,19,32765
0.714053,-0.497016,0.00188247,19,32765
0.696055,-0.487856,0.00199151,19,32765
0.686303,-0.484338,0.00218501,19,32765
0.668421,-0.474982,0.0022473,19,32765
0.675039,-0.482925,0.00243626,18,32765
0.673512,-0.485052,0.00258267,19,32765
0.680007,-0.493136,0.00266624,19,32765
0.686477,-0.50124,0.00281858,19,32765
1.04108,-0.321308,-0.0316864,19,32765
1.04002,-0.324702,-0.0318947,19,32765
1.03895,-0.328094,-0.0321672,19,32765
1.00932,-0.322342,-0.0312625,18,32765
1.01776,-0.328735,-0.0317054,18,32765
1.01666,-0.3321,-0.0317331,18,32765
0.987082,-0.326053,-0.030978,18,32765
1.00494,-0.335692,-0.0316332,19,32765
1.01331,-0.342189,-0.0317954,19,32765
0.993253,-0.339074,-0.0312559,19,32765
1.0205,-0.352071,-0.0320309,19,32765
0.991027,-0.345529,-0.0312217,18,32765
0.980457,-0.345494,-0.0306273,18,32765
0.99812,-0.355506,-0.0311805,19,32765
0.968695,-0.348734,-0.0302374,18,32765
0.976912,-0.355412,-0.0304007,19,32765
0.966354,-0.35519,-0.0300041,19,32765
0.946438,-0.35142,-0.0293134,19,32765
0.917203,-0.344001,-0.0283246,18,32765
0.953438,-0.361239,-0.0293657,19,32765
0.933557,-0.357286,-0.0286062,18,32765
0.941672,-0.364038,-0.0288007,18,32765
0.903205,-0.352661,-0.0274072,18,32765
0.92063,-0.362999,-0.0277954,18,32765
0.910132,-0.362368,-0.0273779,17,32765
0.918207,-0.369116,-0.0273648,16,32765
0.879917,-0.357157,-0.0261581,15,32765
1.04522,-0.428334,-0.0308393,12,32765
1.06226,-0.439482,-0.0311256,12,32765
1.10687,-0.46238,-0.0323012,13,32765
1.07767,-0.454485,-0.0312035,12,32765
0.8002,-0.340665,-0.0229697,14,32765
0.872536,-0.374917,-0.0248525,20,32765
0.862117,-0.373843,-0.0244176,18,32765
0.870021,-0.380741,-0.024476,19,32765
0.8596,-0.379629,-0.0238629,18,32765
0.876572,-0.390691,-0.0241457,18,32765
0.875246,-0.393672,-0.0238005,18,32765
0.855714,-0.388365,-0.0229416,19,32765
0.845306,-0.387108,-0.0224983,19,32765
0.83493,-0.385763,-0.0218927,18,32765
0.842707,-0.39276,-0.0220057,19,32765
0.832345,-0.391331,-0.0214704,18,32765
0.867157,-0.411274,-0.0221715,18,32765
0.856744,-0.409908,-0.0215714,19,32765
0.837356,-0.404103,-0.0208634,18,32765
0.809051,-0.393752,-0.019908,19,32765
0.825674,-0.405279,-0.0202879,19,32765
0.833276,-0.412489,-0.0201043,19,32765
0.81398,-0.406394,-0.0194895,19,32765
0.821517,-0.413683,-0.0194271,19,32765
0.829026,-0.421007,-0.019196,19,32765
0.818684,-0.419298,-0.0186048,19,32765
0.808386,-0.41747,-0.0181873,19,32765
0.806979,-0.420194,-0.0179308,19,32765
0.814417,-0.427556,-0.0179208,19,32765
0.777652,-0.411552,-0.0168244,19,32765
0.793903,-0.423596,-0.016883,19,32765
0.792436,-0.426358,-0.0162237,19,32765
0.764658,-0.414686,-0.0152875,18,32765
0.789567,-0.431677,-0.015478,19,32765
0.805635,-0.443973,-0.0154891,19,32765
0.795406,-0.44182,-0.0149911,19,32765
0.77647,-0.434727,-0.0143639,18,32765
0.766308,-0.43241,-0.0139283,18,32765
0.76487,-0.434959,-0.0135996,18,32765
0.763402,-0.437539,-0.0133144,17,32765
0.753285,-0.435082,-0.0128883,17,32765
0.760478,-0.44262,-0.0127176,16,32765
0.776244,-0.455283,-0.01276,16,32765
0.748902,-0.442607,-0.01201,15,32765
0.756014,-0.450226,-0.0118062,15,32765
0.720209,-0.432176,-0.0110356,15,32765
0.744427,-0.450116,-0.0111305,16,32765
0.751444,-0.457833,-0.0109573,18,32765
0.715846,-0.439385,-0.0102192,18,32765
0.731405,-0.452266,-0.0101403,19,32765
0.738389,-0.459978,-0.0100691,19,32765
0.728425,-0.457061,-0.00964456,19,32765
0.743816,-0.470155,-0.00959968,19,32765
0.733839,-0.467221,-0.00919786,19,32765
0.723878,-0.464243,-0.00891337,18,32765
0.722341,-0.466636,-0.00861805,18,32765
0.712425,-0.463554,-0.00825754,19,32765
0.727612,-0.476879,-0.00819685,19,32765
0.717698,-0.473758,-0.00789808,18,32765
0.732786,-0.4872,-0.00780643,19,32765
0.71457,-0.478471,-0.00741714,19,32765
0.721288,-0.486406,-0.00727743,19,32765
0.703144,-0.477535,-0.00691604,19,32765
0.701592,-0.479817,-0.0066313,19,32765
0.700033,-0.482092,-0.00642254,19,32765
0.714904,-0.495752,-0.00644277,19,32765
0.721506,-0.503775,-0.00629641,19,32765
0.68714,-0.48312,-0.00585863,19,32765
0.685571,-0.485345,-0.00564071,19,32765
0.683986,-0.487578,-0.00552252,19,32765
0.66618,-0.478098,-0.00523042,19,32765
0.688982,-0.497771,-0.00527079,19,32765
0.671164,-0.488276,-0.00509376,19,32765
0.685704,-0.502278,-0.00509477,19,32765
1.01257,-0.310263,-0.0451959,18,32765
1.03064,-0.319538,-0.0454702,17,32765
1.02964,-0.322824,-0.0449615,18,32765
1.01911,-0.323093,-0.043995,18,32765
1.01805,-0.326452,-0.0435118,18,32765
1.00747,-0.326783,-0.0426635,18,32765
0.996904,-0.327013,-0.0417716,18,32765
0.986354,-0.327145,-0.0410014,19,32765
1.00426,-0.336691,-0.0413272,18,32765
1.01263,-0.34318,-0.0413726,18,32765
0.973709,-0.333521,-0.0394338,18,32765
0.972611,-0.336747,-0.0390946,18,32765
0.980914,-0.343334,-0.0391006,18,32765
0.97976,-0.346679,-0.0385289,18,32765
0.959755,-0.343305,-0.0375618,18,32765
0.939819,-0.339729,-0.036392,18,32765
0.976235,-0.356598,-0.0374481,18,32765
0.946922,-0.349474,-0.0361466,18,32765
0.945778,-0.352604,-0.0356954,18,32765
0.9446,-0.355782,-0.0353485,18,32765
0.94341,-0.358954,-0.0350658,19,32765
0.970193,-0.372889,-0.0357522,18,32765
0.922372,-0.358036,-0.0337553,18,32765
0.893272,-0.350165,-0.0324075,18,32765
0.957157,-0.378898,-0.0344452,18,32765
0.900205,-0.359863,-0.032075,18,32765
0.898988,-0.362923,-0.0317516,17,32765
0.999571,-0.407474,-0.0349631,14,32765
1.01669,-0.418442,-0.0353361,12,32765
1.07064,-0.444924,-0.036904,13,32765
1.15211,-0.483323,-0.0393003,13,32765
0.846755,-0.358587,-0.02867,13,32765
0.882288,-0.377214,-0.0296175,18,32765
0.871838,-0.376242,-0.0289916,18,32765
0.888887,-0.387197,-0.0292954,18,32765
0.860139,-0.37812,-0.0280438,18,32765
0.831459,-0.368854,-0.0268689,18,32765
0.857587,-0.383914,-0.0274842,18,32765
0.819866,-0.370315,-0.0261922,18,32765
0.87319,-0.397966,-0.0276072,18,32765
0.835524,-0.384212,-0.0260693,18,32765
0.861435,-0.399651,-0.02661,18,32765
0.860077,-0.402586,-0.0263301,18,32765
0.840627,-0.396983,-0.0255002,18,32765
0.81221,-0.386938,-0.0243556,19,32765
0.828935,-0.398326,-0.0245642,18,32765
0.8096,-0.392404,-0.0237985,19,32765
0.808273,-0.395149,-0.0234801,18,32765
0.789006,-0.38904,-0.0227338,18,32765
0.814533,-0.405089,-0.0232075,18,32765
0.795302,-0.398863,-0.022425,18,32765
0.793958,-0.40155,-0.0220962,18,32765
0.810409,-0.413325,-0.0223348,18,32765
0.77345,-0.397782,-0.0210788,19,32765
0.816474,-0.42342,-0.0220387,18,32765
0.80621,-0.421504,-0.0214306,19,32765
0.760577,-0.400908,-0.0198971,19,32765
0.776897,-0.412825,-0.0201426,18,32765
0.793157,-0.424843,-0.020283,19,32765
0.774139,-0.418004,-0.0195278,18,32765
0.772744,-0.42059,-0.0192418,18,32765
0.771329,-0.423198,-0.0188628,18,32765
0.796149,-0.440318,-0.0191641,19,32765
0.750992,-0.41868,-0.0178532,18,32765
0.749581,-0.421215,-0.0174986,18,32765
0.748183,-0.423708,-0.0171303,18,32765
0.764147,-0.436102,-0.0171813,18,32765
0.762696,-0.438645,-0.0168795,18,32765
0.735292,-0.426134,-0.0159851,17,32765
0.733863,-0.428602,-0.0156798,17,32765
0.732445,-0.431036,-0.015256,16,32765
0.756806,-0.448784,-0.0154203,15,32765
0.80683,-0.482044,-0.0161102,14,32765
0.813826,-0.489832,-0.0158655,15,32765
0.743823,-0.451029,-0.014157,16,32765
0.708218,-0.432614,-0.013149,17,32765
0.715291,-0.440217,-0.0129259,18,32765
0.713843,-0.442573,-0.0125622,19,32765
0.720862,-0.450228,-0.0123279,18,32765
0.710909,-0.447291,-0.0118175,18,32765
0.726336,-0.460327,-0.0116523,19,32765
0.707968,-0.451952,-0.0109914,20,32765
0.723319,-0.465073,-0.0108017,18,32765
0.705009,-0.456573,-0.0101499,18,32765
0.703513,-0.458884,-0.00975183,19,32765
0.710367,-0.466681,-0.00939068,19,32765
0.683807,-0.452475,-0.00862443,19,32765
0.690634,-0.460279,-0.00828047,19,32765
0.697424,-0.46812,-0.00791404,19,32765
0.687588,-0.464832,-0.00735749,19,32765
0.694344,-0.472692,-0.00699575,19,32765
0.692791,-0.474972,-0.00649723,19,32765
0.69124,-0.477232,-0.00600166,19,32765
0.673281,-0.468042,-0.00537327,19,32765
0.663542,-0.464531,-0.0047938,19,32765
0.694731,-0.489723,-0.00454814,19,32765
0.676828,-0.480405,-0.00387895,19,32765
0.667177,-0.476722,-0.00328432,19,32765
0.689979,-0.496407,-0.00283826,18,32765
0.680203,-0.492868,-0.00215158,19,32765
0.670505,-0.489204,-0.00144309,19,32765
1.04049,-0.319784,-0.0567046,19,32765
1.02038,-0.317311,-0.0550907,18,32765
1.03844,-0.326565,-0.0556066,18,32765
1.0279,-0.326863,-0.0545408,18,32765
1.00783,-0.324143,-0.0530515,18,32765
1.02575,-0.333711,-0.053602,18,32765
1.00568,-0.330881,-0.0521149,18,32765
1.01408,-0.33735,-0.0522228,19,32765
1.02248,-0.343825,-0.052239,19,32765
0.983533,-0.334315,-0.0499688,18,32765
0.991904,-0.340767,-0.0500489,19,32765
0.990783,-0.344063,-0.0497025,19,32765
0.999055,-0.350727,-0.0497945,18,32765
0.979051,-0.34746,-0.0482828,19,32765
0.977862,-0.350824,-0.0480514,19,32765
0.967307,-0.350707,-0.0471426,18,32765
0.96614,-0.353961,-0.0467462,19,32765
0.946224,-0.350257,-0.0456165,18,32765
0.963794,-0.360389,-0.0460591,19,32765
0.953244,-0.360106,-0.045261,19,32765
0.961373,-0.366877,-0.0454157,19,32765
0.941501,-0.362938,-0.0441882,19,32765
0.930987,-0.362456,-0.0434692,19,32765
0.901893,-0.354597,-0.0418362,16,32765
0.947143,-0.37605,-0.0436698,14,32765
0.945884,-0.379249,-0.0432867,13,32765
1.12056,-0.453717,-0.0509456,12,32765
1.18376,-0.483996,-0.0534307,12,32765
0.93278,-0.385052,-0.0419074,14,32765
0.876136,-0.365179,-0.0391227,19,32765
0.902544,-0.379757,-0.0399914,19,32765
0.864479,-0.367186,-0.0380978,18,32765
0.854037,-0.366226,-0.037402,18,32765
0.861971,-0.373095,-0.0374895,18,32765
0.84239,-0.36804,-0.0364004,18,32765
0.868587,-0.382976,-0.0372374,18,32765
0.876431,-0.389969,-0.0373333,17,32765
0.838653,-0.376563,-0.0355123,16,32765
0.8647,-0.391738,-0.0365401,16,32765
0.863377,-0.394675,-0.0362116,16,32765
0.798531,-0.368304,-0.033172,15,32765
0.806352,-0.375221,-0.0332584,15,32765
0.79603,-0.373728,-0.0326247,16,32765
0.82185,-0.389285,-0.0334664,17,32765
0.829549,-0.39639,-0.0335043,18,32765
0.837224,-0.403524,-0.0335315,19,32765
0.835862,-0.406358,-0.0332912,18,32765
0.852434,-0.417999,-0.0336703,19,32765
0.824146,-0.407598,-0.0323714,18,32765
0.822756,-0.41042,-0.0320659,19,32765
0.81245,-0.408701,-0.0314381,19,32765
0.811073,-0.411453,-0.0311011,19,32765
0.818576,-0.418761,-0.0311812,19,32765
0.808276,-0.41696,-0.0305546,19,32765
0.806861,-0.419711,-0.0303049,19,32765
0.787766,-0.41312,-0.0292776,18,32765
0.795216,-0.420449,-0.0292333,19,32765
0.784993,-0.418405,-0.0286879,19,32765
0.783607,-0.421016,-0.0283732,19,32765
0.790985,-0.428412,-0.0283798,19,32765
0.763236,-0.416693,-0.0271502,18,32765
0.779347,-0.428914,-0.0273903,18,32765
0.777901,-0.431553,-0.0270552,18,32765
0.758987,-0.424445,-0.0261854,18,32765
0.766264,-0.431923,-0.0261227,19,32765
0.764831,-0.434478,-0.0257451,18,32765
0.754716,-0.432056,-0.0251083,18,32765
0.770596,-0.444565,-0.0253794,19,32765
0.777764,-0.452152,-0.025326,19,32765
0.776247,-0.454769,-0.0250018,20,32765
0.748919,-0.442106,-0.0237339,19,32765
0.764625,-0.454838,-0.0239003,19,32765
0.74598,-0.447084,-0.0230278,19,32765
0.753081,-0.454691,-0.0229063,19,32765
0.75159,-0.45717,-0.0225287,19,32765
0.733048,-0.44919,-0.0216458,18,32765
0.740058,-0.456894,-0.0215016,18,32765
0.721576,-0.448779,-0.0206384,18,32765
0.720094,-0.451169,-0.0202538,18,32765
0.718601,-0.453561,-0.0198832,17,32765
0.725553,-0.461288,-0.0196699,15,32765
0.715619,-0.458287,-0.0190457,15,32765
0.739333,-0.476881,-0.0192553,15,32765
0.662317,-0.43029,-0.0169085,15,32765
0.719469,-0.470788,-0.0179984,16,32765
0.701231,-0.46215,-0.0171074,17,32765
0.699704,-0.464475,-0.0166612,18,32765
0.698171,-0.466792,-0.0162059,19,32765
0.721518,-0.485845,-0.0163011,19,32765
0.711633,-0.482632,-0.0156339,19,32765
0.701809,-0.479311,-0.0149955,19,32765
0.700236,-0.481622,-0.0144903,19,32765
0.690445,-0.478221,-0.0138235,19,32765
0.697106,-0.48617,-0.0134841,19,32765
0.711865,-0.499973,-0.0132486,19,32765
0.685755,-0.484962,-0.0123143,18,32765
0.692324,-0.492998,-0.0118845,19,32765
0.674518,-0.483533,-0.0110496,18,32765
0.689163,-0.497432,-0.0107489,19,32765
0.663219,-0.482126,-0.00973117,19,32765
0.685844,-0.502026,-0.00938725,19,32765
1.02177,-0.313447,-0.0513303,17,32765
1.03028,-0.319727,-0.0519643,18,32765
1.05781,-0.33206,-0.0535409,19,32765
0.980563,-0.311306,-0.0498465,17,32765
1.01757,-0.326741,-0.0519085,18,32765
1.007,-0.326988,-0.0513718,18,32765
0.996421,-0.327194,-0.0508902,18,32765
1.01427,-0.336838,-0.0519003,18,32765
0.975281,-0.327462,-0.0499596,18,32765
0.993123,-0.337067,-0.0509117,18,32765
0.992024,-0.340295,-0.0508625,18,32765
1.00035,-0.346817,-0.0512286,18,32765
0.970878,-0.340317,-0.0498128,19,32765
0.979125,-0.346979,-0.0501972,19,32765
0.996753,-0.357046,-0.0510049,19,32765
0.98616,-0.356999,-0.0503959,18,32765
0.98498,-0.36026,-0.0502762,19,32765
0.965044,-0.356601,-0.0492603,19,32765
0.991948,-0.370251,-0.0505305,19,32765
0.962687,-0.362956,-0.0489625,19,32765
0.924129,-0.351971,-0.0469164,18,32765
0.960252,-0.369388,-0.048673,19,32765
0.949704,-0.368993,-0.0480343,19,32765
1.01356,-0.397725,-0.0510485,14,32765
1.07723,-0.426907,-0.0541352,12,32765
0,-0,-0,0,32765
0,-0,-0,0,32765
0,-0,-0,0,32765
0.951347,-0.391933,-0.0472052,14,32765
0.876237,-0.364465,-0.0432837,18,32765
0.875003,-0.367445,-0.043059,19,32765
0.901385,-0.382045,-0.044107,18,32765
0.909274,-0.389035,-0.0444217,19,32765
0.898809,-0.388128,-0.0435889,18,32765
0.860855,-0.375226,-0.0416414,18,32765
0.877875,-0.386203,-0.0422135,19,32765
0.867444,-0.385122,-0.0414967,18,32765
0.87525,-0.392175,-0.0416595,18,32765
0.828424,-0.374533,-0.0392277,17,32765
0.827166,-0.377322,-0.0390344,17,32765
0.807772,-0.371713,-0.0378623,16,32765
0.84279,-0.391235,-0.0392504,15,32765
0.850531,-0.398304,-0.039385,15,32765
0.831141,-0.392613,-0.0382106,16,32765
0.829837,-0.395393,-0.0378799,16,32765
0.810499,-0.389532,-0.0368363,17,32765
0.827176,-0.400977,-0.0373787,18,32765
0.825813,-0.403813,-0.0369904,17,32765
0.842357,-0.415494,-0.0374015,18,32765
0.796205,-0.396135,-0.0351472,18,32765
0.785934,-0.394369,-0.0343773,18,32765
0.80244,-0.406049,-0.0348379,18,32765
0.774352,-0.395172,-0.033444,19,32765
0.773025,-0.39779,-0.0330949,19,32765
0.807162,-0.418822,-0.0343136,19,32765
0.752639,-0.393736,-0.0317271,18,32765
0.786683,-0.414909,-0.032867,18,32765
0.767629,-0.408207,-0.0318281,19,32765
0.783884,-0.420225,-0.0321922,18,32765
0.800071,-0.43235,-0.0325405,18,32765
0.781081,-0.425462,-0.0315404,19,32765
0.753388,-0.413641,-0.0301194,18,32765
0.769487,-0.425859,-0.030569,18,32765
0.759334,-0.42358,-0.029869,17,32765
0.784052,-0.440828,-0.0305413,18,32765
0.756506,-0.428659,-0.0291545,19,32765
0.77246,-0.441069,-0.0294038,18,32765
0.736321,-0.423739,-0.0278526,18,32765
0.752202,-0.43623,-0.028196,20,32765
0.750735,-0.438769,-0.027906,19,32765
0.749271,-0.441287,-0.0275431,19,32765
0.739202,-0.438701,-0.0268794,19,32765
0.754883,-0.451451,-0.027259,19,32765
0.744818,-0.448819,-0.0266012,19,32765
0.717704,-0.435722,-0.0254539,19,32765
0.724807,-0.443298,-0.0253455,19,32765
0.748891,-0.461395,-0.0260316,19,32765
0.704905,-0.437515,-0.0242821,18,32765
0.73737,-0.461041,-0.0250468,18,32765
0.701984,-0.44222,-0.023659,18,32765
0.708955,-0.449914,-0.0236563,17,32765
0.699067,-0.446849,-0.0230526,16,32765
0.748015,-0.481637,-0.0244736,15,32765
0.763224,-0.494952,-0.0247162,15,32765
0.769964,-0.502938,-0.0246833,15,32765
0.709852,-0.467015,-0.0225049,15,32765
0.758303,-0.502502,-0.0238416,16,32765
0.70674,-0.471733,-0.0220499,17,32765
0.705194,-0.474055,-0.0217599,18,32765
0.687078,-0.46517,-0.0209733,19,32765
0.685576,-0.467396,-0.020646,19,32765
0.684091,-0.469575,-0.0204492,19,32765
0.690798,-0.47747,-0.0204995,19,32765
0.681036,-0.474011,-0.0200995,19,32765
0.679459,-0.476281,-0.0198164,19,32765
0.686048,-0.484301,-0.0197727,19,32765
0.651893,-0.463344,-0.0186691,19,32765
0.674794,-0.482891,-0.0192331,18,32765
0.681381,-0.490866,-0.0192591,19,32765
0.671721,-0.487167,-0.0189407,19,32765
0.670162,-0.489317,-0.0187388,19,32765
1.02099,-0.314178,-0.0613675,18,32765
1.02949,-0.320471,-0.0620943,18,32765
1.05699,-0.332831,-0.0639513,19,32765
1.03687,-0.330204,-0.0629719,18,32765
1.05477,-0.33974,-0.0642573,19,32765
1.02518,-0.333927,-0.0624672,19,32765
0.967175,-0.318578,-0.0589989,18,32765
1.04186,-0.347079,-0.0636672,19,32765
1.02179,-0.344147,-0.0625081,19,32765
0.992307,-0.337839,-0.0607529,19,32765
0.991203,-0.341073,-0.0607028,18,32765
0.990084,-0.344329,-0.0605848,18,32765
0.97948,-0.344404,-0.0600413,18,32765
0.959483,-0.341081,-0.0587883,17,32765
0.986509,-0.354481,-0.0603605,17,32765
0.947779,-0.344176,-0.0579372,16,32765
0.946639,-0.347319,-0.0578212,16,32765
0.936121,-0.346996,-0.0571912,17,32765
0.953681,-0.357082,-0.0581759,18,32765
0.952501,-0.360241,-0.0580385,18,32765
0.941963,-0.359888,-0.057321,18,32765
0.940766,-0.363027,-0.0571839,18,32765
0.948851,-0.369818,-0.057583,19,32765
0.947615,-0.373014,-0.057318,19,32765
0.937079,-0.372532,-0.0565884,14,32765
0,-0,-0,0,32765
0,-0,-0,0,32765
0,-0,-0,0,32765
0.858184,-0.354664,-0.0513236,15,32765
0.875417,-0.365271,-0.0521715,18,32765
0.864977,-0.364379,-0.0513991,18,32765
0.882155,-0.375073,-0.0521866,19,32765
0.908407,-0.389891,-0.0536811,19,32765
0.897948,-0.38898,-0.0527541,18,32765
0.878324,-0.38405,-0.0515046,18,32765
0.877025,-0.387049,-0.0511899,19,32765
0.857477,-0.381901,-0.0498485,18,32765
0.874393,-0.393031,-0.0506342,18,32765
0.845797,-0.383599,-0.0487833,19,32765
0.87175,-0.39892,-0.0501521,19,32765
0.843235,-0.389263,-0.0482558,19,32765
0.850999,-0.396299,-0.0484569,19,32765
0.858713,-0.403413,-0.0486811,19,32765
0.839324,-0.397739,-0.0473154,19,32765
0.838003,-0.400555,-0.0469803,19,32765
0.809668,-0.390372,-0.0452438,18,32765
0.826324,-0.401841,-0.0459722,19,32765
0.807024,-0.395884,-0.0445922,19,32765
0.832528,-0.411957,-0.045689,19,32765
0.813244,-0.405906,-0.0444347,19,32765
0.794028,-0.399705,-0.0430781,17,32765
0.810497,-0.411439,-0.0437211,17,32765
0.817982,-0.418776,-0.0439546,16,32765
0.798824,-0.412385,-0.0426371,17,32765
0.797432,-0.415103,-0.0423366,17,32765
0.804893,-0.422427,-0.0424593,18,32765
0.785826,-0.415791,-0.0411722,19,32765
0.784415,-0.418478,-0.0408641,19,32765
0.765424,-0.411653,-0.0395857,18,32765
0.790403,-0.428505,-0.0405789,19,32765
0.78021,-0.426363,-0.0398422,19,32765
0.761294,-0.419335,-0.0385841,18,32765
0.768618,-0.426758,-0.0387758,18,32765
0.76719,-0.429352,-0.0384182,19,32765
0.765754,-0.43194,-0.0380677,18,32765
0.773009,-0.439436,-0.0381222,19,32765
0.762899,-0.43703,-0.0372769,19,32765
0.770076,-0.444611,-0.0374591,19,32765
0.777231,-0.452219,-0.0375563,19,32765
0.767089,-0.449796,-0.0368414,19,32765
0.756986,-0.447294,-0.0360595,20,32765
0.755492,-0.449841,-0.0357034,19,32765
0.762546,-0.457535,-0.0358598,19,32765
0.761021,-0.460094,-0.0355029,19,32765
0.750966,-0.457422,-0.034862,19,32765
0.732438,-0.449446,-0.0336526,19,32765
0.756468,-0.467608,-0.0346147,20,32765
0.746443,-0.464834,-0.033938,19,32765
0.736451,-0.461997,-0.033146,19,32765
0.743338,-0.469832,-0.0332755,19,32765
0.733347,-0.466947,-0.0325983,19,32765
0.723413,-0.463958,-0.031889,19,32765
0.721874,-0.466364,-0.0316508,19,32765
0.720358,-0.468722,-0.0313593,19,32765
0.73553,-0.482063,-0.0317963,19,32765
0.742284,-0.49,-0.0318421,19,32765
0.732337,-0.486936,-0.0312397,19,32765
0.705801,-0.472703,-0.0299539,19,32765
0.720821,-0.486205,-0.0303609,19,32765
0.702686,-0.477357,-0.0293806,18,32765
0.717641,-0.490925,-0.0297279,19,32765
0.691387,-0.476206,-0.0285026,18,32765
0.681633,-0.472751,-0.0279684,17,32765
0.655508,-0.457811,-0.0268061,16,32765
0.670332,-0.471503,-0.0271955,15,32765
0.693236,-0.491065,-0.0279036,15,32765
0.66724,-0.475895,-0.0267514,15,32765
0.657589,-0.472213,-0.0262912,16,32765
0.672296,-0.486008,-0.026736,16,32765
0.654579,-0.476393,-0.0260036,17,32765
0.669176,-0.49031,-0.0264426,18,32765
1.04934,-0.32058,-0.0782116,18,32765
1.00066,-0.309359,-0.0739735,18,32765
0.999649,-0.312762,-0.0733637,18,32765
1.00814,-0.319123,-0.0735621,17,32765
0.997622,-0.319423,-0.0722433,17,32765
0.996594,-0.322706,-0.0718425,18,32765
1.01453,-0.332173,-0.0726955,18,32765
1.00399,-0.33241,-0.0715395,18,32765
0.983973,-0.329433,-0.0697952,18,32765
0.973436,-0.329553,-0.0686865,19,32765
0.991246,-0.339258,-0.0695426,18,32765
0.999581,-0.345771,-0.0698533,18,32765
0.998452,-0.349112,-0.0693842,19,32765
0.959673,-0.339133,-0.0664576,18,32765
0.949149,-0.339034,-0.0653669,18,32765
0.948012,-0.342261,-0.0650372,16,32765
0.974998,-0.355736,-0.0665566,15,32765
1.0019,-0.369413,-0.0681089,15,32765
0.981971,-0.365812,-0.0664467,15,32765
0.980755,-0.369123,-0.0660855,16,32765
0.942214,-0.358231,-0.0632706,17,32765
0.969001,-0.37209,-0.064705,18,32765
0.949159,-0.368121,-0.0631164,18,32765
0.947935,-0.371303,-0.0628664,18,32765
0.918853,-0.363497,-0.0606626,17,32765
1.17717,-0.470285,-0.0774679,11,32765
1.15709,-0.466792,-0.0757476,12,32765
0,-0,-0,0,32765
0.913952,-0.375856,-0.0593608,14,32765
0.894245,-0.371316,-0.0578851,18,32765
0.902211,-0.378205,-0.0581078,18,32765
0.873354,-0.369615,-0.0560044,19,32765
0.872119,-0.372555,-0.0557827,18,32765
0.843378,-0.363645,-0.0536336,18,32765
0.842147,-0.366522,-0.0533904,18,32765
0.859183,-0.37743,-0.0543174,18,32765
0.88529,-0.392499,-0.0557309,18,32765
0.883942,-0.395564,-0.0554557,19,32765
0.818917,-0.36981,-0.0511412,19,32765
0.872173,-0.397451,-0.0542815,19,32765
0.861777,-0.396219,-0.0533867,18,32765
0.851409,-0.394902,-0.0524856,19,32765
0.832,-0.389304,-0.0511752,18,32765
0.803619,-0.379311,-0.0491931,18,32765
0.838378,-0.399256,-0.0511656,18,32765
0.837021,-0.402131,-0.0508656,18,32765
0.826668,-0.400654,-0.0499675,18,32765
0.825311,-0.403481,-0.0496539,19,32765
0.815008,-0.401846,-0.0487928,18,32765
0.831534,-0.413506,-0.0496407,19,32765
0.803372,-0.402877,-0.047785,19,32765
0.837654,-0.423656,-0.049517,18,32765
0.756144,-0.385702,-0.0445037,17,32765
0.790363,-0.406554,-0.0462634,17,32765
0.81559,-0.423032,-0.0475085,17,32765
0.787642,-0.411867,-0.0456663,17,32765
0.795114,-0.419159,-0.0458287,17,32765
0.793698,-0.421862,-0.0455596,17,32765
0.774679,-0.415111,-0.044221,18,32765
0.799663,-0.43195,-0.0453617,18,32765
0.771921,-0.420283,-0.043592,18,32765
0.735541,-0.403585,-0.0412204,18,32765
0.777924,-0.430184,-0.0433179,18,32765
0.759052,-0.423052,-0.0420373,18,32765
0.757617,-0.42565,-0.0417025,19,32765
0.756186,-0.428226,-0.0412913,18,32765
0.746096,-0.425804,-0.0403969,17,32765
0.753323,-0.433311,-0.0405796,19,32765
0.734614,-0.425793,-0.0392783,19,32765
0.77632,-0.453458,-0.0412677,19,32765
0.757593,-0.445939,-0.0398911,19,32765
0.764695,-0.453592,-0.039956,18,32765
0.763182,-0.456174,-0.0394825,19,32765
0.744566,-0.448397,-0.0382219,19,32765
0.726016,-0.440486,-0.0370497,19,32765
0.758699,-0.46369,-0.038319,19,32765
0.74017,-0.455717,-0.0370171,19,32765
0.730177,-0.45292,-0.036122,19,32765
0.728687,-0.455341,-0.0357692,19,32765
0.735642,-0.463093,-0.0357323,19,32765
0.717272,-0.45479,-0.0344569,18,32765
0.707376,-0.451761,-0.0336372,19,32765
0.722709,-0.464911,-0.0339007,19,32765
0.712821,-0.461839,-0.0330422,19,32765
0.719675,-0.469655,-0.0330383,19,32765
0.7098,-0.466529,-0.032168,19,32765
0.724947,-0.4799,-0.032381,19,32765
0.723364,-0.482315,-0.0318891,19,32765
0.705196,-0.47356,-0.0306506,19,32765
0.678811,-0.459095,-0.0291177,18,32765
0.669072,-0.455676,-0.0283175,18,32765
0.667611,-0.45785,-0.0277338,17,32765
0.666112,-0.460055,-0.0272756,15,32765
0.730284,-0.507862,-0.0293345,15,32765
0.687714,-0.481572,-0.0271773,15,32765
0.661645,-0.466547,-0.0256888,17,32765
0.635677,-0.451365,-0.0241554,18,32765
0.6911,-0.494188,-0.025673,19,32765
0.657029,-0.473121,-0.0238701,19,32765
0.655502,-0.475266,-0.0232353,19,32765
0.654022,-0.477332,-0.0225732,19,32765
1.03875,-0.318429,-0.0877014,19,32765
1.02822,-0.318959,-0.086194,18,32765
1.02718,-0.322465,-0.0855664,18,32765
1.02613,-0.325917,-0.0850562,18,32765
1.02509,-0.329328,-0.0844133,19,32765
1.01455,-0.32963,-0.0832226,18,32765
1.01351,-0.332955,-0.0827068,18,32765
1.02189,-0.339476,-0.0829936,19,32765
1.00188,-0.336554,-0.081054,19,32765
1.01021,-0.34315,-0.0813635,19,32765
1.01853,-0.349763,-0.0816321,19,32765
0.97972,-0.340034,-0.0782631,18,32765
0.997431,-0.349919,-0.0792985,19,32765
0.977485,-0.34658,-0.0774872,18,32765
0.95756,-0.343179,-0.075553,18,32765
0.975163,-0.353236,-0.0766943,18,32765
1.00208,-0.366836,-0.0784816,18,32765
0.963439,-0.356415,-0.0751932,18,32765
0.943577,-0.352678,-0.0733581,18,32765
0.951736,-0.359391,-0.0737328,18,32765
0.950542,-0.362599,-0.0734317,18,32765
0.967978,-0.372932,-0.0744261,18,32765
0.929563,-0.361718,-0.0712252,17,32765
0.993345,-0.390382,-0.0759478,16,32765
1.20529,-0.478392,-0.0918063,12,32765
1.12035,-0.449072,-0.0851143,12,32765
1.09112,-0.441638,-0.0825309,12,32765
0,-0,-0,0,32765
0.894515,-0.369084,-0.0672231,17,32765
0.902477,-0.375979,-0.0676359,19,32765
0.901222,-0.379045,-0.0672611,19,32765
0.927492,-0.39383,-0.0689743,19,32765
0.880323,-0.377309,-0.0653347,19,32765
0.869912,-0.376331,-0.0642533,19,32765
0.87778,-0.3833,-0.064675,18,32765
0.867348,-0.382284,-0.0637643,18,32765
0.875175,-0.389305,-0.0641179,19,32765
0.855632,-0.38417,-0.0625146,19,32765
0.872515,-0.395327,-0.0635104,19,32765
0.862099,-0.394169,-0.0625816,19,32765
0.860785,-0.397082,-0.0622514,19,32765
0.859471,-0.399971,-0.0619079,19,32765
0.831031,-0.390149,-0.0597582,19,32765
0.829736,-0.392946,-0.0594335,19,32765
0.846395,-0.404422,-0.0604836,19,32765
0.827041,-0.398666,-0.0588991,19,32765
0.83466,-0.405882,-0.0591834,19,32765
0.851204,-0.417535,-0.0601315,19,32765
0.849811,-0.420411,-0.0597951,19,32765
0.812668,-0.405482,-0.0570568,19,32765
0.811311,-0.408226,-0.0567986,20,32765
0.801029,-0.406496,-0.0557985,19,32765
0.808524,-0.41381,-0.0561261,19,32765
0.807126,-0.416576,-0.0557831,19,32765
0.805723,-0.419325,-0.0554712,19,32765
0.813176,-0.426655,-0.055777,19,32765
0.80294,-0.424715,-0.0548152,19,32765
0.792696,-0.422756,-0.0539429,19,32765
0.800072,-0.430171,-0.054204,19,32765
0.772314,-0.418593,-0.0520615,18,32765
0.76217,-0.416384,-0.0511979,19,32765
0.787064,-0.433324,-0.0525445,19,32765
0.785646,-0.435933,-0.0521836,19,32765
0.758063,-0.423941,-0.050136,17,32765
0.782715,-0.441251,-0.0515176,17,32765
0.746511,-0.424192,-0.0488206,18,32765
0.753774,-0.431657,-0.0489629,17,32765
0.752321,-0.434216,-0.0486748,18,32765
0.742263,-0.431701,-0.0477417,19,32765
0.775276,-0.454404,-0.0496403,19,32765
0.782362,-0.462101,-0.0497158,20,32765
0.755076,-0.449428,-0.0476918,19,32765
0.753577,-0.451986,-0.0472229,19,32765
0.760639,-0.459657,-0.0473767,19,32765
0.759133,-0.46217,-0.0470683,19,32765
0.757648,-0.464649,-0.0465933,19,32765
0.747636,-0.461908,-0.0456231,19,32765
0.737635,-0.459132,-0.0446288,19,32765
0.744586,-0.466891,-0.0447798,19,32765
0.743046,-0.46938,-0.044321,19,32765
0.724681,-0.461087,-0.0428536,19,32765
0.740004,-0.474246,-0.0434152,19,32765
0.721675,-0.465865,-0.0418905,19,32765
0.753666,-0.490009,-0.0433464,19,32765
0.735347,-0.481562,-0.0419805,19,32765
0.733785,-0.483983,-0.0414765,19,32765
0.72389,-0.480881,-0.0404604,19,32765
0.714002,-0.477745,-0.0395083,19,32765
0.712443,-0.480109,-0.0389962,19,32765
0.702605,-0.476861,-0.0380743,19,32765
0.70107,-0.479152,-0.0376064,19,32765
0.715995,-0.492766,-0.0378636,19,32765
0.714382,-0.495138,-0.0373707,18,32765
0.704608,-0.49174,-0.0363269,19,32765
0.694851,-0.488293,-0.0353885,19,32765
0.701422,-0.496351,-0.0352542,19,32765
0.699809,-0.498667,-0.0346119,18,32765
0.698163,-0.501014,-0.0339535,18,32765
0.672221,-0.485783,-0.0321589,17,32765
0.654495,-0.476226,-0.0307487,17,32765
0.669139,-0.490105,-0.0308289,15,32765
1.02016,-0.312093,-0.0822715,18,32765
1.01913,-0.315387,-0.0824671,17,32765
1.02759,-0.321718,-0.0834583,18,32765
1.01701,-0.322082,-0.0827285,18,32765
1.02543,-0.328483,-0.0836323,18,32765
1.00534,-0.325798,-0.0821337,18,32765
1.00425,-0.329119,-0.0821804,18,32765
1.03154,-0.341884,-0.0845078,19,32765
1.00205,-0.335781,-0.0821199,18,32765
1.00095,-0.339069,-0.0820846,18,32765
0.999807,-0.34241,-0.0821064,17,32765
0.970411,-0.335944,-0.0796513,18,32765
0.997497,-0.34913,-0.0819059,18,32765
0.986929,-0.349146,-0.0810503,18,32765
0.957608,-0.34236,-0.0785887,18,32765
0.965839,-0.348944,-0.0793262,18,32765
0.936597,-0.341887,-0.0768073,17,32765
0.963503,-0.35542,-0.0789891,18,32765
0.971654,-0.362177,-0.0794761,18,32765
0.961108,-0.361942,-0.0785465,19,32765
0.950569,-0.361659,-0.0775902,18,32765
0.921445,-0.354118,-0.0751,18,32765
0.957449,-0.371636,-0.0779606,18,32765
0.956214,-0.374868,-0.0776466,17,32765
1.13112,-0.447815,-0.0918103,12,32765
1.00925,-0.403514,-0.0817879,13,32765
0.933936,-0.377028,-0.0755902,13,32765
1.03424,-0.42163,-0.0835042,13,32765
1.00515,-0.413775,-0.0810237,14,32765
0.930072,-0.386624,-0.0747548,16,32765
0.90119,-0.378204,-0.0722353,17,32765
0.909102,-0.385149,-0.0727592,18,32765
0.89865,-0.38431,-0.0716542,19,32765
0.851587,-0.367575,-0.0677447,18,32765
0.886928,-0.386415,-0.0703035,18,32765
0.876503,-0.385417,-0.0692525,19,32765
0.85699,-0.380283,-0.0674722,18,32765
0.855707,-0.38321,-0.0671979,18,32765
0.827146,-0.373807,-0.0647897,18,32765
0.816836,-0.372454,-0.0636891,19,32765
0.851843,-0.391899,-0.0661699,19,32765
0.886739,-0.411553,-0.068684,18,32765
0.885356,-0.414572,-0.0683709,18,32765
0.856911,-0.404804,-0.0658514,18,32765
0.810515,-0.386277,-0.0621005,18,32765
0.836208,-0.401984,-0.0637551,18,32765
0.807961,-0.39172,-0.0612787,19,32765
0.815618,-0.398829,-0.0616618,18,32765
0.814279,-0.401605,-0.0613392,19,32765
0.803976,-0.399982,-0.0603082,19,32765
0.7937,-0.398292,-0.0591931,18,32765
0.79233,-0.401057,-0.0588721,18,32765
0.817638,-0.417388,-0.0604584,19,32765
0.771885,-0.397329,-0.0567735,19,32765
0.797138,-0.413716,-0.058392,19,32765
0.795759,-0.416416,-0.0580165,19,32765
0.78555,-0.414443,-0.0569945,18,32765
0.784166,-0.417099,-0.0566709,19,32765
0.782778,-0.419753,-0.0562672,19,32765
0.798938,-0.43189,-0.0571776,19,32765
0.797505,-0.434591,-0.0567097,19,32765
0.752322,-0.413252,-0.0532468,18,32765
0.750947,-0.415788,-0.0529116,18,32765
0.801854,-0.447513,-0.0562312,18,32765
0.791673,-0.445316,-0.055205,18,32765
0.75545,-0.428303,-0.0524611,17,32765
0.771372,-0.440733,-0.0532914,18,32765
0.74395,-0.428396,-0.0511489,18,32765
0.777076,-0.450918,-0.0531537,19,32765
0.758347,-0.443438,-0.0516909,18,32765
0.76548,-0.451059,-0.0518279,20,32765
0.755393,-0.448534,-0.050981,20,32765
0.72819,-0.435717,-0.0488814,19,32765
0.752393,-0.453628,-0.0502602,19,32765
0.742341,-0.450985,-0.0494127,19,32765
0.723815,-0.443051,-0.0479383,19,32765
0.713867,-0.440208,-0.0470267,18,32765
0.73787,-0.45837,-0.0484192,19,32765
0.719453,-0.450199,-0.0469827,18,32765
0.726429,-0.457893,-0.0472778,19,32765
0.674356,-0.428179,-0.043664,19,32765
0.715032,-0.457291,-0.0459826,18,32765
0.713512,-0.459682,-0.045746,19,32765
0.720377,-0.467479,-0.0460483,19,32765
0.718852,-0.469854,-0.0457101,20,32765
0.700608,-0.461277,-0.0444026,19,32765
0.724062,-0.480155,-0.0456563,19,32765
0.714153,-0.477042,-0.0449055,19,32765
0.687738,-0.462672,-0.0430269,18,32765
0.694475,-0.47056,-0.0433302,19,32765
0.676435,-0.461598,-0.0419875,19,32765
0.683167,-0.469465,-0.0422609,18,32765
0.689843,-0.477392,-0.0425866,19,32765
0.704707,-0.491023,-0.0434034,19,32765
0.678613,-0.47608,-0.0416269,18,32765
0.66892,-0.47252,-0.0408749,18,32765
0.683669,-0.486267,-0.0417297,19,32765
0.690192,-0.494332,-0.0420798,19,32765
0.680492,-0.490734,-0.0413635,19,32765
0.678911,-0.492929,-0.0412487,19,32765
0.653133,-0.477429,-0.0397264,18,32765
1.03812,-0.318696,-0.0940029,18,32765
1.04658,-0.325012,-0.0950651,18,32765
1.02647,-0.322492,-0.0935559,19,32765
1.0349,-0.328889,-0.0944648,18,32765
1.03379,-0.332317,-0.0945954,19,32765
1.02318,-0.332737,-0.0937775,18,32765
1.00314,-0.329901,-0.0920864,18,32765
1.02093,-0.33955,-0.0938244,19,32765
1.01981,-0.342925,-0.0937602,18,32765
0.999814,-0.339869,-0.0919875,18,32765
0.989247,-0.339977,-0.0911402,18,32765
1.01635,-0.353077,-0.0936055,19,32765
0.986948,-0.346645,-0.0909396,18,32765
0.995174,-0.353293,-0.0917209,19,32765
0.984626,-0.353248,-0.0907044,18,32765
0.992806,-0.35994,-0.0915332,18,32765
0.972915,-0.356385,-0.0895885,18,32765
0.962363,-0.35624,-0.0886036,18,32765
0.9705,-0.363009,-0.0891832,18,32765
0.959961,-0.362772,-0.0881592,18,32765
0.977353,-0.373148,-0.0896707,18,32765
0.957519,-0.369267,-0.0877451,18,32765
1.03056,-0.401413,-0.094372,15,32765
0.99214,-0.390309,-0.0906442,14,32765
0.944534,-0.375251,-0.0862741,17,32765
0.934028,-0.374743,-0.0852056,18,32765
0.942017,-0.38162,-0.0858513,18,32765
0.894615,-0.365983,-0.0813661,18,32765
0.911795,-0.376657,-0.0828214,18,32765
0.910512,-0.379816,-0.0825047,18,32765
0.881688,-0.371313,-0.0797108,18,32765
0.926295,-0.393805,-0.0836438,19,32765
0.888351,-0.381233,-0.0799642,18,32765
0.877936,-0.380273,-0.0788769,18,32765
0.87666,-0.383277,-0.0785249,17,32765
0.866257,-0.382245,-0.0773832,16,32765
0.928724,-0.413556,-0.082718,15,32765
0.881871,-0.396309,-0.0783793,14,32765
0.862378,-0.391094,-0.076487,14,32765
0.870151,-0.398154,-0.0768768,15,32765
0.832623,-0.384398,-0.0733305,16,32765
0.795204,-0.370363,-0.0698704,17,32765
0.848092,-0.398515,-0.0743331,18,32765
0.828745,-0.392872,-0.0723378,19,32765
0.83641,-0.400017,-0.0728286,19,32765
0.826105,-0.398521,-0.0716338,18,32765
0.833767,-0.405651,-0.0719779,19,32765
0.805562,-0.395296,-0.0693607,19,32765
0.822106,-0.406891,-0.0705749,19,32765
0.820717,-0.409748,-0.0702092,19,32765
0.819327,-0.412599,-0.0697484,19,32765
0.800127,-0.40643,-0.0679066,19,32765
0.807629,-0.413732,-0.0682665,19,32765
0.80625,-0.416482,-0.0678482,19,32765
0.804868,-0.419203,-0.0675043,19,32765
0.812299,-0.426573,-0.0678614,20,32765
0.793255,-0.419988,-0.0660037,19,32765
0.791852,-0.422678,-0.0656756,19,32765
0.781663,-0.420639,-0.0645413,19,32765
0.789027,-0.428044,-0.0649154,20,32765
0.796359,-0.435505,-0.065168,20,32765
0.786176,-0.433381,-0.0640878,19,32765
0.784734,-0.43604,-0.0637361,19,32765
0.774576,-0.433826,-0.0626672,19,32765
0.773139,-0.436439,-0.0622605,19,32765
0.780349,-0.443997,-0.0626308,19,32765
0.778885,-0.446614,-0.06225,19,32765
0.760118,-0.439271,-0.0605115,19,32765
0.767293,-0.446835,-0.0608282,18,32765
0.765812,-0.449408,-0.0605423,19,32765
0.7815,-0.462151,-0.0614414,20,32765
0.771387,-0.459676,-0.0604946,20,32765
0.778401,-0.467437,-0.0607785,20,32765
0.776848,-0.47006,-0.0604193,19,32765
0.758233,-0.462303,-0.0588076,19,32765
0.748197,-0.459631,-0.0577954,19,32765
0.729722,-0.451614,-0.056125,18,32765
0.745179,-0.464589,-0.0571388,19,32765
0.735219,-0.461736,-0.0561576,19,32765
0.733708,-0.464165,-0.0558958,18,32765
0.73219,-0.466596,-0.0555519,19,32765
0.722282,-0.463614,-0.0544972,19,32765
0.72912,-0.471456,-0.0548875,19,32765
0.702479,-0.457536,-0.0527633,18,32765
0.717676,-0.470807,-0.0536803,19,32765
0.732762,-0.484222,-0.0546713,19,32765
0.714554,-0.475597,-0.0530995,18,32765
0.704672,-0.472448,-0.0522575,19,32765
0.7114,-0.480363,-0.0525478,19,32765
0.718063,-0.488348,-0.0529348,19,32765
0.716461,-0.49073,-0.0526037,19,32765
0.698432,-0.481744,-0.0511488,19,32765
0.729646,-0.506823,-0.05336,20,32765
0.703485,-0.492007,-0.0513629,19,32765
0.693752,-0.488527,-0.0504957,19,32765
0.708461,-0.502334,-0.051417,19,32765
0.698708,-0.498838,-0.050679,19,32765
0.697066,-0.501144,-0.0505292,19,32765
0.695442,-0.503418,-0.0503014,19,32765
0.685749,-0.499788,-0.0495989,19,32765
0.668038,-0.490188,-0.04838,19,32765
1.01821,-0.310805,-0.107479,17,32765
1.05528,-0.325903,-0.110783,18,32765
1.03527,-0.323416,-0.10826,17,32765
1.0058,-0.317862,-0.104573,18,32765
1.01426,-0.324257,-0.105009,18,32765
1.01321,-0.327659,-0.10457,18,32765
1.01218,-0.331013,-0.103995,18,32765
0.992231,-0.328098,-0.101631,18,32765
1.01952,-0.340834,-0.10398,18,32765
0.990152,-0.334644,-0.100562,18,32765
1.00789,-0.344449,-0.102006,17,32765
0.978558,-0.338077,-0.0986348,18,32765
0.958647,-0.334833,-0.0963505,18,32765
0.976317,-0.344742,-0.0977618,18,32765
0.965818,-0.344689,-0.0963637,18,32765
0.955311,-0.344599,-0.0950357,18,32765
0.954184,-0.347825,-0.0946113,18,32765
0.971731,-0.357944,-0.0959928,17,32765
0.979894,-0.364667,-0.0965654,16,32765
0.960061,-0.360977,-0.0942228,16,32765
0.96817,-0.367772,-0.0948201,16,32765
0.948358,-0.36396,-0.092468,16,32765
1.00284,-0.388831,-0.0975312,15,32765
1.01082,-0.395892,-0.0980785,15,32765
0.852073,-0.337026,-0.0823752,17,32765
0.93421,-0.373146,-0.0900789,18,32765
0.896032,-0.361401,-0.0861164,18,32765
0.894834,-0.364451,-0.0857204,18,32765
0.89361,-0.367539,-0.0853062,18,32765
0.919959,-0.382094,-0.0876325,19,32765
0.90948,-0.381423,-0.0863888,18,32765
0.90822,-0.384498,-0.086007,18,32765
0.897791,-0.383659,-0.0847221,19,32765
0.887356,-0.382785,-0.0835104,18,32765
0.867802,-0.377856,-0.0815111,18,32765
0.85741,-0.376834,-0.0802809,17,32765
0.82882,-0.367663,-0.0773391,15,32765
0.873034,-0.3909,-0.0812969,15,32765
0.889875,-0.402124,-0.0825743,14,32765
0.915734,-0.417561,-0.0847002,14,32765
0.914337,-0.420685,-0.0843373,15,32765
0.849674,-0.394407,-0.0780839,16,32765
0.866409,-0.40573,-0.0794905,17,32765
0.820001,-0.387381,-0.0750627,18,32765
0.845719,-0.403003,-0.0771171,18,32765
0.826395,-0.397258,-0.0752119,18,32765
0.825055,-0.400097,-0.0748808,18,32765
0.814729,-0.398588,-0.0737855,18,32765
0.822319,-0.405811,-0.0742166,18,32765
0.803103,-0.399753,-0.0722704,18,32765
0.792844,-0.398023,-0.0712519,19,32765
0.827099,-0.418739,-0.0739255,18,32765
0.763518,-0.389862,-0.0681691,18,32765
0.824243,-0.424437,-0.0733223,18,32765
0.769732,-0.39968,-0.068324,18,32765
0.794909,-0.416138,-0.0703498,18,32765
0.80236,-0.423446,-0.0707991,19,32765
0.756949,-0.402739,-0.0665552,19,32765
0.781961,-0.419452,-0.0685336,19,32765
0.780545,-0.422139,-0.0681831,19,32765
0.770365,-0.420037,-0.0671247,19,32765
0.76898,-0.422629,-0.0667386,19,32765
0.767586,-0.425213,-0.066378,19,32765
0.774897,-0.43263,-0.0668256,20,32765
0.747405,-0.42055,-0.064211,19,32765
0.746017,-0.423059,-0.0638754,19,32765
0.761925,-0.435482,-0.0650069,18,32765
0.75183,-0.433087,-0.0639344,19,32765
0.724523,-0.420597,-0.0613555,18,32765
0.757574,-0.44317,-0.0638949,19,32765
0.747516,-0.440651,-0.062815,18,32765
0.754669,-0.448216,-0.0630655,19,32765
0.753189,-0.450744,-0.0627345,19,32765
0.734638,-0.442943,-0.0608965,19,32765
0.758756,-0.460938,-0.0626508,19,32765
0.723225,-0.442624,-0.0594143,19,32765
0.721785,-0.445024,-0.0589943,18,32765
0.728796,-0.452705,-0.0592863,18,32765
0.735783,-0.460413,-0.059523,18,32765
0.725839,-0.457544,-0.0584051,18,32765
0.715922,-0.454604,-0.0573653,19,32765
0.714459,-0.456968,-0.0568302,19,32765
0.712963,-0.459346,-0.0564406,19,32765
0.719847,-0.467139,-0.0565869,19,32765
0.709975,-0.464065,-0.0554855,19,32765
0.72512,-0.477416,-0.0563427,18,32765
0.681995,-0.452237,-0.0525834,18,32765
0.697131,-0.46557,-0.0534145,18,32765
0.687373,-0.462265,-0.0522475,18,32765
0.694146,-0.470122,-0.0524109,19,32765
0.692611,-0.472432,-0.0519348,19,32765
0.682843,-0.469096,-0.0507465,19,32765
0.689529,-0.477032,-0.0508892,19,32765
0.696199,-0.484987,-0.0509398,19,32765
0.670148,-0.470039,-0.048625,19,32765
0.676805,-0.477984,-0.0486488,19,32765
0.667135,-0.474422,-0.0474757,19,32765
0.657475,-0.47083,-0.0463236,18,32765
0.68838,-0.496325,-0.0479061,19,32765
0.646403,-0.469247,-0.0443927,19,32765
0.669106,-0.489021,-0.0453463,19,32765
1.04538,-0.320316,-0.120746,18,32765
1.00642,-0.311994,-0.115674,18,32765
1.03391,-0.324214,-0.11842,18,32765
1.01395,-0.321649,-0.115533,18,32765
1.05079,-0.337202,-0.119281,18,32765
1.0497,-0.340737,-0.118825,18,32765
1.02974,-0.338019,-0.116098,18,32765
0.990917,-0.328891,-0.111417,18,32765
1.01817,-0.341656,-0.114045,18,32765
0.998255,-0.338642,-0.111397,18,32765
0.987739,-0.338819,-0.109883,18,32765
1.00544,-0.348658,-0.11145,18,32765
1.0043,-0.35208,-0.111043,18,32765
0.965635,-0.342234,-0.106418,18,32765
0.98325,-0.35221,-0.108016,18,32765
0.954026,-0.345409,-0.104537,17,32765
0.971581,-0.355475,-0.106154,17,32765
1.20369,-0.445024,-0.131083,12,32765
0,-0,-0,0,32765
0,-0,-0,0,32765
1.14348,-0.435967,-0.123596,11,32765
0.900637,-0.346916,-0.0969672,17,32765
0.927286,-0.360856,-0.099617,20,32765
0.944599,-0.371316,-0.101276,20,32765
0.915638,-0.363497,-0.0978586,19,32765
0.923679,-0.370292,-0.0984951,19,32765
0.904011,-0.365955,-0.0961254,18,32765
0.912011,-0.372808,-0.0967013,18,32765
0.929158,-0.383559,-0.0982229,19,32765
0.900294,-0.375295,-0.0949986,18,32765
0.880677,-0.370695,-0.0927028,18,32765
0.888614,-0.377574,-0.0932936,18,32765
0.87822,-0.376668,-0.0919234,18,32765
0.858687,-0.371773,-0.0896711,19,32765
0.884804,-0.386668,-0.0922487,18,32765
0.84707,-0.373651,-0.0880756,18,32765
0.85491,-0.380624,-0.0886297,18,32765
0.87177,-0.391762,-0.0902228,18,32765
0.852313,-0.386559,-0.0879431,19,32765
0.860077,-0.393617,-0.0884999,18,32765
0.831641,-0.384037,-0.0853737,18,32765
0.830374,-0.386858,-0.0849733,18,32765
0.829082,-0.389672,-0.0847282,19,32765
0.827782,-0.392489,-0.0844364,18,32765
0.808525,-0.386691,-0.0821977,17,32765
0.789282,-0.380808,-0.0801172,16,32765
0.832769,-0.40532,-0.0843338,16,32765
0.849256,-0.417005,-0.0858526,14,32765
0.865695,-0.428786,-0.0872587,14,32765
0.864248,-0.431769,-0.0868991,15,32765
0.791629,-0.398875,-0.0795155,15,32765
0.790308,-0.401585,-0.0790089,17,32765
0.797796,-0.408865,-0.0796944,18,32765
0.805265,-0.416193,-0.0801921,19,32765
0.803866,-0.418943,-0.0799108,19,32765
0.776026,-0.407753,-0.0769526,19,32765
