x, y, z, intensity, ring
2.1133,0.183047,-0.193238,15,32765
2.0742,0.17273,-0.189648,14,32765
2.12436,0.169724,-0.194627,15,32765
2.07525,0.158849,-0.190256,15,32765
2.00622,0.146793,-0.18421,15,32765
2.03649,0.142198,-0.187081,15,32765
1.96738,0.13079,-0.180827,15,32765
1.97773,0.1248,-0.181947,14,32765
1.90855,0.114059,-0.175618,15,32765
1.93873,0.109356,-0.178476,16,32765
1.91917,0.101838,-0.176929,16,32765
1.89962,0.0944836,-0.174924,16,32765
1.88002,0.0872064,-0.173301,16,32765
1.80072,0.0775234,-0.165863,16,32765
1.84076,0.0731054,-0.169593,15,32765
1.80118,0.0654672,-0.166014,16,32765
1.8014,0.0594826,-0.165838,16,32765
1.73192,0.0514426,-0.159448,16,32765
1.71218,0.0452586,-0.15742,16,32765
1.74219,0.0402874,-0.160151,16,32765
1.73236,0.0342563,-0.159211,16,32765
1.67275,0.0274496,-0.153469,16,32765
1.67283,0.0218861,-0.153453,16,32765
1.66296,0.0162974,-0.152327,16,32765
1.67298,0.010955,-0.153058,16,32765
1.65311,0.00539646,-0.150961,16,32765
1.63323,-7.29358e-05,-0.148821,17,32765
1.5735,-0.00534296,-0.143093,15,32765
1.58348,-0.0105652,-0.143465,16,32765
1.60341,-0.0159782,-0.14466,16,32765
1.55361,-0.0205639,-0.13959,16,32765
3.53174,1.18625,-0.327407,31,32765
3.53565,1.17465,-0.327071,32,32765
3.53943,1.16313,-0.32734,31,32765
3.55278,1.15446,-0.327801,31,32765
3.54711,1.13956,-0.327125,31,32765
3.55085,1.12768,-0.327741,32,32765
3.58306,1.12491,-0.330452,33,32765
3.55814,1.10427,-0.328436,31,32765
3.60935,1.10717,-0.332993,33,32765
3.5939,1.08948,-0.331445,32,32765
3.57844,1.07156,-0.330209,31,32765
3.62019,1.07088,-0.334026,33,32765
3.59504,1.05023,-0.332144,32,32765
3.6177,1.04347,-0.334375,32,32765
3.63073,1.034,-0.335753,32,32765
3.64375,1.02435,-0.337397,33,32765
3.63752,1.00939,-0.33712,33,32765
3.6697,1.00496,-0.340253,33,32765
3.66333,0.990091,-0.340289,33,32765
3.64739,0.972558,-0.338827,33,32765
3.64093,0.957645,-0.339001,32,32765
3.66346,0.950148,-0.341031,33,32765
3.66662,0.937519,-0.341967,33,32765
3.70834,0.934721,-0.346583,33,32765
3.70176,0.919808,-0.346189,33,32765
3.68541,0.902601,-0.345254,32,32765
3.70774,0.894811,-0.347723,33,32765
3.7107,0.882182,-0.348392,33,32765
3.71366,0.86937,-0.349016,33,32765
3.74566,0.863221,-0.352863,33,32765
3.73883,0.848051,-0.352815,33,32765
3.72217,0.831057,-0.35173,32,32765
3.72491,0.818439,-0.35232,32,32765
3.73734,0.807777,-0.354134,32,32765
3.73996,0.795017,-0.355294,33,32765
3.7621,0.7862,-0.357899,33,32765
3.76472,0.773236,-0.358564,33,32765
3.74776,0.756206,-0.357863,32,32765
3.76006,0.745165,-0.359439,33,32765
3.75274,0.730416,-0.359228,32,32765
3.77469,0.721327,-0.361988,32,32765
3.80641,0.714037,-0.365359,33,32765
3.79889,0.699346,-0.36569,33,32765
3.81094,0.688213,-0.367699,33,32765
3.82299,0.677086,-0.369139,33,32765
3.81537,0.662282,-0.369404,33,32765
3.81754,0.649136,-0.370321,33,32765
3.84912,0.640716,-0.374351,33,32765
3.8316,0.624189,-0.373145,34,32765
3.82381,0.609418,-0.373065,32,32765
3.82574,0.596318,-0.374473,32,32765
3.85728,0.587715,-0.377371,34,32765
3.8493,0.572879,-0.377936,34,32765
3.85119,0.55958,-0.378585,33,32765
3.84311,0.54502,-0.378744,31,32765
3.8547,0.533417,-0.38056,31,32765
3.85639,0.520493,-0.381397,32,32765
3.86793,0.508717,-0.383037,32,32765
3.91892,0.501829,-0.388728,33,32765
3.88105,0.483383,-0.3856,33,32765
3.91222,0.473626,-0.389601,31,32765
3.74573,0.440636,-0.373398,17,32765
3.85589,0.440413,-0.384896,17,32765
3.79791,0.420932,-0.379883,17,32765
3.84871,0.413484,-0.385428,16,32765
3.85001,0.400497,-0.386171,19,32765
3.73247,0.375443,-0.374949,16,32765
2.14908,0.208782,-0.216264,16,32765
2.12993,0.199648,-0.214553,16,32765
2.10083,0.18978,-0.211859,16,32765
2.09151,0.181816,-0.211227,15,32765
2.03261,0.169885,-0.205259,15,32765
1.98354,0.159059,-0.200666,16,32765
1.98404,0.152434,-0.200835,15,32765
1.9349,0.14211,-0.196129,15,32765
1.9155,0.134263,-0.194246,16,32765
1.88614,0.125877,-0.191355,16,32765
1.87661,0.118887,-0.190544,16,32765
1.80747,0.108452,-0.183555,17,32765
1.77801,0.100701,-0.180634,17,32765
1.82799,0.0974051,-0.185951,18,32765
1.77863,0.0888436,-0.180737,16,32765
1.74909,0.0814889,-0.177903,16,32765
1.74936,0.0756521,-0.177803,16,32765
1.69989,0.0678255,-0.172812,16,32765
1.67028,0.0610029,-0.169862,18,32765
1.68043,0.055768,-0.170709,18,32765
1.64083,0.0489955,-0.166691,17,32765
1.641,0.0436207,-0.166505,17,32765
1.65108,0.0384108,-0.1675,17,32765
1.62136,0.0322727,-0.164449,17,32765
1.62149,0.0268046,-0.164206,18,32765
1.61162,0.0212656,-0.163183,17,32765
1.5918,0.0157638,-0.160965,17,32765
1.58192,0.0105073,-0.159788,17,32765
1.57202,0.00526519,-0.158522,17,32765
1.56211,4.85674e-05,-0.157211,16,32765
1.54223,-0.0051342,-0.154931,16,32765
1.52236,-0.01007,-0.152419,17,32765
1.49252,-0.0148014,-0.148863,17,32765
1.50247,-0.0198284,-0.149297,17,32765
3.56233,1.19299,-0.315355,29,32765
3.54711,1.17495,-0.316244,28,32765
3.53182,1.15696,-0.317137,27,32765
3.56383,1.15457,-0.32199,28,32765
3.58643,1.1488,-0.325871,29,32765
3.59008,1.13669,-0.328072,29,32765
3.59367,1.1247,-0.330111,29,32765
3.58769,1.10981,-0.33117,28,32765
3.60069,1.10087,-0.333936,28,32765
3.61363,1.09193,-0.336898,29,32765
3.60749,1.07719,-0.33779,28,32765
3.63955,1.07368,-0.341981,29,32765
3.65249,1.06431,-0.344954,29,32765
3.66549,1.05479,-0.347167,30,32765
3.62092,1.02887,-0.344664,29,32765
3.64342,1.02179,-0.348472,29,32765
3.68514,1.02003,-0.353377,30,32765
3.67882,1.00489,-0.35405,30,32765
3.66279,0.987347,-0.353823,29,32765
3.67553,0.977741,-0.356266,29,32765
3.65938,0.960388,-0.355769,29,32765
3.70099,0.958099,-0.36104,29,32765
3.69442,0.943118,-0.361554,29,32765
3.67817,0.925636,-0.361049,29,32765
3.71013,0.920353,-0.365404,30,32765
3.70349,0.905154,-0.365721,30,32765
3.7064,0.892579,-0.367179,29,32765
3.73834,0.886853,-0.371312,31,32765
3.72181,0.86969,-0.37063,29,32765
3.71485,0.855071,-0.371012,28,32765
3.73698,0.847042,-0.374201,30,32765
3.73964,0.834596,-0.37556,30,32765
3.74238,0.82185,-0.376398,29,32765
3.72563,0.804767,-0.375455,29,32765
3.77694,0.802236,-0.381454,30,32765
3.76984,0.787213,-0.381409,29,32765
3.77235,0.774514,-0.382643,30,32765
3.78457,0.763827,-0.38474,30,32765
3.78702,0.750926,-0.385984,29,32765
3.76015,0.732436,-0.383786,28,32765
3.79187,0.725141,-0.387714,30,32765
3.79421,0.71213,-0.388895,29,32765
3.777,0.695498,-0.3875,29,32765
3.79881,0.686054,-0.39083,29,32765
3.79125,0.671483,-0.390468,29,32765
3.84241,0.667002,-0.396736,31,32765
3.83476,0.652415,-0.396321,32,32765
3.82704,0.637779,-0.39619,30,32765
3.86834,0.631171,-0.401487,32,32765
3.87041,0.617986,-0.402018,31,32765
3.84293,0.600016,-0.399971,29,32765
3.86454,0.589715,-0.403053,30,32765
3.85666,0.574864,-0.402665,29,32765
3.83882,0.558649,-0.401672,29,32765
3.86033,0.548392,-0.404383,30,32765
3.87196,0.53646,-0.406236,30,32765
3.89336,0.526008,-0.409387,31,32765
3.89511,0.512777,-0.40945,31,32765
3.89671,0.49943,-0.410784,30,32765
3.90816,0.487549,-0.412556,30,32765
3.89986,0.473016,-0.412141,28,32765
3.92109,0.462237,-0.415065,18,32765
3.84348,0.440028,-0.407559,14,32765
3.86463,0.429122,-0.41061,16,32765
3.88578,0.418125,-0.413278,14,32765
2.17598,0.226583,-0.231884,15,32765
2.19647,0.221228,-0.234489,15,32765
2.14768,0.208973,-0.229589,15,32765
2.10873,0.197967,-0.225742,14,32765
2.03011,0.183738,-0.21766,14,32765
2.02075,0.175921,-0.217283,16,32765
2.02131,0.169056,-0.217587,15,32765
2.002,0.16059,-0.215915,15,32765
1.99258,0.153012,-0.215242,16,32765
1.95339,0.143354,-0.211271,16,32765
1.95382,0.136713,-0.211633,16,32765
1.90463,0.126858,-0.206633,15,32765
1.78593,0.112919,-0.194208,19,32765
1.84581,0.110458,-0.200933,19,32765
1.83619,0.103774,-0.200305,16,32765
1.84643,0.0980737,-0.201704,16,32765
1.80699,0.08994,-0.197707,16,32765
1.78737,0.0830055,-0.196015,16,32765
1.7578,0.0757155,-0.193138,16,32765
1.74806,0.0694643,-0.192553,16,32765
1.70851,0.0621369,-0.188498,16,32765
1.7186,0.0567095,-0.189978,17,32765
1.70881,0.0507485,-0.189219,16,32765
1.68905,0.0444895,-0.187454,16,32765
1.67919,0.0386494,-0.186845,17,32765
1.66933,0.0328407,-0.186137,16,32765
1.65946,0.0271091,-0.185388,16,32765
1.66943,0.0216835,-0.186923,17,32765
1.62968,0.0157239,-0.182976,16,32765
1.62969,0.0104172,-0.183334,16,32765
1.55016,0.00476726,-0.174859,16,32765
1.60971,-0.000337403,-0.182298,16,32765
1.57986,-0.00550505,-0.17918,16,32765
1.52015,-0.0102945,-0.172982,16,32765
1.53991,-0.0154476,-0.175901,16,32765
1.51993,-0.0202944,-0.174091,16,32765
3.52048,1.18271,-0.34688,31,32765
3.54302,1.17732,-0.351303,32,32765
3.53721,1.16241,-0.352953,31,32765
3.56919,1.15998,-0.358094,32,32765
3.55387,1.14198,-0.358347,31,32765
3.59543,1.14201,-0.364377,33,32765
3.58004,1.124,-0.364489,32,32765
3.59307,1.11502,-0.367394,33,32765
3.61558,1.10894,-0.371237,33,32765
3.59043,1.08838,-0.370374,32,32765
3.59381,1.07653,-0.372152,32,32765
3.63538,1.07587,-0.377612,34,32765
3.61965,1.05811,-0.377691,32,32765
3.63262,1.04867,-0.379989,33,32765
3.62635,1.0337,-0.381024,33,32765
3.63926,1.02389,-0.384014,32,32765
3.64259,1.01148,-0.38524,32,32765
3.66504,1.00433,-0.388859,33,32765
3.65862,0.989386,-0.389464,32,32765
3.65213,0.974634,-0.38995,32,32765
3.66485,0.964912,-0.392348,33,32765
3.66791,0.952589,-0.393864,32,32765
3.69023,0.945082,-0.397387,33,32765
3.68365,0.930002,-0.397738,33,32765
3.71558,0.92468,-0.402379,33,32765
3.69931,0.907052,-0.401559,33,32765
3.71189,0.89679,-0.40407,32,32765
3.70511,0.881814,-0.404266,33,32765
3.70794,0.869258,-0.405506,33,32765
3.71068,0.856881,-0.406855,33,32765
3.73278,0.84884,-0.410232,33,32765
3.72575,0.834201,-0.410523,32,32765
3.73819,0.823605,-0.412432,33,32765
3.73118,0.808596,-0.412377,32,32765
3.75329,0.799815,-0.415618,33,32765
3.73646,0.782794,-0.414397,32,32765
3.75842,0.774184,-0.417788,33,32765
3.76088,0.761539,-0.418892,33,32765
3.77307,0.750621,-0.421219,33,32765
3.76574,0.735944,-0.42092,34,32765
3.76815,0.722986,-0.421854,33,32765
3.77048,0.71002,-0.42303,32,32765
3.77283,0.697035,-0.423642,33,32765
3.78484,0.685806,-0.426058,31,32765
3.77729,0.671241,-0.425602,32,32765
3.80881,0.66338,-0.430126,31,32765
3.82075,0.652211,-0.431828,33,32765
3.79344,0.634304,-0.429383,32,32765
3.82487,0.626183,-0.433934,35,32765
3.82692,0.613109,-0.434461,33,32765
3.82891,0.599856,-0.435473,33,32765
3.8505,0.589573,-0.438741,34,32765
3.8721,0.579139,-0.441622,33,32765
3.8543,0.562826,-0.440448,32,32765
3.88563,0.553889,-0.444475,33,32765
3.86775,0.53773,-0.443048,32,32765
3.88912,0.527262,-0.446386,32,32765
3.89088,0.514008,-0.446451,32,32765
3.91218,0.503174,-0.450053,32,32765
3.91377,0.489972,-0.450787,32,32765
3.89563,0.474179,-0.449144,32,32765
3.93657,0.465717,-0.454535,31,32765
3.91828,0.450201,-0.453132,23,32765
3.83082,0.426906,-0.443809,19,32765
3.76305,0.406392,-0.436354,13,32765
2.09458,0.218908,-0.243314,14,32765
2.03596,0.205819,-0.236888,17,32765
2.07615,0.202767,-0.241858,17,32765
2.01745,0.190109,-0.235317,16,32765
1.96856,0.178844,-0.229934,16,32765
1.9493,0.170352,-0.228284,17,32765
1.94983,0.163711,-0.228578,16,32765
1.93053,0.155466,-0.226704,16,32765
1.9112,0.147347,-0.224758,17,32765
1.93146,0.142316,-0.227397,16,32765
1.85263,0.130163,-0.218411,17,32765
1.82329,0.121946,-0.215264,18,32765
1.82363,0.115791,-0.215764,17,32765
1.82398,0.109623,-0.216013,16,32765
1.7648,0.100178,-0.209405,17,32765
1.73534,0.0925891,-0.206172,17,32765
1.77528,0.0887701,-0.21122,16,32765
1.70607,0.0796072,-0.20342,16,32765
1.73605,0.075146,-0.207353,16,32765
1.63701,0.0653834,-0.195979,17,32765
1.66696,0.0609477,-0.199856,17,32765
1.63734,0.0543291,-0.196653,16,32765
1.64739,0.0492126,-0.198172,17,32765
1.62765,0.0431417,-0.196204,16,32765
1.59795,0.0370295,-0.193085,17,32765
1.59802,0.031673,-0.193466,17,32765
1.58815,0.0261635,-0.192608,17,32765
1.56833,0.0205724,-0.190599,17,32765
1.56833,0.0153196,-0.191085,17,32765
1.53855,0.0100049,-0.187794,17,32765
1.53852,0.00488773,-0.18826,17,32765
1.53844,-0.000179889,-0.188942,17,32765
1.4987,-0.00509699,-0.184311,16,32765
1.50853,-0.0101032,-0.18609,17,32765
1.45879,-0.0145379,-0.180592,17,32765
1.45868,-0.019394,-0.181033,18,32765
3.55198,1.19715,-0.403918,28,32765
3.55599,1.1853,-0.403627,29,32765
3.55042,1.17037,-0.402932,28,32765
3.55424,1.15864,-0.403146,29,32765
3.58641,1.15599,-0.406773,29,32765
3.56184,1.13476,-0.403995,27,32765
3.59404,1.1317,-0.407697,29,32765
3.58828,1.11652,-0.407488,28,32765
3.61101,1.1102,-0.409943,29,32765
3.62416,1.10097,-0.411664,29,32765
3.60871,1.08303,-0.410325,28,32765
3.65034,1.08217,-0.415704,30,32765
3.62529,1.06141,-0.413163,29,32765
3.64785,1.05463,-0.416347,30,32765
3.61307,1.03142,-0.412659,28,32765
3.65474,1.0299,-0.417816,29,32765
3.66769,1.02017,-0.419749,29,32765
3.67096,1.00791,-0.42078,30,32765
3.6838,0.998095,-0.423091,29,32765
3.67744,0.983183,-0.422713,29,32765
3.67111,0.968005,-0.4223,30,32765
3.66464,0.952941,-0.422371,29,32765
3.687,0.945369,-0.425677,30,32765
3.69011,0.932741,-0.426562,30,32765
3.69315,0.920397,-0.427057,30,32765
3.71542,0.912537,-0.430602,29,32765
3.6797,0.890743,-0.427146,28,32765
3.70188,0.882956,-0.430584,29,32765
3.68545,0.865765,-0.428941,27,32765
3.72705,0.861886,-0.434427,30,32765
3.73962,0.85088,-0.436815,29,32765
3.73273,0.835754,-0.436775,30,32765
3.76456,0.82929,-0.441318,31,32765
3.76727,0.816412,-0.442195,31,32765
3.7602,0.801551,-0.441983,31,32765
3.76279,0.788681,-0.443064,30,32765
3.78482,0.779828,-0.446202,31,32765
3.79703,0.768842,-0.448789,31,32765
3.79955,0.755942,-0.449402,30,32765
3.78249,0.739111,-0.448184,29,32765
3.7849,0.726025,-0.449259,28,32765
3.78726,0.713075,-0.450094,29,32765
3.77974,0.698328,-0.450308,30,32765
3.81132,0.690779,-0.454584,31,32765
3.83312,0.681303,-0.457637,32,32765
3.84512,0.669729,-0.459806,32,32765
3.82769,0.65323,-0.458427,31,32765
3.87877,0.648264,-0.465328,29,32765
3.80246,0.622064,-0.456877,28,32765
3.8241,0.612211,-0.459855,30,32765
3.84569,0.602036,-0.463274,29,32765
3.86724,0.591979,-0.466497,29,32765
3.86918,0.578549,-0.467229,29,32765
3.87103,0.565188,-0.468275,29,32765
3.88269,0.553289,-0.470203,29,32765
3.86478,0.537185,-0.468808,29,32765
3.89603,0.528158,-0.472839,29,32765
3.88784,0.513746,-0.472489,30,32765
3.89931,0.501884,-0.474417,29,32765
3.94029,0.493711,-0.479961,29,32765
3.88276,0.473047,-0.473256,29,32765
3.92371,0.464453,-0.478766,29,32765
3.93506,0.452254,-0.480468,24,32765
3.69973,0.412535,-0.452033,12,32765
3.80962,0.411834,-0.465573,14,32765
3.82078,0.399811,-0.467626,14,32765
3.76286,0.380754,-0.460476,12,32765
2.07467,0.202762,-0.254252,14,32765
2.07535,0.195629,-0.25423,15,32765
2.00678,0.18233,-0.245967,16,32765
1.97771,0.172906,-0.242434,15,32765
1.96837,0.165361,-0.241417,15,32765
1.959,0.157917,-0.240362,16,32765
1.93972,0.149761,-0.238056,15,32765
1.92038,0.141774,-0.235852,16,32765
1.92085,0.135289,-0.235864,16,32765
1.86187,0.124818,-0.228573,16,32765
1.85238,0.117943,-0.227316,16,32765
1.84285,0.111098,-0.22621,16,32765
1.81346,0.103343,-0.222657,16,32765
1.85345,0.0994238,-0.227449,16,32765
1.77445,0.0892789,-0.217812,16,32765
1.76485,0.0828844,-0.216437,16,32765
1.73536,0.0756751,-0.212828,16,32765
1.74554,0.0702464,-0.213867,17,32765
1.72593,0.063643,-0.211466,17,32765
1.69639,0.0568469,-0.207675,17,32765
1.67675,0.0505075,-0.205112,17,32765
1.66699,0.0445679,-0.203875,16,32765
1.68703,0.0395131,-0.205867,17,32765
1.65738,0.0332492,-0.202208,17,32765
1.60788,0.0269294,-0.195992,16,32765
1.6576,0.0223122,-0.20189,17,32765
1.60805,0.016346,-0.19571,16,32765
1.59822,0.0109876,-0.194066,16,32765
1.58835,0.00557101,-0.192623,16,32765
1.56855,0.000301143,-0.18985,16,32765
1.53879,-0.00477721,-0.186033,16,32765
1.53882,-0.0099241,-0.185525,16,32765
1.55868,-0.0152925,-0.187572,16,32765
1.51898,-0.0200345,-0.182195,17,32765
3.54702,1.19949,-0.439057,32,32765
3.54163,1.18447,-0.437606,31,32765
3.55494,1.17578,-0.43915,32,32765
3.56823,1.16709,-0.440534,32,32765
3.56259,1.15215,-0.439779,32,32765
3.56644,1.14002,-0.440226,32,32765
3.56074,1.12496,-0.439536,32,32765
3.58341,1.11873,-0.442743,31,32765
3.60613,1.1124,-0.445388,32,32765
3.60028,1.09737,-0.444858,32,32765
3.60386,1.08519,-0.445682,32,32765
3.6169,1.07584,-0.4479,33,32765
3.60139,1.05794,-0.446257,32,32765
3.65253,1.05952,-0.453175,33,32765
3.62737,1.03896,-0.450302,32,32765
3.6499,1.03198,-0.453465,32,32765
3.64372,1.01689,-0.453115,33,32765
3.62784,0.999405,-0.451759,33,32765
3.66938,0.997516,-0.457738,33,32765
3.6918,0.990327,-0.460859,33,32765
3.67591,0.972519,-0.459159,33,32765
3.66947,0.957396,-0.459141,33,32765
3.69181,0.949781,-0.462639,33,32765
3.69494,0.9371,-0.463528,33,32765
3.67874,0.919887,-0.46161,33,32765
3.72989,0.919174,-0.468976,35,32765
3.71353,0.901961,-0.467582,34,32765
3.70675,0.887102,-0.467567,34,32765
3.72901,0.878957,-0.470619,35,32765
3.73194,0.865933,-0.471606,34,32765
3.71548,0.848249,-0.470416,33,32765
3.72795,0.837514,-0.472735,33,32765
3.72099,0.822476,-0.472636,32,32765
3.72368,0.80971,-0.473506,32,32765
3.76511,0.805333,-0.47937,34,32765
3.758,0.790366,-0.479217,34,32765
3.7703,0.779492,-0.481304,34,32765
3.76304,0.764571,-0.481492,34,32765
3.76555,0.751749,-0.482102,34,32765
3.79718,0.744534,-0.486933,33,32765
3.78986,0.729484,-0.486764,33,32765
3.81173,0.720163,-0.49011,33,32765
3.81399,0.707098,-0.491498,33,32765
3.80652,0.692307,-0.491027,33,32765
3.81853,0.681075,-0.493008,34,32765
3.82074,0.667809,-0.494006,34,32765
3.81311,0.653023,-0.493702,33,32765
3.82499,0.641524,-0.495995,33,32765
3.82706,0.628298,-0.496953,32,32765
3.8389,0.616756,-0.498851,32,32765
3.87028,0.608038,-0.503739,33,32765
3.85261,0.591843,-0.502046,33,32765
3.85455,0.578424,-0.502778,32,32765
3.83677,0.5622,-0.501258,31,32765
3.85822,0.551788,-0.504559,32,32765
3.85997,0.538464,-0.505545,31,32765
3.91084,0.532098,-0.512434,32,32765
3.90267,0.517595,-0.511996,33,32765
3.90431,0.504378,-0.512729,33,32765
3.92556,0.493688,-0.516064,32,32765
3.79921,0.464593,-0.499736,24,32765
3.73177,0.443389,-0.491345,18,32765
3.69379,0.426127,-0.48663,14,32765
3.80355,0.425723,-0.501384,16,32765
3.70635,0.402203,-0.48867,15,32765
3.72732,0.391536,-0.492096,15,32765
3.75822,0.381764,-0.496103,17,32765
3.71007,0.364016,-0.490392,16,32765
3.74092,0.354027,-0.494267,16,32765
3.69268,0.336848,-0.488137,14,32765
3.77279,0.331178,-0.498775,13,32765
1.96596,0.165833,-0.260028,13,32765
1.88743,0.152777,-0.249728,15,32765
1.86815,0.14484,-0.24723,16,32765
1.83894,0.136339,-0.243523,17,32765
1.8295,0.129411,-0.242225,17,32765
1.81015,0.121882,-0.239611,17,32765
1.76108,0.11263,-0.233026,16,32765
1.75154,0.106075,-0.231821,17,32765
1.75187,0.100297,-0.231914,17,32765
1.77201,0.0955067,-0.234463,17,32765
1.7129,0.086602,-0.226694,17,32765
1.7132,0.0808622,-0.226542,17,32765
1.66393,0.0729361,-0.220032,17,32765
1.66419,0.067332,-0.219863,17,32765
1.6545,0.0613504,-0.218583,18,32765
1.6349,0.0551075,-0.215826,17,32765
1.61527,0.0489574,-0.213081,17,32765
1.60552,0.0432087,-0.211752,17,32765
1.58589,0.0374094,-0.208728,17,32765
1.59592,0.0322677,-0.210009,17,32765
1.57621,0.0266323,-0.207241,18,32765
1.57631,0.0214363,-0.207097,18,32765
1.53673,0.0158192,-0.201759,17,32765
1.49717,0.0104716,-0.196144,17,32765
1.50714,0.00545133,-0.197217,17,32765
1.46753,0.000428401,-0.191686,16,32765
1.47747,-0.00445326,-0.192777,16,32765
1.46759,-0.0093464,-0.190999,17,32765
1.47751,-0.0143914,-0.191961,18,32765
1.46761,-0.0192676,-0.190094,17,32765
3.55885,1.2001,-0.427497,29,32765
3.58121,1.19477,-0.432984,29,32765
3.5659,1.17689,-0.433245,28,32765
3.58831,1.17119,-0.438552,29,32765
3.58236,1.15631,-0.44013,29,32765
3.56695,1.13836,-0.440355,28,32765
3.60827,1.13855,-0.447425,29,32765
3.60225,1.12363,-0.448586,29,32765
3.60567,1.11163,-0.451038,29,32765
3.60909,1.0997,-0.452917,29,32765
3.60302,1.08461,-0.453834,28,32765
3.64446,1.08371,-0.460805,30,32765
3.62888,1.06555,-0.460392,29,32765
3.65136,1.05849,-0.464838,29,32765
3.64518,1.04333,-0.465346,29,32765
3.66752,1.03625,-0.47016,30,32765
3.65168,1.01845,-0.469442,29,32765
3.66441,1.00878,-0.472643,30,32765
3.6293,0.986002,-0.469103,28,32765
3.67068,0.984161,-0.475873,30,32765
3.6834,0.974209,-0.478606,29,32765
3.69599,0.964383,-0.481772,31,32765
3.67976,0.947216,-0.480635,30,32765
3.71162,0.942111,-0.485698,31,32765
3.71453,0.929653,-0.487418,31,32765
3.71751,0.916728,-0.4892,31,32765
3.73974,0.908558,-0.493258,31,32765
3.69447,0.884145,-0.487936,29,32765
3.72627,0.878261,-0.493103,29,32765
3.70972,0.861122,-0.491994,28,32765
3.73184,0.852777,-0.49569,30,32765
3.73453,0.840032,-0.497204,30,32765
3.73725,0.827312,-0.498115,30,32765
3.77868,0.822844,-0.504495,32,32765
3.7813,0.8099,-0.505794,32,32765
3.77424,0.794568,-0.505809,30,32765
3.77685,0.781488,-0.506718,30,32765
3.78907,0.770459,-0.509267,30,32765
3.80129,0.759315,-0.511578,30,32765
3.8135,0.748179,-0.513687,30,32765
3.76723,0.725735,-0.508143,29,32765
3.79873,0.718432,-0.513308,29,32765
3.78156,0.701925,-0.511372,29,32765
3.82284,0.69607,-0.517441,29,32765
3.82509,0.682873,-0.518458,30,32765
3.82731,0.669665,-0.519241,30,32765
3.82948,0.656458,-0.520115,30,32765
3.84136,0.645157,-0.522172,29,32765
3.86303,0.635237,-0.525299,29,32765
3.83575,0.617251,-0.521933,28,32765
3.87698,0.609861,-0.52789,30,32765
3.83002,0.588736,-0.521975,29,32765
3.85155,0.578455,-0.525204,30,32765
3.89261,0.571138,-0.531289,30,32765
3.87483,0.555114,-0.529201,28,32765
3.86685,0.540409,-0.528261,29,32765
3.89806,0.53094,-0.533067,28,32765
3.91947,0.519957,-0.53619,30,32765
3.92112,0.506401,-0.537073,27,32765
3.84411,0.483164,-0.52678,19,32765
2.06544,0.252499,-0.283202,17,32765
2.13513,0.253658,-0.292867,17,32765
2.06701,0.238491,-0.283855,16,32765
2.0481,0.229192,-0.281364,16,32765
2.04882,0.222177,-0.281743,16,32765
2.01996,0.212001,-0.278037,16,32765
1.97137,0.200037,-0.271445,15,32765
1.9523,0.191386,-0.268845,14,32765
1.92329,0.181926,-0.265227,15,32765
1.99292,0.181749,-0.27503,14,32765
1.90464,0.167196,-0.26326,14,32765
1.85578,0.156574,-0.256868,14,32765
1.78717,0.144746,-0.247342,16,32765
1.83699,0.142496,-0.254512,16,32765
1.82753,0.135537,-0.253499,16,32765
1.83783,0.130029,-0.255079,16,32765
1.79868,0.121116,-0.249975,16,32765
1.81882,0.11635,-0.252912,16,32765
1.82903,0.110861,-0.2547,16,32765
1.79968,0.103062,-0.250847,15,32765
1.75051,0.0943717,-0.244368,16,32765
1.74087,0.0879392,-0.24342,16,32765
1.72133,0.0811377,-0.24089,17,32765
1.73144,0.0757302,-0.242655,16,32765
1.71184,0.0690956,-0.240304,16,32765
1.6922,0.0626021,-0.237965,16,32765
1.69234,0.0568999,-0.238455,16,32765
1.69246,0.0512786,-0.238876,16,32765
1.64308,0.0442988,-0.232198,16,32765
1.63327,0.0386265,-0.231138,16,32765
1.62341,0.0328686,-0.230365,17,32765
1.65316,0.0278725,-0.234902,17,32765
1.61359,0.0217764,-0.22966,17,32765
1.52448,0.015493,-0.217546,16,32765
1.53435,0.0105787,-0.219481,17,32765
1.57391,0.00567367,-0.22557,16,32765
1.53423,0.000479776,-0.220517,16,32765
1.52425,-0.00459624,-0.219656,16,32765
1.51424,-0.00965712,-0.218847,16,32765
1.48441,-0.0144321,-0.215247,17,32765
1.49415,-0.019459,-0.21731,17,32765
3.55366,1.20243,-0.462699,32,32765
3.55716,1.19079,-0.465907,32,32765
3.54185,1.17294,-0.465968,32,32765
3.56421,1.16729,-0.471446,33,32765
3.53937,1.14633,-0.470407,31,32765
3.58063,1.14663,-0.477987,32,32765
3.59353,1.13778,-0.481639,33,32765
3.59698,1.12583,-0.483975,32,32765
3.59092,1.11088,-0.485147,33,32765
3.6133,1.10475,-0.489593,33,32765
3.61674,1.09248,-0.491714,33,32765
3.62964,1.08301,-0.495181,33,32765
3.61407,1.06485,-0.494578,32,32765
3.63651,1.05782,-0.499205,33,32765
3.64939,1.04813,-0.502239,34,32765
3.6431,1.0329,-0.503294,33,32765
3.62727,1.01513,-0.502381,32,32765
3.64952,1.00816,-0.506993,34,32765
3.67184,1.00101,-0.511063,35,32765
3.6462,0.980987,-0.508882,33,32765
3.66848,0.973627,-0.513041,33,32765
3.70022,0.968839,-0.518985,33,32765
3.69362,0.954089,-0.519015,32,32765
3.69665,0.941577,-0.520311,33,32765
3.68994,0.926718,-0.520671,33,32765
3.71214,0.9186,-0.525166,35,32765
3.72471,0.908073,-0.528047,34,32765
3.71804,0.892902,-0.527727,34,32765
3.72091,0.880072,-0.529073,34,32765
3.73332,0.869646,-0.531903,33,32765
3.73614,0.856762,-0.533041,33,32765
3.74849,0.846144,-0.53594,34,32765
3.74156,0.831191,-0.535474,34,32765
3.76359,0.822458,-0.539458,33,32765
3.74685,0.805365,-0.537975,32,32765
3.74947,0.792157,-0.539281,32,32765
3.78116,0.785164,-0.544375,33,32765
3.76427,0.768146,-0.542824,33,32765
3.77647,0.757053,-0.545224,33,32765
3.78865,0.745968,-0.547424,33,32765
3.80076,0.734826,-0.549848,34,32765
3.8128,0.723689,-0.552487,33,32765
3.79567,0.707088,-0.55037,33,32765
3.83692,0.701162,-0.556817,34,32765
3.8002,0.680893,-0.552177,33,32765
3.82192,0.671156,-0.555794,32,32765
3.82409,0.657928,-0.556669,33,32765
3.80667,0.641675,-0.554555,33,32765
3.80878,0.628618,-0.555021,32,32765
3.84991,0.621817,-0.561341,33,32765
3.84222,0.606632,-0.560544,33,32765
3.85401,0.594627,-0.562728,32,32765
3.87553,0.58423,-0.566149,32,32765
3.83822,0.565271,-0.561162,33,32765
3.86943,0.556429,-0.566046,32,32765
3.87127,0.543075,-0.566449,32,32765
3.89264,0.53222,-0.570102,32,32765
3.83555,0.510771,-0.561915,27,32765
1.99219,0.258275,-0.292186,19,32765
2.01266,0.253949,-0.295315,17,32765
2.00365,0.2459,-0.294143,17,32765
1.97497,0.23555,-0.290027,17,32765
1.96587,0.227716,-0.288999,18,32765
1.94694,0.218738,-0.286312,17,32765
1.92795,0.209909,-0.283777,17,32765
1.90894,0.201159,-0.28122,17,32765
1.89975,0.193556,-0.279954,17,32765
1.87085,0.184155,-0.275713,17,32765
1.8517,0.175882,-0.27325,17,32765
1.8818,0.172337,-0.277877,17,32765
1.87245,0.16507,-0.276899,17,32765
1.82365,0.154526,-0.270033,18,32765
1.8143,0.147583,-0.268613,17,32765
1.81474,0.141393,-0.268947,17,32765
1.80529,0.134488,-0.267837,17,32765
1.7465,0.124131,-0.259256,16,32765
1.79621,0.121512,-0.26696,17,32765
1.71761,0.110396,-0.255407,17,32765
1.69817,0.103427,-0.252855,18,32765
1.69846,0.0977461,-0.253117,18,32765
1.66909,0.0904387,-0.249096,18,32765
1.65945,0.0842638,-0.248035,18,32765
1.65969,0.078653,-0.248263,18,32765
1.64014,0.0721364,-0.245669,18,32765
1.62055,0.0657898,-0.243109,18,32765
1.63058,0.0606877,-0.245014,18,32765
1.60105,0.054174,-0.241024,18,32765
1.60117,0.0488405,-0.241423,18,32765
1.57162,0.0426786,-0.237245,18,32765
1.54205,0.0367549,-0.233089,17,32765
1.52231,0.031089,-0.23069,18,32765
1.53224,0.0260878,-0.232487,17,32765
1.52238,0.0207829,-0.23135,18,32765
1.53224,0.0157963,-0.233423,18,32765
1.51244,0.0106349,-0.230925,17,32765
1.50251,0.00560795,-0.229823,17,32765
1.47278,0.000634537,-0.225883,17,32765
1.45292,-0.00422342,-0.223386,16,32765
1.48246,-0.00930779,-0.22855,16,32765
1.40325,-0.0135177,-0.217014,17,32765
1.43275,-0.0185449,-0.222202,17,32765
3.50933,1.19062,-0.504575,30,32765
3.55054,1.19163,-0.511944,29,32765
3.55426,1.18007,-0.512934,28,32765
3.53912,1.16202,-0.511763,28,32765
3.57111,1.15934,-0.516943,28,32765
3.58424,1.1503,-0.519654,29,32765
3.5879,1.13818,-0.521069,30,32765
3.62936,1.13797,-0.527622,30,32765
3.58569,1.11117,-0.521769,29,32765
3.62713,1.11078,-0.528221,30,32765
3.63075,1.09845,-0.52913,30,32765
3.61537,1.08033,-0.527311,30,32765
3.5999,1.06235,-0.52559,29,32765
3.64143,1.06111,-0.531892,30,32765
3.64483,1.04883,-0.532959,30,32765
3.65782,1.03907,-0.535073,29,32765
3.62302,1.01591,-0.530693,28,32765
3.65497,1.01152,-0.535627,29,32765
3.65824,0.999103,-0.536599,30,32765
3.67103,0.9893,-0.53893,31,32765
3.68383,0.979128,-0.541474,31,32765
3.66786,0.961484,-0.539662,31,32765
3.69024,0.953748,-0.543161,30,32765
3.70297,0.94355,-0.545263,30,32765
3.70602,0.931002,-0.546122,30,32765
3.70904,0.918383,-0.546982,29,32765
3.74083,0.912875,-0.552217,29,32765
3.73418,0.89786,-0.551513,30,32765
3.71783,0.880496,-0.54963,29,32765
3.71107,0.865321,-0.549253,29,32765
3.76219,0.863267,-0.557371,31,32765
3.75544,0.847677,-0.556939,30,32765
3.74864,0.832293,-0.556245,30,32765
3.76102,0.821357,-0.558721,30,32765
3.74436,0.804281,-0.556623,30,32765
3.78567,0.799606,-0.563409,30,32765
3.76888,0.782554,-0.561499,30,32765
3.76166,0.767665,-0.561229,29,32765
3.79329,0.760514,-0.566305,30,32765
3.79572,0.747434,-0.567419,30,32765
3.77872,0.730457,-0.565507,29,32765
3.81025,0.722788,-0.57094,30,32765
3.81259,0.709533,-0.571912,30,32765
3.82461,0.698035,-0.574432,30,32765
3.80736,0.681385,-0.572587,29,32765
3.82905,0.671624,-0.576388,30,32765
3.82141,0.656679,-0.576199,29,32765
3.8235,0.64362,-0.577036,30,32765
3.84502,0.633669,-0.581247,29,32765
3.85681,0.622189,-0.58341,29,32765
3.85879,0.608852,-0.584408,29,32765
3.86073,0.59545,-0.585437,29,32765
3.85283,0.580402,-0.585161,28,32765
3.89383,0.572604,-0.592116,29,32765
3.84674,0.55213,-0.585331,29,32765
3.86808,0.54152,-0.589277,27,32765
3.86974,0.528099,-0.59055,21,32765
2.04843,0.272422,-0.312768,17,32765
2.01986,0.261617,-0.308738,15,32765
2.0403,0.25725,-0.312069,16,32765
2.06071,0.25273,-0.315602,17,32765
1.98299,0.23634,-0.303811,16,32765
1.99352,0.230785,-0.305802,16,32765
1.97459,0.221726,-0.303189,17,32765
1.96545,0.213934,-0.302047,17,32765
1.94645,0.205092,-0.299424,17,32765
1.9176,0.195385,-0.295212,17,32765
1.93788,0.190738,-0.298545,17,32765
1.91879,0.182305,-0.295796,16,32765
1.84064,0.168615,-0.28375,16,32765
1.87069,0.164937,-0.288624,17,32765
1.84161,0.156053,-0.284649,16,32765
1.83227,0.149025,-0.283186,16,32765
1.83274,0.142823,-0.283335,16,32765
1.81349,0.135137,-0.280322,16,32765
1.77448,0.126211,-0.274418,17,32765
1.77486,0.120155,-0.274652,17,32765
1.74563,0.112255,-0.270327,16,32765
1.75587,0.106946,-0.271794,17,32765
1.71676,0.09873,-0.265711,17,32765
1.73679,0.0940669,-0.268933,17,32765
1.70747,0.0866785,-0.264422,17,32765
1.70775,0.0809609,-0.264439,17,32765
1.65865,0.073087,-0.25676,18,32765
1.67864,0.0683465,-0.259806,18,32765
1.669,0.0623776,-0.258165,17,32765
1.65933,0.0563878,-0.256614,17,32765
1.62988,0.0498712,-0.25201,17,32765
1.60039,0.0436272,-0.247479,17,32765
1.60056,0.0382607,-0.24728,17,32765
1.62047,0.0332728,-0.250138,17,32765
1.57118,0.0269618,-0.242407,17,32765
1.53176,0.0211737,-0.236161,16,32765
1.54174,0.0162831,-0.237461,16,32765
1.54183,0.0112066,-0.237132,16,32765
1.50237,0.00602827,-0.230766,17,32765
1.49254,0.00097548,-0.228986,16,32765
1.4827,-0.00394531,-0.227126,16,32765
1.5025,-0.00902048,-0.229787,17,32765
1.49267,-0.013912,-0.22772,17,32765
1.50259,-0.018955,-0.228642,17,32765
3.47531,1.18329,-0.534957,31,32765
3.57268,1.20335,-0.551366,33,32765
3.55766,1.18542,-0.549467,33,32765
3.55197,1.17041,-0.549569,33,32765
3.57453,1.1646,-0.553579,33,32765
3.56883,1.14945,-0.553469,33,32765
3.57248,1.13735,-0.554882,33,32765
3.59501,1.13124,-0.558872,33,32765
3.58918,1.11623,-0.558427,32,32765
3.57384,1.09838,-0.556424,31,32765
3.59635,1.09194,-0.560272,33,32765
3.62836,1.0881,-0.565647,33,32765
3.61294,1.07002,-0.563749,33,32765
3.64495,1.06594,-0.568947,34,32765
3.62936,1.04813,-0.56705,33,32765
3.63282,1.03567,-0.567772,33,32765
3.64567,1.02593,-0.570463,33,32765
3.67761,1.02144,-0.575684,34,32765
3.65231,1.00107,-0.572184,33,32765
3.67463,0.993834,-0.576106,33,32765
3.65877,0.975971,-0.57425,32,32765
3.67151,0.96591,-0.576756,33,32765
3.6843,0.95565,-0.57894,33,32765
3.68745,0.942988,-0.579632,33,32765
3.70008,0.932872,-0.581999,33,32765
3.70311,0.920234,-0.582862,34,32765
3.71566,0.910018,-0.585352,32,32765
3.70901,0.895045,-0.584554,32,32765
3.73115,0.886862,-0.58855,33,32765
3.72443,0.871596,-0.588087,32,32765
3.7466,0.862823,-0.59211,34,32765
3.73987,0.847243,-0.591585,34,32765
3.74272,0.834018,-0.592325,33,32765
3.74545,0.820951,-0.593366,33,32765
3.76745,0.812211,-0.597207,33,32765
3.76039,0.797188,-0.596705,33,32765
3.76296,0.784207,-0.597678,33,32765
3.77513,0.77326,-0.600395,33,32765
3.77767,0.760186,-0.601132,33,32765
3.78979,0.749036,-0.603789,33,32765
3.79222,0.735795,-0.604785,34,32765
3.7849,0.720659,-0.604306,33,32765
3.81637,0.712894,-0.609931,32,32765
3.79923,0.696006,-0.607884,33,32765
3.81116,0.684635,-0.61052,32,32765
3.8231,0.673115,-0.612951,33,32765
3.83495,0.661505,-0.615795,33,32765
3.7981,0.641777,-0.610379,32,32765
3.82932,0.633493,-0.616338,33,32765
3.8411,0.622031,-0.618594,32,32765
3.85282,0.610252,-0.621162,32,32765
3.88404,0.601363,-0.626918,32,32765
3.85664,0.583235,-0.623402,32,32765
3.87805,0.572512,-0.627571,33,32765
3.81149,0.549219,-0.617156,30,32765
1.92617,0.270723,-0.312225,17,32765
2.00525,0.274741,-0.325565,17,32765
1.96699,0.262636,-0.319503,17,32765
1.94822,0.253353,-0.316768,17,32765
1.94902,0.246734,-0.317087,18,32765
1.91058,0.235271,-0.311208,18,32765
1.91133,0.228734,-0.311433,18,32765
1.84338,0.214285,-0.300704,17,32765
1.87348,0.211247,-0.305883,17,32765
1.86432,0.203778,-0.30463,18,32765
1.85513,0.196297,-0.303406,17,32765
1.84593,0.188887,-0.302114,17,32765
1.85634,0.183501,-0.304015,18,32765
1.81761,0.173445,-0.297848,17,32765
1.81817,0.167292,-0.297937,18,32765
1.74004,0.154102,-0.285353,17,32765
1.7503,0.148987,-0.28752,17,32765
1.75078,0.14305,-0.287577,17,32765
1.76107,0.137876,-0.289337,17,32765
1.71232,0.1282,-0.281287,18,32765
1.69303,0.120996,-0.278235,17,32765
1.70324,0.115871,-0.280078,17,32765
1.72328,0.111371,-0.283566,17,32765
1.65471,0.101299,-0.272167,17,32765
1.67474,0.0968165,-0.275432,17,32765
1.65532,0.0901349,-0.272353,19,32765
1.6359,0.0835026,-0.26918,18,32765
1.64602,0.078478,-0.270819,18,32765
1.62657,0.0720948,-0.26754,18,32765
1.58736,0.0650255,-0.261045,18,32765
1.60731,0.0604559,-0.264179,19,32765
1.59765,0.0546568,-0.262537,18,32765
1.59783,0.0492392,-0.262516,19,32765
1.55852,0.0428101,-0.256084,18,32765
1.55869,0.0375681,-0.255891,18,32765
1.55884,0.0322995,-0.255703,18,32765
1.52935,0.026515,-0.250746,18,32765
1.48999,0.0208453,-0.244133,17,32765
1.50982,0.0161832,-0.247147,17,32765
1.45071,0.0107575,-0.237145,18,32765
1.45078,0.00602006,-0.23687,18,32765
1.44096,0.00112445,-0.235006,18,32765
1.45088,-0.00369143,-0.236279,16,32765
1.42131,-0.0083818,-0.23111,16,32765
1.42136,-0.0131107,-0.230582,17,32765
0,-0,-0,0,32765
2.95513,2.18007,0.653745,24,32765
2.93855,2.1531,0.647376,24,32765
2.97758,2.16683,0.653053,24,32765
2.98511,2.15687,0.651605,25,32765
2.92857,2.1011,0.635945,25,32765
2.98401,2.12565,0.644739,25,32765
2.98329,2.11009,0.641592,26,32765
2.99063,2.10017,0.639936,26,32765
2.9738,2.07324,0.632944,25,32765
2.98093,2.06345,0.631377,25,32765
2.98795,2.05384,0.629494,26,32765
3.01928,2.06093,0.632927,26,32765
2.97724,2.01802,0.621396,24,32765
3.03323,2.0413,0.62984,26,32765
3.04839,2.03693,0.629779,27,32765
2.99785,1.98881,0.616502,24,32765
3.02114,1.98984,0.618181,25,32765
3.02787,1.98017,0.616299,25,32765
3.04286,1.97561,0.616722,25,32765
3.03296,1.95507,0.611931,25,32765
3.05633,1.95569,0.613604,25,32765
3.0713,1.95098,0.613938,26,32765
3.06956,1.93574,0.610827,27,32765
3.07613,1.92579,0.609246,26,32765
3.0659,1.90545,0.604226,26,32765
3.07238,1.8954,0.602968,26,32765
3.11251,1.90586,0.608222,28,32765
3.1021,1.88542,0.60379,26,32765
3.08339,1.85979,0.596995,26,32765
3.09812,1.8548,0.597468,27,32765
3.10448,1.84465,0.595863,25,32765
3.11077,1.83446,0.594515,26,32765
3.15099,1.84433,0.599747,28,32765
3.15721,1.83406,0.598552,28,32765
3.12063,1.79916,0.589201,26,32765
3.16098,1.80862,0.594296,29,32765
3.15861,1.79333,0.591208,28,32765
3.15605,1.77811,0.588735,28,32765
3.17937,1.77738,0.590465,27,32765
3.16806,1.75744,0.586233,27,32765
3.15678,1.73756,0.581489,27,32765
3.15408,1.72232,0.578796,26,32765
3.17734,1.72114,0.58121,28,32765
3.16594,1.70113,0.576729,26,32765
3.1978,1.7047,0.580469,27,32765
3.20342,1.69439,0.579701,27,32765
3.2178,1.68866,0.580176,28,32765
3.19716,1.66458,0.574337,26,32765
3.21163,1.65849,0.574859,27,32765
3.20848,1.64331,0.572448,27,32765
3.21426,1.63246,0.571047,25,32765
3.1494,1.58603,0.557385,17,32765
3.19901,1.59751,0.564542,21,32765
3.18684,1.57792,0.560572,20,32765
3.17446,1.55871,0.556443,20,32765
3.17977,1.54826,0.555302,20,32765
3.21172,1.55063,0.559035,23,32765
3.26148,1.56141,0.565963,28,32765
3.28469,1.5591,0.567827,28,32765
3.26313,1.5357,0.562211,28,32765
3.28627,1.53328,0.564236,28,32765
3.30046,1.52652,0.564855,29,32765
3.33259,1.52803,0.568386,28,32765
3.28384,1.49243,0.558172,28,32765
3.30695,1.48969,0.560195,28,32765
3.28498,1.46667,0.554456,27,32765
3.28099,1.4517,0.551865,27,32765
3.34925,1.46872,0.561615,28,32765
3.30903,1.43788,0.552558,27,32765
3.35023,1.44248,0.557944,28,32765
3.29153,1.40424,0.546209,27,32765
3.41469,1.44339,0.564833,29,32765
3.35581,1.40538,0.552997,28,32765
3.3333,1.38288,0.547008,26,32765
3.40197,1.39822,0.556743,31,32765
3.37015,1.37215,0.549292,28,32765
3.38391,1.36488,0.549872,29,32765
3.38849,1.35393,0.548743,28,32765
3.36556,1.33193,0.542768,28,32765
3.38845,1.32828,0.544479,29,32765
3.39297,1.31717,0.543361,30,32765
3.38822,1.30247,0.540753,27,32765
3.4481,1.31267,0.548073,30,32765
3.3878,1.27696,0.536451,28,32765
3.44767,1.28678,0.544212,30,32765
3.40564,1.25844,0.535578,28,32765
3.43785,1.25748,0.538455,29,32765
3.43271,1.24304,0.536116,29,32765
3.45564,1.23849,0.537395,29,32765
3.45041,1.22427,0.534659,32,32765
3.45456,1.21319,0.533068,29,32765
3.46802,1.2054,0.53286,29,32765
3.47207,1.19436,0.531365,29,32765
3.47614,1.18316,0.529801,29,32765
3.49879,1.17857,0.531349,29,32765
3.47463,1.15802,0.525324,29,32765
3.53486,1.16579,0.532291,29,32765
3.51047,1.14575,0.526054,30,32765
3.53317,1.14088,0.526851,30,32765
3.53695,1.12996,0.525004,32,32765
3.52191,1.11306,0.519746,30,32765
2.95084,2.17938,0.61747,26,32765
2.91832,2.14069,0.608066,26,32765
2.94937,2.14872,0.611726,27,32765
2.98082,2.15618,0.615239,27,32765
2.97225,2.13482,0.610191,29,32765
2.98771,2.13064,0.610202,29,32765
3.00309,2.12644,0.610418,29,32765
2.99434,2.10509,0.605485,29,32765
3.01794,2.10633,0.606903,28,32765
3.00085,2.07951,0.600444,29,32765
3.02418,2.08101,0.601782,30,32765
3.01488,2.06016,0.59685,29,32765
3.02994,2.05596,0.597143,28,32765
3.02881,2.04052,0.593764,29,32765
3.05218,2.04165,0.595212,30,32765
3.03447,2.01525,0.588967,30,32765
3.04138,2.00531,0.587255,29,32765
3.0812,2.01718,0.591705,30,32765
3.04665,1.98016,0.582515,28,32765
3.05333,1.97027,0.581064,29,32765
3.06013,1.96018,0.579391,29,32765
3.08345,1.96075,0.581199,29,32765
3.08174,1.94543,0.578174,29,32765
3.0967,1.94067,0.578149,30,32765
3.10327,1.93066,0.576418,30,32765
3.08461,1.9049,0.570481,30,32765
3.10797,1.90503,0.572255,29,32765
3.11442,1.89482,0.571104,31,32765
3.12952,1.88953,0.570751,30,32765
3.12742,1.87422,0.568034,30,32765
3.15932,1.87911,0.571017,30,32765
3.14019,1.85365,0.565051,31,32765
3.15493,1.84847,0.565313,31,32765
3.1697,1.84313,0.565641,31,32765
3.11598,1.79824,0.553707,29,32765
3.1821,1.82247,0.562983,31,32765
3.14538,1.78755,0.553924,31,32765
3.17723,1.79176,0.557591,32,32765
3.17473,1.77648,0.554603,31,32765
3.18069,1.76612,0.553566,31,32765
3.18672,1.7557,0.552001,31,32765
3.2101,1.75456,0.553881,32,32765
3.19003,1.72963,0.54862,30,32765
3.21347,1.72827,0.550284,31,32765
3.21928,1.71774,0.549263,31,32765
3.22494,1.70734,0.548489,31,32765
3.24813,1.70612,0.550346,32,32765
3.22751,1.6819,0.544775,31,32765
3.25962,1.68478,0.548148,32,32765
3.25655,1.66942,0.545817,31,32765
3.26242,1.65839,0.544395,31,32765
3.26822,1.64731,0.543205,30,32765
3.17653,1.58766,0.526409,22,32765
3.22634,1.59886,0.532879,26,32765
3.23177,1.58821,0.531845,25,32765
3.24607,1.58188,0.53214,26,32765
3.26035,1.57544,0.532664,26,32765
3.25672,1.56044,0.530394,28,32765
3.29781,1.56663,0.534972,32,32765
3.26729,1.53893,0.528184,32,32765
3.29046,1.5365,0.53002,32,32765
3.2957,1.52555,0.529103,31,32765
3.32785,1.52709,0.532355,33,32765
3.32407,1.51192,0.529882,32,32765
3.30215,1.48871,0.524539,31,32765
3.31628,1.48181,0.5248,31,32765
3.34854,1.48274,0.528,32,32765
3.35353,1.47173,0.527106,32,32765
3.34957,1.4566,0.524196,31,32765
3.36361,1.44934,0.524943,32,32765
3.35947,1.43429,0.522349,32,32765
3.34612,1.41545,0.518547,31,32765
3.37837,1.41587,0.521483,32,32765
3.35585,1.39325,0.515764,32,32765
3.38801,1.39348,0.519227,33,32765
3.39279,1.38235,0.517752,33,32765
3.4066,1.375,0.518232,33,32765
3.4204,1.36763,0.518488,33,32765
3.45272,1.36737,0.521117,34,32765
3.42043,1.34173,0.514291,33,32765
3.46192,1.34484,0.518695,34,32765
3.41103,1.31211,0.509256,33,32765
3.44323,1.31169,0.511877,34,32765
3.44771,1.3004,0.510517,32,32765
3.46133,1.29271,0.510852,34,32765
3.45642,1.27802,0.508143,34,32765
3.45151,1.26328,0.505269,33,32765
3.46501,1.25552,0.505739,33,32765
3.49732,1.25421,0.508171,34,32765
3.48278,1.23651,0.50416,33,32765
3.47762,1.22202,0.501206,33,32765
3.49111,1.21415,0.500893,34,32765
3.50455,1.20624,0.500728,34,32765
3.49927,1.19172,0.497813,34,32765
3.52196,1.18706,0.499165,35,32765
3.52599,1.17581,0.497389,36,32765
3.52045,1.16169,0.494516,35,32765
3.52427,1.1509,0.492518,34,32765
3.51869,1.13684,0.489185,33,32765
3.53189,1.12896,0.488652,33,32765
3.52625,1.11504,0.484884,33,32765
2.91698,2.15124,0.576442,25,32765
2.95579,2.16517,0.582635,25,32765
2.95486,2.14979,0.58068,24,32765
2.98604,2.15749,0.584544,26,32765
2.92901,2.10155,0.571769,25,32765
2.96022,2.10902,0.575795,24,32765
2.96716,2.09939,0.575279,24,32765
2.96593,2.08414,0.573164,25,32765
2.99701,2.09166,0.576959,25,32765
3.01208,2.08755,0.577591,25,32765
3.01903,2.07774,0.576658,25,32765
2.98519,2.03993,0.568244,25,32765
3.00022,2.0357,0.568742,25,32765
3.0235,2.03681,0.570911,26,32765
2.99756,2.00481,0.563784,25,32765
3.00436,1.99493,0.562661,26,32765
3.02743,1.99612,0.564864,25,32765
3.02585,1.9808,0.562357,24,32765
3.05731,1.98711,0.566018,25,32765
3.03087,1.95555,0.558699,25,32765
3.05418,1.95618,0.560584,25,32765
3.069,1.95158,0.561224,26,32765
3.04216,1.92044,0.553882,26,32765
3.07373,1.92628,0.557261,27,32765
3.08862,1.9214,0.557689,27,32765
3.06996,1.89552,0.55211,27,32765
3.0764,1.88533,0.551188,26,32765
3.11663,1.89569,0.555933,27,32765
3.13152,1.89063,0.555968,28,32765
3.12944,1.87527,0.55324,28,32765
3.15265,1.87521,0.555401,26,32765
3.13342,1.84977,0.549918,27,32765
3.13129,1.83433,0.546944,28,32765
3.11186,1.80902,0.54163,26,32765
3.12672,1.80355,0.541608,28,32765
3.14139,1.79825,0.54182,26,32765
3.13013,1.77838,0.537821,27,32765
3.17059,1.78757,0.542574,27,32765
3.18527,1.78202,0.542728,28,32765
3.18286,1.76646,0.539815,28,32765
3.16295,1.74144,0.534451,26,32765
3.16017,1.72632,0.531744,27,32765
3.17481,1.72048,0.532011,28,32765
3.2068,1.72416,0.534888,28,32765
3.20401,1.7088,0.532173,29,32765
3.23614,1.71202,0.535161,30,32765
3.21565,1.68766,0.529449,28,32765
3.17746,1.65426,0.521148,26,32765
3.24453,1.67579,0.529955,28,32765
3.22389,1.65153,0.52399,28,32765
3.25597,1.65429,0.527322,30,32765
3.18212,1.60325,0.513494,24,32765
3.22311,1.61018,0.518192,22,32765
3.20208,1.58619,0.512634,22,32765
3.23431,1.58844,0.515455,21,32765
3.24865,1.582,0.515813,22,32765
3.20945,1.54983,0.507403,20,32765
3.25922,1.56077,0.513773,26,32765
3.3092,1.57141,0.519473,30,32765
3.28761,1.54789,0.514356,30,32765
3.24798,1.51617,0.506242,28,32765
3.316,1.53461,0.515022,30,32765
3.24926,1.49064,0.502411,27,32765
3.30838,1.50452,0.509845,29,32765
3.33158,1.50172,0.511394,29,32765
3.33665,1.49073,0.510456,29,32765
3.32353,1.47175,0.506985,28,32765
3.32852,1.46073,0.506107,29,32765
3.36067,1.46169,0.509253,29,32765
3.34755,1.44264,0.505076,29,32765
3.33414,1.42381,0.501861,29,32765
3.32983,1.40905,0.499319,28,32765
3.38933,1.42106,0.507101,29,32765
3.32998,1.38352,0.496694,27,32765
3.38052,1.3914,0.502178,29,32765
3.36672,1.37299,0.498986,28,32765
3.35284,1.35469,0.49575,28,32765
3.36655,1.34743,0.49638,29,32765
3.38944,1.3438,0.498315,28,32765
3.40312,1.33636,0.498985,29,32765
3.40756,1.32521,0.498455,29,32765
3.46738,1.33554,0.50606,32,32765
3.44408,1.31357,0.501225,30,32765
3.42982,1.29544,0.498136,30,32765
3.39699,1.27029,0.492353,29,32765
3.4662,1.28341,0.501227,32,32765
3.45175,1.26544,0.498139,31,32765
3.40938,1.23727,0.490835,28,32765
3.46943,1.24629,0.498223,30,32765
3.48287,1.23823,0.499306,30,32765
3.47754,1.22364,0.497818,30,32765
3.47201,1.20948,0.496422,30,32765
3.5133,1.21142,0.501645,31,32765
3.47957,1.18757,0.496315,31,32765
3.45525,1.16685,0.492027,30,32765
3.50602,1.17129,0.498806,30,32765
3.51924,1.16308,0.499764,31,32765
3.56058,1.1641,0.505507,33,32765
3.53589,1.14375,0.501851,33,32765
3.55829,1.13861,0.505036,33,32765
3.54284,1.12149,0.502995,31,32765
2.92776,2.16215,0.543784,28,32765
2.96665,2.17608,0.549603,29,32765
2.95776,2.15482,0.546262,28,32765
2.997,2.16832,0.551318,29,32765
3.00421,2.15838,0.551073,31,32765
2.98733,2.13116,0.545971,29,32765
2.97821,2.10999,0.542508,29,32765
2.9851,2.10037,0.541952,28,32765
2.99194,2.09085,0.541061,29,32765
3.01515,2.09239,0.543065,28,32765
3.00582,2.07132,0.539207,28,32765
3.02092,2.06699,0.540016,29,32765
3.01968,2.05152,0.537494,29,32765
3.04303,2.05257,0.539469,30,32765
3.04999,2.04246,0.538513,30,32765
3.0734,2.04334,0.540266,30,32765
3.07187,2.02796,0.537923,31,32765
3.0704,2.01246,0.535494,29,32765
3.06881,1.99705,0.533097,31,32765
3.07562,1.98686,0.531895,30,32765
3.08239,1.97667,0.530706,30,32765
3.07225,1.95602,0.526948,30,32765
3.09558,1.95653,0.528547,31,32765
3.08537,1.93592,0.524498,29,32765
3.09191,1.92576,0.523405,29,32765
3.08166,1.90502,0.519523,30,32765
3.105,1.90513,0.52143,30,32765
3.11997,1.89997,0.521549,30,32765
3.11793,1.88465,0.518669,30,32765
3.12431,1.87439,0.517445,30,32765
3.12202,1.85915,0.515207,30,32765
3.14533,1.85895,0.517018,31,32765
3.15175,1.84846,0.515528,31,32765
3.15802,1.83797,0.514671,31,32765
3.14725,1.81748,0.51036,30,32765
3.15339,1.80717,0.509083,30,32765
3.16796,1.80192,0.509418,30,32765
3.17404,1.79153,0.508258,31,32765
3.22331,1.80532,0.513826,33,32765
3.20365,1.77998,0.508242,32,32765
3.21845,1.77397,0.508634,33,32765
3.20708,1.75388,0.504629,31,32765
3.22182,1.74788,0.504785,31,32765
3.21031,1.72794,0.500558,31,32765
3.225,1.72187,0.500647,32,32765
3.24844,1.72039,0.501992,33,32765
3.22794,1.69594,0.496554,32,32765
3.23367,1.68533,0.495446,32,32765
3.23929,1.67487,0.494177,32,32765
3.24507,1.66415,0.492508,32,32765
3.27722,1.66684,0.495553,33,32765
3.22987,1.62902,0.486557,31,32765
3.28871,1.64466,0.493526,30,32765
3.23225,1.6028,0.482914,25,32765
3.23788,1.59184,0.481472,27,32765
3.27006,1.59406,0.484374,28,32765
3.27547,1.58332,0.483001,26,32765
3.27177,1.56837,0.481005,28,32765
3.27705,1.55771,0.479679,29,32765
3.29125,1.55116,0.480083,33,32765
3.30547,1.54455,0.480264,33,32765
3.32867,1.542,0.481861,35,32765
3.33396,1.531,0.480376,34,32765
3.33913,1.51999,0.479451,33,32765
3.34431,1.50893,0.478216,33,32765
3.33131,1.48978,0.474694,32,32765
3.38162,1.49891,0.480426,33,32765
3.34131,1.46774,0.473104,32,32765
3.34623,1.45679,0.472116,32,32765
3.36039,1.44953,0.471968,32,32765
3.39259,1.45011,0.475326,34,32765
3.40661,1.44287,0.475406,34,32765
3.37483,1.41627,0.469883,32,32765
3.38866,1.40918,0.470302,32,32765
3.41182,1.40555,0.471492,34,32765
3.41642,1.3945,0.471014,35,32765
3.41179,1.37972,0.469221,33,32765
3.40717,1.36488,0.467219,33,32765
3.4117,1.35379,0.466436,33,32765
3.40696,1.33902,0.464489,32,32765
3.43914,1.33863,0.46773,34,32765
3.43428,1.3239,0.465977,33,32765
3.44798,1.31615,0.466446,35,32765
3.44299,1.30148,0.464795,34,32765
3.44731,1.29015,0.464391,34,32765
3.44223,1.27556,0.4626,34,32765
3.45569,1.26789,0.463448,34,32765
3.44124,1.24981,0.460353,33,32765
3.46405,1.24532,0.462191,35,32765
3.46816,1.23394,0.461935,33,32765
3.46281,1.21937,0.460541,32,32765
3.476,1.21176,0.461727,33,32765
3.51735,1.2137,0.466576,33,32765
3.50237,1.19621,0.464107,34,32765
3.51565,1.18808,0.465072,33,32765
3.51008,1.17346,0.463922,34,32765
3.51391,1.1621,0.463543,34,32765
3.527,1.15389,0.465179,34,32765
3.52113,1.13972,0.464289,35,32765
3.51521,1.12554,0.463546,34,32765
3.53755,1.12051,0.466676,35,32765
2.92975,2.15572,0.558417,23,32765
2.92924,2.14044,0.554043,23,32765
2.9687,2.15411,0.557441,25,32765
2.93619,2.11534,0.547459,23,32765
2.98376,2.1345,0.552422,25,32765
2.9832,2.11894,0.548277,25,32765
2.99038,2.10927,0.546429,25,32765
2.98138,2.08826,0.541275,26,32765
2.97217,2.06739,0.53636,25,32765
2.99553,2.06888,0.537525,25,32765
3.01909,2.07015,0.538149,26,32765
3.03448,2.06566,0.537669,26,32765
3.02514,2.04472,0.532677,26,32765
3.04049,2.04019,0.53202,28,32765
3.05565,2.03583,0.531536,26,32765
3.02959,2.00397,0.523991,26,32765
3.05298,2.00498,0.524889,26,32765
3.10124,2.02205,0.530289,27,32765
3.04995,1.97429,0.518562,27,32765
3.03998,1.95363,0.514135,26,32765
